# .PCD v0.7 - Point Cloud Data file format
VERSION 0.7
FIELDS x y z rgb
SIZE 4 4 4 4
TYPE F F F F
COUNT 1 1 1 1
WIDTH 461
HEIGHT 1
VIEWPOINT 0 0 0 1 0 0 0
POINTS 461
DATA ascii
0.60237658 -0.17011203 0.069291882 1.4750269e-38
0.60237658 -0.17011203 0.07179188 4.7833729e-39
0.59987658 -0.16511203 0.059291881 6.449025e-39
0.59987658 -0.16261202 0.059291881 6.8160278e-39
0.60237658 -0.15011203 0.059291881 3.7760551e-39
0.58987659 -0.16261202 0.069291882 5.8958512e-39
0.58987659 -0.16011202 0.069291882 5.4370408e-39
0.59237659 -0.16261202 0.069291882 5.345899e-39
0.59237659 -0.16011202 0.069291882 5.1604526e-39
0.5848766 -0.16761203 0.07179188 1.4374609e-38
0.5848766 -0.16511203 0.07179188 1.2256964e-38
0.58737659 -0.16761203 0.07179188 1.465012e-38
0.58737659 -0.16761203 0.074291885 1.2069056e-38
0.58737659 -0.16511203 0.07179188 1.1887473e-38
0.58737659 -0.16511203 0.074291885 9.7709375e-39
0.5848766 -0.16261202 0.07179188 4.3281401e-39
0.58737659 -0.16261202 0.07179188 3.3175951e-39
0.58737659 -0.16261202 0.074291885 3.9629645e-39
0.58987659 -0.16511203 0.07179188 3.4094404e-39
0.58987659 -0.16511203 0.074291885 2.1255414e-39
0.59237659 -0.16511203 0.07179188 3.4112383e-39
0.59237659 -0.16511203 0.074291885 3.5034339e-39
0.58987659 -0.16261202 0.07179188 5.530649e-39
0.58987659 -0.16261202 0.074291885 4.7898568e-39
0.59237659 -0.16261202 0.07179188 5.3430305e-39
0.59237659 -0.16261202 0.074291885 5.5277721e-39
0.59237659 -0.16011202 0.07179188 3.5923701e-39
0.59237659 -0.16011202 0.074291885 5.4337786e-39
0.59237659 -0.15761203 0.069291882 3.7760551e-39
0.59237659 -0.15761203 0.07179188 3.8682508e-39
0.59237659 -0.15761203 0.074291885 4.4214246e-39
0.59487659 -0.16011202 0.069291882 5.1586393e-39
0.60237658 -0.16761203 0.069291882 3.4072726e-39
0.59487659 -0.16761203 0.07179188 3.4994683e-39
0.59487659 -0.16761203 0.074291885 3.2257484e-39
0.59487659 -0.16511203 0.07179188 4.5136202e-39
0.59487659 -0.16511203 0.074291885 4.0555105e-39
0.59737659 -0.16511203 0.07179188 4.2406136e-39
0.59737659 -0.16511203 0.074291885 3.8693326e-39
0.59487659 -0.16261202 0.07179188 5.9869524e-39
0.59487659 -0.16261202 0.074291885 6.6276541e-39
0.59487659 -0.16011202 0.07179188 5.2490174e-39
0.59487659 -0.16011202 0.074291885 6.1670277e-39
0.59737659 -0.16261202 0.07179188 5.6167406e-39
0.59737659 -0.16261202 0.074291885 7.0961796e-39
0.59737659 -0.16011202 0.07179188 5.0635668e-39
0.59737659 -0.16011202 0.074291885 6.4421754e-39
0.59987658 -0.16761203 0.07179188 2.5829392e-39
0.59987658 -0.16761203 0.074291885 2.9484371e-39
0.59987658 -0.16511203 0.07179188 2.8573232e-39
0.59987658 -0.16511203 0.074291885 4.6032851e-39
0.60237658 -0.16761203 0.07179188 2.0246885e-39
0.60237658 -0.16761203 0.074291885 4.4142191e-39
0.60237658 -0.16511203 0.07179188 3.8711178e-39
0.60237658 -0.16511203 0.074291885 4.4217735e-39
0.59987658 -0.16261202 0.074291885 7.5531851e-39
0.59987658 -0.16011202 0.074291885 6.257801e-39
0.60237658 -0.16261202 0.074291885 5.5259743e-39
0.60237658 -0.16011202 0.074291885 5.6167406e-39
0.59987658 -0.16261202 0.076791883 5.6171161e-39
0.59987658 -0.16011202 0.076791883 5.3408795e-39
0.60237658 -0.16261202 0.076791883 5.5256239e-39
0.60237658 -0.16011202 0.076791883 5.341583e-39
0.59487659 -0.15761203 0.069291882 3.7760551e-39
0.59487659 -0.15511203 0.069291882 3.8679005e-39
0.59737659 -0.15761203 0.069291882 4.1448377e-39
0.59737659 -0.15511203 0.066791885 3.9604464e-39
0.59737659 -0.15511203 0.069291882 4.1448377e-39
0.59737659 -0.15261203 0.066791885 3.8679005e-39
0.59737659 -0.15261203 0.069291882 4.1448377e-39
0.59737659 -0.15011203 0.066791885 3.2253981e-39
0.59737659 -0.15011203 0.069291882 3.3179511e-39
0.59987658 -0.15761203 0.069291882 4.6962136e-39
0.59987658 -0.15511203 0.066791885 3.9600961e-39
0.59987658 -0.15511203 0.069291882 4.1444873e-39
0.59987658 -0.15261203 0.061791882 3.3175951e-39
0.59987658 -0.15011203 0.061791882 3.7753517e-39
0.60237658 -0.15261203 0.061791882 3.9604464e-39
0.60237658 -0.15261203 0.06429188 3.8679005e-39
0.60237658 -0.15011203 0.061791882 3.317242e-39
0.60237658 -0.15011203 0.06429188 3.5913136e-39
0.59987658 -0.15261203 0.066791885 3.8679005e-39
0.59987658 -0.15261203 0.069291882 4.0522917e-39
0.59987658 -0.15011203 0.066791885 3.7760551e-39
0.59987658 -0.15011203 0.069291882 3.4101467e-39
0.59487659 -0.15761203 0.07179188 4.1448377e-39
0.59487659 -0.15761203 0.074291885 4.8806048e-39
0.59487659 -0.15511203 0.07179188 4.0522917e-39
0.59487659 -0.15511203 0.074291885 4.7884092e-39
0.59737659 -0.15761203 0.07179188 4.237392e-39
0.59737659 -0.15761203 0.074291885 4.8806048e-39
0.59737659 -0.15511203 0.07179188 4.052642e-39
0.59737659 -0.15511203 0.074291885 4.9724305e-39
0.59737659 -0.15261203 0.07179188 4.6036662e-39
0.59737659 -0.15261203 0.074291885 4.6040166e-39
0.59737659 -0.15011203 0.07179188 3.7760523e-39
0.59737659 -0.15011203 0.074291885 4.1455467e-39
0.59987658 -0.15761203 0.07179188 4.4214246e-39
0.59987658 -0.15761203 0.074291885 5.5220086e-39
0.59987658 -0.15511203 0.07179188 4.5136202e-39
0.59987658 -0.15511203 0.074291885 5.6188733e-39
0.60237658 -0.15761203 0.074291885 6.6330505e-39
0.60237658 -0.15511203 0.074291885 6.9077975e-39
0.59987658 -0.15761203 0.076791883 5.9840839e-39
0.59987658 -0.15511203 0.076791883 7.0943776e-39
0.60237658 -0.15761203 0.076791883 5.7103739e-39
0.60237658 -0.15511203 0.076791883 5.5266833e-39
0.59987658 -0.15261203 0.07179188 4.236683e-39
0.59987658 -0.15261203 0.074291885 5.4334087e-39
0.59987658 -0.15011203 0.07179188 3.9611527e-39
0.59987658 -0.15011203 0.074291885 4.8813139e-39
0.60237658 -0.15261203 0.074291885 5.7107242e-39
0.60237658 -0.15011203 0.074291885 5.066794e-39
0.59987658 -0.15261203 0.076791883 5.9869524e-39
0.59987658 -0.15011203 0.076791883 5.1589896e-39
0.60237658 -0.15261203 0.076791883 5.3437312e-39
0.60237658 -0.15011203 0.076791883 5.3430305e-39
0.59987658 -0.14761202 0.059291881 3.7753517e-39
0.59987658 -0.14511202 0.059291881 4.5129167e-39
0.60237658 -0.14761202 0.059291881 4.0519386e-39
0.60237658 -0.14511202 0.059291881 4.5129167e-39
0.59737659 -0.14511202 0.06429188 4.2366886e-39
0.59737659 -0.14261203 0.06429188 4.5150677e-39
0.59987658 -0.14761202 0.061791882 3.7753517e-39
0.59987658 -0.14761202 0.06429188 4.0519386e-39
0.59987658 -0.14511202 0.061791882 4.5129167e-39
0.59987658 -0.14511202 0.06429188 4.0522917e-39
0.60237658 -0.14761202 0.061791882 3.4097964e-39
0.60237658 -0.14761202 0.06429188 3.4069223e-39
0.60237658 -0.14511202 0.061791882 3.8700641e-39
0.60237658 -0.14511202 0.06429188 4.4210742e-39
0.59987658 -0.14761202 0.066791885 3.0406635e-39
0.59987658 -0.14761202 0.069291882 3.7753517e-39
0.59987658 -0.14511202 0.066791885 3.5913136e-39
0.59987658 -0.14511202 0.069291882 4.2352354e-39
0.60237658 -0.14761202 0.066791885 3.957578e-39
0.60237658 -0.14761202 0.069291882 3.7753517e-39
0.60237658 -0.14511202 0.066791885 4.7902071e-39
0.60237658 -0.14511202 0.069291882 4.4210742e-39
0.59987658 -0.14261203 0.061791882 3.872564e-39
0.59987658 -0.14261203 0.06429188 4.6969423e-39
0.60237658 -0.14261203 0.06429188 4.9738753e-39
0.59987658 -0.14261203 0.066791885 4.8816796e-39
0.60237658 -0.14261203 0.066791885 6.1627341e-39
0.60237658 -0.14261203 0.069291882 6.7133925e-39
0.59987658 -0.14761202 0.07179188 4.7884092e-39
0.59987658 -0.14761202 0.074291885 4.7887595e-39
0.59987658 -0.14511202 0.07179188 4.6976611e-39
0.59987658 -0.14511202 0.074291885 5.4337786e-39
0.60237658 -0.14761202 0.07179188 4.8820524e-39
0.60237658 -0.14761202 0.074291885 5.1586393e-39
0.60237658 -0.14511202 0.07179188 4.4210742e-39
0.60237658 -0.14511202 0.074291885 5.3430305e-39
0.60237658 -0.14761202 0.076791883 5.2508349e-39
0.60237658 -0.14511202 0.076791883 4.5154153e-39
0.60237658 -0.14261203 0.07179188 5.518382e-39
0.60487658 -0.17011203 0.069291882 1.4472196e-38
0.60737658 -0.17011203 0.069291882 1.382288e-38
0.60987657 -0.17261203 0.069291882 1.1801041e-38
0.60987657 -0.17011203 0.069291882 1.8439126e-39
0.60487658 -0.17011203 0.07179188 2.6711551e-39
0.60737658 -0.17011203 0.07179188 2.3906222e-39
0.60987657 -0.17261203 0.07179188 1.1152803e-38
0.60987657 -0.17011203 0.07179188 2.6708048e-39
0.61237657 -0.17261203 0.07179188 8.3898023e-39
0.61237657 -0.17011203 0.07179188 2.7633522e-39
0.61487657 -0.17261203 0.069291882 8.5741936e-39
0.61737657 -0.17261203 0.069291882 5.7157787e-39
0.61487657 -0.17261203 0.07179188 5.6239334e-39
0.61487657 -0.17011203 0.07179188 2.2126951e-39
0.61737657 -0.17261203 0.07179188 7.3973005e-40
0.61737657 -0.17261203 0.074291885 6.9093193e-39
0.61737657 -0.17011203 0.07179188 2.3074145e-39
0.61737657 -0.17011203 0.074291885 3.8700641e-39
0.61987656 -0.17761202 0.074291885 2.0644962e-38
0.61987656 -0.17511202 0.07179188 4.6951598e-39
0.61987656 -0.17511202 0.074291885 1.6775266e-38
0.62237656 -0.17761202 0.07179188 2.0553104e-38
0.62237656 -0.17761202 0.074291885 1.8615591e-38
0.62237656 -0.17511202 0.07179188 1.705113e-38
0.62237656 -0.17511202 0.074291885 1.474913e-38
0.61987656 -0.17261203 0.07179188 1.1985432e-39
0.61987656 -0.17261203 0.074291885 2.3030985e-39
0.61987656 -0.17011203 0.07179188 2.489282e-39
0.61987656 -0.17011203 0.074291885 5.7114599e-39
0.62237656 -0.17261203 0.07179188 1.8392435e-39
0.62237656 -0.17261203 0.074291885 5.0660905e-39
0.62237656 -0.17011203 0.07179188 5.7107242e-39
0.62237656 -0.17011203 0.074291885 5.8947554e-39
0.60487658 -0.16011202 0.059291881 3.8682508e-39
0.60487658 -0.15761203 0.059291881 3.8679005e-39
0.60487658 -0.15261203 0.059291881 3.8679005e-39
0.60487658 -0.15011203 0.059291881 3.5913136e-39
0.60737658 -0.15261203 0.059291881 3.4097908e-39
0.60737658 -0.15011203 0.059291881 3.317242e-39
0.60487658 -0.16761203 0.07179188 2.3005747e-39
0.60487658 -0.16761203 0.074291885 2.3005747e-39
0.60487658 -0.16511203 0.07179188 4.7898568e-39
0.60487658 -0.16511203 0.074291885 4.7898568e-39
0.60737658 -0.16761203 0.07179188 3.1303354e-39
0.60737658 -0.16761203 0.074291885 5.0664436e-39
0.60737658 -0.16511203 0.074291885 5.3412327e-39
0.60487658 -0.16261202 0.074291885 5.2508349e-39
0.60737658 -0.16261202 0.074291885 5.1586393e-39
0.60487658 -0.16261202 0.076791883 5.1586393e-39
0.60487658 -0.16011202 0.076791883 5.341583e-39
0.60487658 -0.16011202 0.07929188 5.341583e-39
0.60737658 -0.16261202 0.076791883 5.0664436e-39
0.60737658 -0.16011202 0.076791883 4.4217735e-39
0.60737658 -0.16011202 0.07929188 6.3514189e-39
0.60987657 -0.16761203 0.07179188 3.5913136e-39
0.60987657 -0.16761203 0.074291885 4.608334e-39
0.60987657 -0.16511203 0.07179188 4.7898568e-39
0.60987657 -0.16511203 0.074291885 4.7898568e-39
0.61237657 -0.16761203 0.07179188 3.8679005e-39
0.61237657 -0.16761203 0.074291885 4.7909161e-39
0.61237657 -0.16511203 0.07179188 4.239557e-39
0.61237657 -0.16511203 0.074291885 4.8802545e-39
0.60987657 -0.16511203 0.076791883 5.3412327e-39
0.61237657 -0.16261202 0.074291885 9.2123729e-39
0.61237657 -0.16011202 0.074291885 1.1420011e-38
0.60987657 -0.16261202 0.076791883 6.4425201e-39
0.60987657 -0.16011202 0.076791883 1.1145222e-38
0.60987657 -0.16011202 0.07929188 1.1235973e-38
0.61237657 -0.16261202 0.076791883 1.0137576e-38
0.61237657 -0.16011202 0.076791883 5.6116861e-39
0.60487658 -0.15511203 0.06429188 3.5945408e-39
0.60737658 -0.15511203 0.061791882 4.052642e-39
0.60487658 -0.15261203 0.061791882 3.8682508e-39
0.60487658 -0.15261203 0.06429188 3.8679005e-39
0.60487658 -0.15011203 0.061791882 3.7757048e-39
0.60487658 -0.15011203 0.06429188 3.2253981e-39
0.60737658 -0.15261203 0.061791882 3.8679005e-39
0.60487658 -0.15761203 0.076791883 5.5259743e-39
0.60487658 -0.15761203 0.07929188 5.7107242e-39
0.60487658 -0.15511203 0.076791883 5.4337786e-39
0.60737658 -0.15761203 0.076791883 5.4337786e-39
0.60737658 -0.15761203 0.07929188 6.1670277e-39
0.60737658 -0.15511203 0.076791883 5.4337786e-39
0.60737658 -0.15261203 0.074291885 4.7887595e-39
0.60737658 -0.15011203 0.074291885 5.0664436e-39
0.60487658 -0.15261203 0.076791883 4.6983618e-39
0.60487658 -0.15011203 0.076791883 4.7898568e-39
0.60737658 -0.15261203 0.076791883 4.6058158e-39
0.60737658 -0.15011203 0.076791883 4.7909161e-39
0.60987657 -0.15761203 0.076791883 5.7978752e-39
0.60987657 -0.15761203 0.07929188 6.165213e-39
0.60987657 -0.15511203 0.076791883 5.6185286e-39
0.60987657 -0.15511203 0.07929188 5.6178196e-39
0.61237657 -0.15761203 0.076791883 5.1532345e-39
0.61237657 -0.15511203 0.076791883 5.7107242e-39
0.60987657 -0.15261203 0.074291885 5.4341289e-39
0.60987657 -0.15011203 0.074291885 5.6185286e-39
0.61237657 -0.15261203 0.074291885 5.0653548e-39
0.61237657 -0.15011203 0.07179188 5.8011374e-39
0.61237657 -0.15011203 0.074291885 5.7114599e-39
0.60987657 -0.15261203 0.076791883 5.4337786e-39
0.60987657 -0.15011203 0.076791883 5.6185286e-39
0.61237657 -0.15261203 0.076791883 5.4337786e-39
0.61487657 -0.16761203 0.07179188 5.0664436e-39
0.61487657 -0.16761203 0.074291885 4.5150243e-39
0.61487657 -0.16511203 0.074291885 5.0681939e-39
0.61737657 -0.16761203 0.07179188 5.7103739e-39
0.61737657 -0.16761203 0.074291885 5.6148796e-39
0.61737657 -0.16511203 0.07179188 4.6100926e-39
0.61737657 -0.16511203 0.074291885 9.3944843e-39
0.61487657 -0.16261202 0.074291885 8.7546416e-39
0.61487657 -0.16011202 0.074291885 1.1329613e-38
0.61737657 -0.16261202 0.074291885 1.1603734e-38
0.61737657 -0.16011202 0.074291885 1.1422515e-38
0.61987656 -0.16761203 0.07179188 5.3412327e-39
0.61987656 -0.16761203 0.074291885 5.6127272e-39
0.61987656 -0.16511203 0.07179188 1.0132451e-38
0.61987656 -0.16511203 0.074291885 1.5108755e-38
0.62237656 -0.16761203 0.07179188 4.603648e-39
0.62237656 -0.16761203 0.074291885 4.2352354e-39
0.62237656 -0.16511203 0.07179188 1.5017616e-38
0.62237656 -0.16511203 0.074291885 1.6398205e-38
0.61987656 -0.16261202 0.07179188 1.6029107e-38
0.61987656 -0.16261202 0.074291885 1.4002234e-38
0.61987656 -0.16011202 0.074291885 3.6863861e-39
0.62237656 -0.16261202 0.074291885 1.2061119e-38
0.62237656 -0.16011202 0.074291885 3.4112383e-39
0.61737657 -0.15761203 0.074291885 4.1430398e-39
0.61737657 -0.15511203 0.074291885 5.5266833e-39
0.61487657 -0.15261203 0.074291885 5.6185286e-39
0.61487657 -0.15011203 0.07179188 5.7114599e-39
0.61487657 -0.15011203 0.074291885 5.7121634e-39
0.61737657 -0.15261203 0.074291885 5.1568218e-39
0.61737657 -0.15011203 0.07179188 4.7902071e-39
0.61737657 -0.15011203 0.074291885 6.0794871e-39
0.61987656 -0.15761203 0.074291885 5.6185286e-39
0.61987656 -0.15511203 0.074291885 5.8947554e-39
0.62237656 -0.15761203 0.07179188 5.8947554e-39
0.62237656 -0.15761203 0.074291885 5.7121634e-39
0.62237656 -0.15511203 0.07179188 5.6178196e-39
0.62237656 -0.15511203 0.074291885 5.4355765e-39
0.61987656 -0.15261203 0.07179188 5.5259743e-39
0.61987656 -0.15261203 0.074291885 5.7107242e-39
0.61987656 -0.15011203 0.07179188 4.5118027e-39
0.61987656 -0.15011203 0.074291885 6.3546433e-39
0.62237656 -0.15261203 0.07179188 6.1713437e-39
0.62237656 -0.15261203 0.074291885 5.7114543e-39
0.62237656 -0.15011203 0.07179188 4.0501239e-39
0.62237656 -0.15011203 0.074291885 6.5383115e-39
0.61987656 -0.15011203 0.076791883 6.5376052e-39
0.62487656 -0.17511202 0.074291885 1.5575654e-38
0.62737656 -0.17761202 0.07179188 1.5111451e-38
0.62737656 -0.17761202 0.074291885 1.6585114e-38
0.62737656 -0.17511202 0.07179188 2.7572369e-39
0.62737656 -0.17511202 0.074291885 2.9387359e-39
0.62487656 -0.17511202 0.076791883 2.6632294e-39
0.62487656 -0.17261203 0.074291885 2.7611998e-39
0.62487656 -0.17011203 0.074291885 6.44686e-39
0.62737656 -0.17261203 0.074291885 3.6802792e-39
0.62737656 -0.17011203 0.074291885 6.171331e-39
0.62487656 -0.17261203 0.076791883 6.3553902e-39
0.62487656 -0.17261203 0.07929188 3.5005108e-39
0.62487656 -0.17011203 0.076791883 6.9045927e-39
0.62487656 -0.17011203 0.07929188 6.9953044e-39
0.62737656 -0.17261203 0.07929188 3.6848993e-39
0.62737656 -0.17011203 0.076791883 4.971018e-39
0.62737656 -0.17011203 0.07929188 6.9953044e-39
0.62987655 -0.17761202 0.07179188 1.5203994e-38
0.62987655 -0.17261203 0.07929188 3.7652722e-39
0.62987655 -0.17011203 0.07929188 3.6745016e-39
0.63237655 -0.17011203 0.07929188 1.1335341e-38
0.62487656 -0.16761203 0.074291885 5.7946508e-39
0.62487656 -0.16511203 0.074291885 1.6858126e-38
0.62487656 -0.16761203 0.076791883 5.8894122e-39
0.62487656 -0.16511203 0.076791883 1.6860333e-38
0.62737656 -0.16761203 0.076791883 4.0584855e-39
0.62737656 -0.16761203 0.07929188 1.0315486e-38
0.62737656 -0.16511203 0.076791883 2.0081403e-38
0.62737656 -0.16511203 0.07929188 1.381856e-38
0.62487656 -0.16261202 0.074291885 1.0950063e-38
0.62487656 -0.16011202 0.074291885 4.1470111e-39
0.62487656 -0.16261202 0.076791883 8.8349654e-39
0.62487656 -0.16011202 0.076791883 6.4490081e-39
0.62737656 -0.16261202 0.076791883 8.2803609e-39
0.62737656 -0.16011202 0.076791883 5.9905649e-39
0.62987655 -0.16761203 0.07929188 1.7409512e-38
0.62987655 -0.16511203 0.076791883 3.0471473e-39
0.62987655 -0.16511203 0.07929188 1.2989863e-38
0.63237655 -0.16761203 0.07929188 1.8333273e-38
0.63237655 -0.16511203 0.07929188 7.5488691e-39
0.62987655 -0.16261202 0.076791883 3.8704172e-39
0.62987655 -0.16261202 0.07929188 6.1670277e-39
0.62987655 -0.16011202 0.076791883 5.6224943e-39
0.62987655 -0.16011202 0.07929188 6.9092772e-39
0.63237655 -0.16261202 0.07929188 5.2504664e-39
0.63237655 -0.16011202 0.07929188 6.7266838e-39
0.62487656 -0.15761203 0.074291885 5.7107242e-39
0.62487656 -0.15511203 0.074291885 5.4355765e-39
0.62737656 -0.15761203 0.074291885 5.9869524e-39
0.62737656 -0.15511203 0.074291885 6.1713437e-39
0.62737656 -0.15761203 0.076791883 5.8068757e-39
0.62487656 -0.15261203 0.074291885 6.0777257e-39
0.62487656 -0.15011203 0.07179188 2.0225361e-39
0.62487656 -0.15011203 0.074291885 7.5427931e-39
0.62737656 -0.15261203 0.074291885 7.084689e-39
0.62737656 -0.15011203 0.074291885 3.3061129e-39
0.62987655 -0.15761203 0.074291885 6.0809459e-39
0.62987655 -0.15511203 0.074291885 6.0809459e-39
0.63237655 -0.15761203 0.074291885 5.2511852e-39
0.63237655 -0.15511203 0.07179188 6.8160096e-39
0.63237655 -0.15511203 0.074291885 6.999675e-39
0.62987655 -0.15761203 0.076791883 5.804359e-39
0.62987655 -0.15761203 0.07929188 6.7266838e-39
0.63237655 -0.15761203 0.076791883 5.0660681e-39
0.63237655 -0.15761203 0.07929188 6.3560937e-39
0.63237655 -0.15511203 0.076791883 7.3680904e-39
0.63237655 -0.15511203 0.07929188 5.4395422e-39
0.62987655 -0.15261203 0.07179188 7.3579758e-39
0.62987655 -0.15261203 0.074291885 6.3553902e-39
0.62987655 -0.15011203 0.07179188 5.4222403e-39
0.62987655 -0.15011203 0.074291885 5.0509607e-39
0.63237655 -0.15261203 0.07179188 7.1689505e-39
0.63237655 -0.15261203 0.074291885 5.9858818e-39
0.63237655 -0.15011203 0.07179188 5.2346261e-39
0.63237655 -0.15011203 0.074291885 9.0066945e-39
0.63237655 -0.15261203 0.076791883 5.249386e-39
0.63487655 -0.16261202 0.07929188 7.095451e-39
0.63487655 -0.15261203 0.066791885 5.2371344e-39
0.63487655 -0.15261203 0.069291882 6.8927237e-39
0.63487655 -0.15011203 0.069291882 5.2371344e-39
0.63737661 -0.15261203 0.066791885 5.2346359e-39
0.63737661 -0.15261203 0.069291882 5.2346345e-39
0.6398766 -0.15261203 0.069291882 9.1914417e-39
0.6398766 -0.15011203 0.069291882 1.4464264e-38
0.6423766 -0.15011203 0.069291882 1.4832321e-38
0.63487655 -0.15761203 0.074291885 6.6337539e-39
0.63487655 -0.15511203 0.07179188 6.7230951e-39
0.63487655 -0.15511203 0.074291885 7.3695365e-39
0.63737661 -0.15511203 0.074291885 5.5245127e-39
0.63487655 -0.15761203 0.076791883 7.0025449e-39
0.63487655 -0.15761203 0.07929188 5.8994217e-39
0.63487655 -0.15511203 0.076791883 7.1826047e-39
0.63487655 -0.15511203 0.07929188 5.530649e-39
0.63737661 -0.15761203 0.076791883 2.2958972e-39
0.63737661 -0.15511203 0.076791883 5.2475699e-39
0.63487655 -0.15261203 0.07179188 7.8085283e-39
0.63487655 -0.15261203 0.074291885 5.2490356e-39
0.63487655 -0.15011203 0.07179188 9.3740365e-39
0.63487655 -0.15011203 0.074291885 1.1418453e-38
0.63737661 -0.15261203 0.07179188 4.6864802e-39
0.63737661 -0.15261203 0.074291885 1.6530389e-39
0.63737661 -0.15011203 0.07179188 1.1048983e-38
0.63737661 -0.15011203 0.074291885 1.5565164e-38
0.63487655 -0.15261203 0.076791883 2.2962461e-39
0.6398766 -0.15511203 0.07179188 1.6530389e-39
0.6398766 -0.15511203 0.074291885 1.5612034e-39
0.6398766 -0.15261203 0.07179188 1.6530389e-39
0.6398766 -0.15261203 0.074291885 3.1231243e-39
0.6398766 -0.15011203 0.07179188 1.7690746e-38
0.60487658 -0.14761202 0.059291881 3.0406635e-39
0.60487658 -0.14511202 0.059291881 3.6860329e-39
0.60737658 -0.14761202 0.059291881 3.2246947e-39
0.60737658 -0.14511202 0.059291881 4.0544567e-39
0.60487658 -0.14761202 0.061791882 3.4991179e-39
0.60487658 -0.14761202 0.06429188 3.2221597e-39
0.60487658 -0.14511202 0.061791882 4.4210742e-39
0.60487658 -0.14511202 0.06429188 4.9735067e-39
0.60487658 -0.14511202 0.066791885 6.5300677e-39
0.60487658 -0.14261203 0.061791882 2.8526695e-39
0.60487658 -0.14261203 0.06429188 1.6544739e-39
0.60487658 -0.14261203 0.066791885 6.9005766e-39
0.60487658 -0.14261203 0.069291882 7.5470124e-39
0.60737658 -0.14261203 0.069291882 1.2806818e-38
0.60987657 -0.14261203 0.069291882 1.7412727e-38
0.60487658 -0.14761202 0.074291885 5.7114599e-39
0.60487658 -0.14511202 0.074291885 5.7103837e-39
0.60737658 -0.14761202 0.074291885 5.1586393e-39
0.60737658 -0.14511202 0.074291885 2.3923864e-39
0.60487658 -0.14761202 0.076791883 4.7898568e-39
0.60487658 -0.14511202 0.076791883 4.8791979e-39
0.60737658 -0.14761202 0.076791883 5.5256239e-39
0.60737658 -0.14511202 0.076791883 6.1648178e-39
0.60487658 -0.14261203 0.07179188 1.1140129e-38
0.60487658 -0.14261203 0.074291885 3.4025769e-39
0.60737658 -0.14261203 0.07179188 1.2530604e-38
0.60737658 -0.14261203 0.074291885 3.0312888e-39
0.60987657 -0.14761202 0.074291885 6.257801e-39
0.60987657 -0.14511202 0.07179188 2.5714205e-39
0.61237657 -0.14761202 0.07179188 5.6163874e-39
0.61237657 -0.14761202 0.074291885 5.0660905e-39
0.61237657 -0.14511202 0.07179188 3.9535899e-39
0.60987657 -0.14261203 0.07179188 1.4371305e-38
0.61237657 -0.14261203 0.07179188 1.6680887e-38
0.61737657 -0.14761202 0.069291882 6.159825e-39
0.62237656 -0.14761202 0.069291882 4.1379783e-39
0.61487657 -0.14761202 0.07179188 5.2504818e-39
0.61487657 -0.14761202 0.074291885 4.5132699e-39
0.61737657 -0.14761202 0.07179188 6.1587418e-39
0.61737657 -0.14761202 0.074291885 3.9535899e-39
0.61737657 -0.14511202 0.07179188 8.1942203e-39
0.61987656 -0.14761202 0.07179188 3.9525137e-39
0.61987656 -0.14761202 0.074291885 3.3093065e-39
0.62237656 -0.14761202 0.074291885 2.1129339e-39
0.63237655 -0.16011202 0.081791878 3.4029538e-39
0.63237655 -0.15761203 0.081791878 2.8501388e-39
