# .PCD v0.7 - Point Cloud Data file format
VERSION 0.7
FIELDS x y z rgb
SIZE 4 4 4 4
TYPE F F F F
COUNT 1 1 1 1
WIDTH 476
HEIGHT 1
VIEWPOINT 0 0 0 1 0 0 0
POINTS 476
DATA ascii
0.58415169 -0.16592382 0.071684532 1.2998527e-38
0.58415169 -0.16342381 0.071684532 7.3650846e-40
0.58415169 -0.16092381 0.071684532 7.3742211e-39
0.58665168 -0.16592382 0.071684532 1.4925987e-38
0.58915168 -0.16592382 0.071684532 1.4559724e-38
0.58665168 -0.16342381 0.071684532 4.1430258e-39
0.58915168 -0.16342381 0.069184534 3.867197e-39
0.58915168 -0.16342381 0.071684532 3.4094404e-39
0.58915168 -0.16092381 0.069184534 5.8061723e-39
0.58415169 -0.16592382 0.074184529 1.133471e-38
0.58415169 -0.16342381 0.074184529 2.7605145e-39
0.58415169 -0.16092381 0.074184529 6.5408675e-39
0.58665168 -0.16592382 0.074184529 9.4039599e-39
0.58915168 -0.16592382 0.074184529 4.3382365e-39
0.58915168 -0.16592382 0.076684535 4.0566077e-39
0.58665168 -0.16342381 0.074184529 3.6867364e-39
0.58915168 -0.16342381 0.074184529 2.1255414e-39
0.58915168 -0.16342381 0.076684535 3.5034339e-39
0.59915167 -0.17092381 0.071684532 1.5025386e-38
0.60165167 -0.17092381 0.069184534 1.4383276e-38
0.60165167 -0.17092381 0.071684532 1.4657307e-38
0.60665166 -0.17092381 0.069184534 1.5938671e-38
0.60665166 -0.17092381 0.071684532 1.5206501e-38
0.60915166 -0.17092381 0.069184534 1.2443892e-38
0.60915166 -0.17092381 0.071684532 1.4742669e-38
0.60415167 -0.15842381 0.06168453 3.8682508e-39
0.60415167 -0.15592381 0.06168453 4.052642e-39
0.60415167 -0.15342382 0.06168453 3.4097964e-39
0.60415167 -0.15092382 0.059184533 3.3172448e-39
0.60415167 -0.15092382 0.06168453 3.4097964e-39
0.60665166 -0.15842381 0.059184533 3.8679005e-39
0.60665166 -0.15842381 0.06168453 4.052642e-39
0.60665166 -0.15592381 0.059184533 3.9604464e-39
0.60665166 -0.15592381 0.06168453 4.052642e-39
0.60665166 -0.15342382 0.059184533 3.4094404e-39
0.60665166 -0.15092382 0.059184533 3.3172448e-39
0.60665166 -0.15092382 0.06168453 2.9484679e-39
0.59165168 -0.16592382 0.069184534 3.3186895e-39
0.59165168 -0.16592382 0.071684532 3.5059577e-39
0.59415168 -0.16592382 0.071684532 2.856617e-39
0.59165168 -0.16342381 0.069184534 4.5132699e-39
0.59165168 -0.16342381 0.071684532 2.8609414e-39
0.59165168 -0.16092381 0.069184534 5.804359e-39
0.59165168 -0.16092381 0.071684532 4.9771249e-39
0.59415168 -0.16342381 0.071684532 6.079148e-39
0.59415168 -0.16092381 0.071684532 4.9731592e-39
0.59665167 -0.16592382 0.071684532 3.3175951e-39
0.59915167 -0.16842382 0.071684532 3.9619108e-39
0.59915167 -0.16592382 0.071684532 3.0431564e-39
0.59665167 -0.16342381 0.071684532 5.7103739e-39
0.59665167 -0.16092381 0.071684532 5.7060495e-39
0.59915167 -0.16342381 0.071684532 4.4210742e-39
0.59915167 -0.16092381 0.069184534 5.0635668e-39
0.59165168 -0.16592382 0.074184529 3.7800208e-39
0.59415168 -0.16592382 0.074184529 4.2399102e-39
0.59165168 -0.16342381 0.074184529 3.6878252e-39
0.59415168 -0.16342381 0.074184529 5.9869524e-39
0.59415168 -0.16092381 0.074184529 5.5259743e-39
0.59665167 -0.16842382 0.074184529 7.7383541e-39
0.59665167 -0.16592382 0.074184529 3.5001773e-39
0.59915167 -0.16592382 0.074184529 2.9470007e-39
0.59665167 -0.16342381 0.074184529 6.8116936e-39
0.59665167 -0.16092381 0.074184529 5.7986039e-39
0.59915167 -0.16342381 0.074184529 5.2479636e-39
0.59915167 -0.16342381 0.076684535 5.1575827e-39
0.59915167 -0.16092381 0.074184529 8.7456368e-39
0.59915167 -0.16092381 0.076684535 6.6269352e-39
0.59165168 -0.15842381 0.069184534 3.2253981e-39
0.59165168 -0.15842381 0.071684532 3.9604464e-39
0.59165168 -0.15592381 0.071684532 4.2348851e-39
0.59415168 -0.15842381 0.071684532 3.9600961e-39
0.59415168 -0.15592381 0.071684532 4.0522917e-39
0.59415168 -0.15342382 0.071684532 4.052642e-39
0.59915167 -0.15592381 0.066684529 4.0522917e-39
0.59665167 -0.15842381 0.069184534 4.0522917e-39
0.59665167 -0.15842381 0.071684532 5.1568218e-39
0.59665167 -0.15592381 0.069184534 4.052642e-39
0.59665167 -0.15592381 0.071684532 4.236683e-39
0.59915167 -0.15842381 0.069184534 3.9600961e-39
0.59915167 -0.15842381 0.071684532 5.0646262e-39
0.59915167 -0.15592381 0.069184534 4.7887595e-39
0.59915167 -0.15592381 0.071684532 4.7884092e-39
0.59915167 -0.15342382 0.066684529 4.052642e-39
0.59915167 -0.15092382 0.066684529 3.3172448e-39
0.59665167 -0.15342382 0.069184534 3.9604464e-39
0.59665167 -0.15342382 0.071684532 4.1444873e-39
0.59665167 -0.15092382 0.071684532 4.0522917e-39
0.59915167 -0.15342382 0.069184534 4.4214246e-39
0.59915167 -0.15342382 0.071684532 4.5136202e-39
0.59915167 -0.15092382 0.069184534 3.9611527e-39
0.59915167 -0.15092382 0.071684532 4.237392e-39
0.59665167 -0.15842381 0.074184529 4.7880589e-39
0.59665167 -0.15592381 0.074184529 4.6962136e-39
0.59915167 -0.15842381 0.074184529 4.7880589e-39
0.59915167 -0.15842381 0.076684535 5.8911849e-39
0.59915167 -0.15592381 0.074184529 6.074832e-39
0.59915167 -0.15592381 0.076684535 7.6439584e-39
0.59915167 -0.15342382 0.074184529 5.0653548e-39
0.59915167 -0.15342382 0.076684535 5.9869524e-39
0.59915167 -0.15092382 0.074184529 4.6058158e-39
0.59915167 -0.15092382 0.076684535 5.0660905e-39
0.60165167 -0.16842382 0.069184534 2.7669857e-39
0.60165167 -0.16842382 0.071684532 3.2232149e-39
0.60165167 -0.16592382 0.071684532 3.4115886e-39
0.60415167 -0.16842382 0.071684532 4.3220221e-39
0.60415167 -0.16592382 0.071684532 4.4217735e-39
0.60665166 -0.16842382 0.071684532 3.218215e-39
0.60665166 -0.16592382 0.071684532 4.3314023e-39
0.60915166 -0.16842382 0.071684532 3.2228814e-39
0.60915166 -0.16592382 0.071684532 4.7902071e-39
0.60165167 -0.16842382 0.074184529 1.4736825e-39
0.60165167 -0.16592382 0.074184529 3.8707675e-39
0.60415167 -0.16842382 0.074184529 2.2109029e-39
0.60415167 -0.16592382 0.074184529 4.2392067e-39
0.60165167 -0.16342381 0.074184529 4.2359865e-39
0.60165167 -0.16342381 0.076684535 5.1582861e-39
0.60165167 -0.16092381 0.074184529 6.0787977e-39
0.60165167 -0.16092381 0.076684535 5.6178196e-39
0.60415167 -0.16342381 0.074184529 5.1586393e-39
0.60415167 -0.16342381 0.076684535 5.2504818e-39
0.60415167 -0.16092381 0.076684535 5.6185286e-39
0.60415167 -0.16092381 0.079184532 4.6043669e-39
0.60665166 -0.16842382 0.074184529 2.3959976e-39
0.60665166 -0.16592382 0.074184529 4.7902071e-39
0.60665166 -0.16592382 0.076684535 4.239557e-39
0.60915166 -0.16842382 0.074184529 3.8682508e-39
0.60915166 -0.16592382 0.074184529 4.8831118e-39
0.60915166 -0.16592382 0.076684535 4.8802545e-39
0.60665166 -0.16342381 0.076684535 5.2504818e-39
0.60665166 -0.16092381 0.076684535 4.4221238e-39
0.60915166 -0.16342381 0.076684535 5.341583e-39
0.60915166 -0.16092381 0.076684535 6.5346947e-39
0.60665166 -0.16342381 0.079184532 5.4337786e-39
0.60665166 -0.16092381 0.079184532 6.1677311e-39
0.60915166 -0.16092381 0.079184532 1.1420014e-38
0.60165167 -0.15842381 0.066684529 3.9607967e-39
0.60165167 -0.15592381 0.066684529 4.1448377e-39
0.60165167 -0.15342382 0.066684529 4.052642e-39
0.60165167 -0.15092382 0.066684529 2.9484623e-39
0.60165167 -0.15092382 0.071684532 4.6980114e-39
0.60165167 -0.15842381 0.074184529 7.1819237e-39
0.60165167 -0.15842381 0.076684535 5.6181909e-39
0.60165167 -0.15592381 0.074184529 7.4599175e-39
0.60165167 -0.15592381 0.076684535 7.9215935e-39
0.60415167 -0.15842381 0.076684535 5.3405292e-39
0.60415167 -0.15592381 0.076684535 5.8947554e-39
0.60415167 -0.15842381 0.079184532 5.0650045e-39
0.60415167 -0.15592381 0.079184532 5.5259743e-39
0.60165167 -0.15342382 0.074184529 5.9869524e-39
0.60165167 -0.15342382 0.076684535 5.804359e-39
0.60165167 -0.15092382 0.074184529 5.4337786e-39
0.60165167 -0.15092382 0.076684535 5.2511852e-39
0.60415167 -0.15342382 0.076684535 5.4355765e-39
0.60415167 -0.15092382 0.076684535 5.1593399e-39
0.60415167 -0.15342382 0.079184532 4.7902071e-39
0.60665166 -0.15842381 0.076684535 5.0650045e-39
0.60665166 -0.15592381 0.076684535 5.6163874e-39
0.60915166 -0.15842381 0.076684535 6.2592233e-39
0.60915166 -0.15592381 0.076684535 5.6185286e-39
0.60665166 -0.15842381 0.079184532 6.6269352e-39
0.60665166 -0.15592381 0.079184532 5.4323563e-39
0.60915166 -0.15842381 0.079184532 6.072667e-39
0.60915166 -0.15592381 0.079184532 4.7880589e-39
0.60665166 -0.15342382 0.076684535 5.0653548e-39
0.60665166 -0.15092382 0.076684535 4.8816642e-39
0.60915166 -0.15342382 0.076684535 5.5259743e-39
0.60915166 -0.15092382 0.076684535 5.3419319e-39
0.60665166 -0.15342382 0.079184532 5.2511852e-39
0.60915166 -0.15342382 0.079184532 5.8947554e-39
0.60165167 -0.14842381 0.06168453 3.3168917e-39
0.60165167 -0.14592381 0.059184533 3.867197e-39
0.60165167 -0.14592381 0.06168453 3.3165414e-39
0.60415167 -0.14842381 0.059184533 3.3172448e-39
0.60415167 -0.14842381 0.06168453 2.9484679e-39
0.60415167 -0.14592381 0.059184533 3.5016417e-39
0.60415167 -0.14592381 0.06168453 3.2221779e-39
0.60415167 -0.14342381 0.059184533 4.422163e-39
0.60415167 -0.14342381 0.06168453 4.6054655e-39
0.60665166 -0.14842381 0.059184533 3.4998242e-39
0.60665166 -0.14842381 0.06168453 3.0406635e-39
0.60665166 -0.14592381 0.059184533 4.6054655e-39
0.60665166 -0.14592381 0.06168453 4.2399102e-39
0.60665166 -0.14342381 0.059184533 4.790563e-39
0.60665166 -0.14342381 0.06168453 4.5150677e-39
0.59915167 -0.14842381 0.066684529 2.9491685e-39
0.59915167 -0.14592381 0.066684529 3.1306857e-39
0.59665167 -0.14842381 0.071684532 3.4998242e-39
0.59915167 -0.14842381 0.069184534 2.8569729e-39
0.59915167 -0.14842381 0.071684532 4.6958633e-39
0.59915167 -0.14592381 0.069184534 4.237392e-39
0.59915167 -0.14592381 0.071684532 4.5136202e-39
0.59915167 -0.14342381 0.066684529 4.6994604e-39
0.59915167 -0.14342381 0.069184534 5.066794e-39
0.59915167 -0.14342381 0.071684532 5.1589896e-39
0.59915167 -0.14842381 0.074184529 4.7902071e-39
0.60165167 -0.14842381 0.064184532 3.4976886e-39
0.60165167 -0.14842381 0.066684529 3.5898842e-39
0.60165167 -0.14592381 0.064184532 3.4991179e-39
0.60165167 -0.14592381 0.066684529 3.4991179e-39
0.60415167 -0.14842381 0.064184532 2.9491685e-39
0.60415167 -0.14592381 0.064184532 3.8679005e-39
0.60415167 -0.14592381 0.066684529 3.7742657e-39
0.60165167 -0.14842381 0.069184534 3.7757048e-39
0.60165167 -0.14842381 0.071684532 5.0653548e-39
0.60165167 -0.14592381 0.069184534 4.3281401e-39
0.60165167 -0.14592381 0.071684532 5.4337786e-39
0.60415167 -0.14842381 0.071684532 5.8040087e-39
0.60415167 -0.14592381 0.071684532 5.4355765e-39
0.60165167 -0.14342381 0.064184532 4.3317555e-39
0.60165167 -0.14342381 0.066684529 4.9738627e-39
0.60415167 -0.14342381 0.064184532 5.2504636e-39
0.60415167 -0.14342381 0.066684529 6.5300677e-39
0.60165167 -0.14342381 0.069184534 6.5285711e-39
0.60165167 -0.14342381 0.071684532 5.7013341e-39
0.60165167 -0.14092381 0.069184534 6.8076649e-39
0.60415167 -0.14342381 0.069184534 7.3604897e-39
0.60415167 -0.14342381 0.071684532 5.5147933e-39
0.60915166 -0.14592381 0.071684532 2.6636161e-39
0.60665166 -0.14342381 0.064184532 4.9731564e-39
0.60665166 -0.14342381 0.069184534 7.2668872e-39
0.60665166 -0.14342381 0.071684532 1.1323089e-38
0.60665166 -0.14092381 0.069184534 1.1975338e-38
0.60915166 -0.14342381 0.069184534 1.2898311e-38
0.60915166 -0.14342381 0.071684532 1.2897957e-38
0.60915166 -0.14092381 0.069184534 1.7045739e-38
0.60915166 -0.14092381 0.071684532 1.5384776e-38
0.60165167 -0.14842381 0.074184529 6.1670277e-39
0.60165167 -0.14592381 0.074184529 5.7107242e-39
0.60415167 -0.14842381 0.074184529 5.2511852e-39
0.60415167 -0.14842381 0.076684535 5.3430305e-39
0.60415167 -0.14592381 0.074184529 5.4341346e-39
0.60415167 -0.14592381 0.076684535 4.9763934e-39
0.60165167 -0.14342381 0.074184529 4.6040166e-39
0.60415167 -0.14342381 0.074184529 3.4940536e-39
0.60415167 -0.14342381 0.076684535 2.118689e-39
0.60665166 -0.14842381 0.074184529 5.3408795e-39
0.60665166 -0.14842381 0.076684535 5.3408795e-39
0.60665166 -0.14592381 0.074184529 5.0625186e-39
0.60665166 -0.14592381 0.076684535 5.0639479e-39
0.60915166 -0.14842381 0.074184529 5.7089418e-39
0.60915166 -0.14592381 0.074184529 5.7053068e-39
0.60665166 -0.14342381 0.074184529 2.8469004e-39
0.61165166 -0.17092381 0.071684532 8.389452e-39
0.61415166 -0.17092381 0.071684532 5.2548006e-39
0.61915165 -0.17592381 0.071684532 2.1287524e-38
0.61665165 -0.17342381 0.071684532 1.1981901e-39
0.61665165 -0.17092381 0.071684532 2.6733201e-39
0.61915165 -0.17342381 0.069184534 1.0222304e-38
0.61915165 -0.17342381 0.071684532 8.3046692e-40
0.61915165 -0.17092381 0.071684532 2.5821839e-39
0.61165166 -0.17092381 0.074184529 1.9357579e-39
0.61665165 -0.17342381 0.074184529 2.2109029e-39
0.61665165 -0.17092381 0.074184529 3.8700641e-39
0.61915165 -0.17342381 0.074184529 4.4200177e-39
0.61915165 -0.17092381 0.074184529 5.0660905e-39
0.62415165 -0.17592381 0.071684532 1.6867099e-38
0.62165165 -0.17342381 0.071684532 3.129632e-39
0.62165165 -0.17092381 0.071684532 5.4362855e-39
0.62415165 -0.17342381 0.071684532 2.8530044e-39
0.62415165 -0.17092381 0.071684532 5.5267183e-39
0.62665164 -0.17592381 0.071684532 1.603378e-38
0.62915164 -0.17592381 0.071684532 1.5019954e-38
0.62665164 -0.17342381 0.071684532 2.5768085e-39
0.62415165 -0.17592381 0.074184529 1.5850083e-38
0.62165165 -0.17092381 0.074184529 5.7111096e-39
0.62415165 -0.17342381 0.074184529 3.1274459e-39
0.62415165 -0.17342381 0.076684535 2.0221886e-39
0.62415165 -0.17092381 0.074184529 5.434873e-39
0.62415165 -0.17092381 0.076684535 6.1709933e-39
0.62415165 -0.17092381 0.079184532 5.434873e-39
0.62665164 -0.17592381 0.074184529 2.9412806e-39
0.62915164 -0.17592381 0.074184529 2.4795584e-39
0.62665164 -0.17342381 0.074184529 3.2221779e-39
0.62665164 -0.17342381 0.076684535 1.8367099e-40
0.62665164 -0.17092381 0.074184529 6.7209301e-39
0.62665164 -0.17092381 0.076684535 7.0893427e-39
0.62915164 -0.17342381 0.074184529 5.3423271e-39
0.62915164 -0.17092381 0.074184529 6.5387025e-39
0.62915164 -0.17092381 0.076684535 7.0864308e-39
0.62665164 -0.17092381 0.079184532 3.3979218e-39
0.62915164 -0.17092381 0.079184532 3.3071737e-39
0.61165166 -0.16842382 0.071684532 3.8686011e-39
0.61415166 -0.16842382 0.071684532 4.6054655e-39
0.61665165 -0.16842382 0.071684532 5.4334283e-39
0.61665165 -0.16592382 0.071684532 4.2387933e-39
0.61915165 -0.16842382 0.071684532 5.5256239e-39
0.61915165 -0.16592382 0.071684532 5.4312086e-39
0.61165166 -0.16842382 0.074184529 4.7898568e-39
0.61165166 -0.16592382 0.074184529 4.6962136e-39
0.61165166 -0.16092381 0.076684535 1.0688232e-38
0.61415166 -0.16342381 0.074184529 9.5811554e-39
0.61665165 -0.16842382 0.074184529 5.3408795e-39
0.61665165 -0.16592382 0.074184529 4.5157291e-39
0.61915165 -0.16842382 0.074184529 4.7880589e-39
0.61915165 -0.16592382 0.074184529 4.2319662e-39
0.61665165 -0.16342381 0.074184529 1.1696638e-38
0.61665165 -0.16342381 0.076684535 1.5478454e-38
0.61665165 -0.16092381 0.074184529 1.0596364e-38
0.61665165 -0.16092381 0.076684535 8.8471735e-39
0.61915165 -0.16342381 0.074184529 1.5386259e-38
0.61915165 -0.16092381 0.074184529 7.8323125e-39
0.61165166 -0.15092382 0.071684532 5.7089418e-39
0.61415166 -0.15092382 0.071684532 5.9855287e-39
0.61665165 -0.15092382 0.071684532 5.7121634e-39
0.61915165 -0.15092382 0.071684532 5.9869524e-39
0.61165166 -0.15842381 0.076684535 5.9808189e-39
0.61165166 -0.15592381 0.076684535 5.6185286e-39
0.61165166 -0.15342382 0.074184529 5.341213e-39
0.61165166 -0.15342382 0.076684535 5.4337786e-39
0.61165166 -0.15092382 0.074184529 5.6188789e-39
0.61415166 -0.15342382 0.074184529 5.1589896e-39
0.61415166 -0.15092382 0.074184529 5.7107242e-39
0.61665165 -0.15842381 0.074184529 4.4192568e-39
0.61665165 -0.15842381 0.076684535 3.5920226e-39
0.61665165 -0.15592381 0.074184529 5.5259743e-39
0.61665165 -0.15592381 0.076684535 5.5259743e-39
0.61915165 -0.15842381 0.074184529 6.1673808e-39
0.61915165 -0.15592381 0.074184529 5.4337786e-39
0.61665165 -0.15342382 0.074184529 5.4337786e-39
0.61665165 -0.15342382 0.076684535 5.2490356e-39
0.61665165 -0.15092382 0.074184529 5.3433809e-39
0.61915165 -0.15342382 0.074184529 5.341583e-39
0.61915165 -0.15092382 0.074184529 5.7103739e-39
0.62165165 -0.16842382 0.071684532 4.7884092e-39
0.62165165 -0.16592382 0.071684532 1.5017979e-38
0.62415165 -0.16842382 0.071684532 4.3281401e-39
0.62165165 -0.16342381 0.071684532 1.6860673e-38
0.62165165 -0.16842382 0.074184529 4.4199854e-39
0.62165165 -0.16592382 0.074184529 5.1524736e-39
0.62165165 -0.16592382 0.076684535 6.0715978e-39
0.62415165 -0.16842382 0.074184529 4.3277898e-39
0.62415165 -0.16842382 0.076684535 4.6911773e-39
0.62415165 -0.16592382 0.074184529 1.7321235e-38
0.62415165 -0.16592382 0.076684535 1.8154648e-38
0.62165165 -0.16342381 0.074184529 1.8421181e-38
0.62165165 -0.16342381 0.076684535 1.971404e-38
0.62165165 -0.16092381 0.074184529 4.5136202e-39
0.62165165 -0.16092381 0.076684535 4.2399102e-39
0.62415165 -0.16342381 0.074184529 2.0172134e-38
0.62415165 -0.16342381 0.076684535 1.9717645e-38
0.62415165 -0.16092381 0.074184529 3.3147267e-39
0.62415165 -0.16092381 0.076684535 3.589866e-39
0.62665164 -0.16842382 0.074184529 4.1430258e-39
0.62665164 -0.16842382 0.076684535 4.6025942e-39
0.62665164 -0.16592382 0.076684535 1.7695062e-38
0.62915164 -0.16842382 0.074184529 4.6958633e-39
0.62915164 -0.16842382 0.076684535 6.8094838e-39
0.62915164 -0.16592382 0.076684535 1.1249745e-38
0.62665164 -0.16842382 0.079184532 1.0315849e-38
0.62665164 -0.16592382 0.079184532 1.3634892e-38
0.62915164 -0.16842382 0.079184532 6.5340207e-39
0.62915164 -0.16842382 0.08168453 1.7136887e-38
0.62915164 -0.16592382 0.079184532 1.3910757e-38
0.62915164 -0.16592382 0.08168453 1.8335071e-38
0.62665164 -0.16342381 0.076684535 7.8215352e-39
0.62665164 -0.16092381 0.076684535 6.4493781e-39
0.62915164 -0.16342381 0.074184529 4.1444873e-39
0.62915164 -0.16342381 0.076684535 2.403566e-39
0.62915164 -0.16092381 0.074184529 5.9905649e-39
0.62915164 -0.16092381 0.076684535 6.3568237e-39
0.62915164 -0.16342381 0.079184532 6.2592135e-39
0.62915164 -0.16092381 0.079184532 5.9883999e-39
0.62165165 -0.15592381 0.071684532 5.7103739e-39
0.62165165 -0.15342382 0.071684532 5.6178196e-39
0.62165165 -0.15092382 0.071684532 6.4461411e-39
0.62915164 -0.15092382 0.071684532 7.3579702e-39
0.62165165 -0.15842381 0.074184529 5.8943868e-39
0.62165165 -0.15842381 0.076684535 5.4344821e-39
0.62165165 -0.15592381 0.074184529 5.7107242e-39
0.62415165 -0.15842381 0.074184529 6.0787781e-39
0.62415165 -0.15842381 0.076684535 6.079148e-39
0.62415165 -0.15592381 0.074184529 5.9869524e-39
0.62165165 -0.15342382 0.074184529 5.6185286e-39
0.62165165 -0.15092382 0.074184529 6.079148e-39
0.62415165 -0.15342382 0.074184529 6.0787977e-39
0.62415165 -0.15092382 0.074184529 6.9921346e-39
0.62665164 -0.15842381 0.074184529 5.9865825e-39
0.62665164 -0.15842381 0.076684535 6.4493781e-39
0.62665164 -0.15592381 0.074184529 6.079148e-39
0.62665164 -0.15592381 0.076684535 6.2642483e-39
0.62915164 -0.15842381 0.074184529 5.9883999e-39
0.62915164 -0.15842381 0.076684535 4.9774752e-39
0.62915164 -0.15592381 0.074184529 6.1713437e-39
0.62915164 -0.15842381 0.079184532 6.0812962e-39
0.62665164 -0.15342382 0.074184529 6.9046109e-39
0.62665164 -0.15092382 0.074184529 6.8081035e-39
0.62915164 -0.15342382 0.074184529 6.5394213e-39
0.62915164 -0.15092382 0.074184529 7.2657746e-39
0.63165164 -0.17592381 0.069184534 1.5937234e-38
0.63165164 -0.17592381 0.071684532 1.7960489e-38
0.63665169 -0.17092381 0.071684532 6.534371e-39
0.63165164 -0.17092381 0.076684535 2.8469004e-39
0.64165169 -0.17342381 0.069184534 3.122774e-39
0.64165169 -0.17092381 0.069184534 1.124314e-38
0.63165164 -0.16842382 0.076684535 6.6269198e-39
0.63165164 -0.16592382 0.076684535 1.3263926e-38
0.63165164 -0.16592382 0.079184532 1.5014567e-38
0.63165164 -0.16592382 0.08168453 1.7410231e-38
0.63165164 -0.16342381 0.074184529 3.9626142e-39
0.63165164 -0.16342381 0.076684535 4.7873554e-39
0.63165164 -0.16092381 0.076684535 5.9883999e-39
0.6341517 -0.16342381 0.076684535 5.3419613e-39
0.6341517 -0.16092381 0.076684535 6.8167313e-39
0.63165164 -0.16342381 0.079184532 5.8983525e-39
0.63165164 -0.16342381 0.08168453 5.7107242e-39
0.63165164 -0.16092381 0.079184532 6.4504571e-39
0.6341517 -0.16092381 0.079184532 7.0021931e-39
0.63665169 -0.16092381 0.076684535 7.0940286e-39
0.6341517 -0.15592381 0.071684532 6.3568293e-39
0.63165164 -0.15342382 0.071684532 6.3553902e-39
0.6341517 -0.15342382 0.071684532 7.2607775e-39
0.6341517 -0.15092382 0.069184534 5.2346261e-39
0.6341517 -0.15092382 0.071684532 5.2346261e-39
0.63915169 -0.15092382 0.066684529 5.0509523e-39
0.63665169 -0.15342382 0.071684532 5.0552571e-39
0.63665169 -0.15092382 0.071684532 9.1896481e-39
0.63915169 -0.15342382 0.071684532 1.8367099e-39
0.63915169 -0.15092382 0.069184534 1.5109634e-38
0.63915169 -0.15092382 0.071684532 1.5381501e-38
0.63165164 -0.15842381 0.074184529 4.7923749e-39
0.63165164 -0.15842381 0.076684535 4.7927252e-39
0.63165164 -0.15592381 0.074184529 6.1731415e-39
0.63165164 -0.15592381 0.076684535 6.4486592e-39
0.6341517 -0.15842381 0.074184529 5.6192419e-39
0.6341517 -0.15842381 0.076684535 6.4493781e-39
0.6341517 -0.15592381 0.074184529 5.5299399e-39
0.6341517 -0.15592381 0.076684535 7.0021931e-39
0.63165164 -0.15842381 0.079184532 6.1731415e-39
0.63165164 -0.15842381 0.08168453 6.8188809e-39
0.63165164 -0.15592381 0.079184532 4.978564e-39
0.6341517 -0.15842381 0.079184532 5.9005203e-39
0.6341517 -0.15592381 0.079184532 5.1629553e-39
0.63165164 -0.15342382 0.074184529 5.9880468e-39
0.63165164 -0.15342382 0.076684535 5.0650045e-39
0.63165164 -0.15092382 0.074184529 7.2607775e-39
0.6341517 -0.15342382 0.074184529 5.1586393e-39
0.6341517 -0.15342382 0.076684535 2.2958874e-39
0.63665169 -0.15842381 0.076684535 5.4409701e-39
0.63665169 -0.15592381 0.074184529 6.540122e-39
0.63665169 -0.15592381 0.076684535 4.9713389e-39
0.63915169 -0.15592381 0.074184529 6.0712153e-39
0.63915169 -0.15592381 0.076684535 1.1938615e-39
0.63665169 -0.15842381 0.079184532 2.2987769e-39
0.63665169 -0.15592381 0.079184532 2.1143856e-39
0.63665169 -0.15342382 0.074184529 1.7463094e-39
0.63665169 -0.15342382 0.076684535 1.9285454e-39
0.63915169 -0.15342382 0.074184529 2.5713939e-39
0.63915169 -0.15092382 0.074184529 1.7873689e-38
0.64165169 -0.15092382 0.066684529 9.0059771e-39
0.64165169 -0.15342382 0.071684532 3.3071541e-39
0.64165169 -0.15092382 0.069184534 1.7413801e-38
0.64165169 -0.15092382 0.071684532 1.7966251e-38
0.61165166 -0.14842381 0.071684532 5.4323563e-39
0.61165166 -0.14592381 0.071684532 5.6131112e-39
0.61415166 -0.14842381 0.071684532 5.6163874e-39
0.61415166 -0.14592381 0.071684532 4.8690862e-39
0.61165166 -0.14342381 0.069184534 4.047219e-39
0.61165166 -0.14342381 0.071684532 3.9557423e-39
0.61165166 -0.14092381 0.071684532 1.8427604e-38
0.61415166 -0.14342381 0.071684532 5.15537e-39
0.61665165 -0.14842381 0.069184534 5.7089418e-39
0.61665165 -0.14842381 0.071684532 4.7898568e-39
0.61665165 -0.14592381 0.069184534 5.1557232e-39
0.61665165 -0.14592381 0.071684532 5.4194069e-39
0.61915165 -0.14842381 0.069184534 6.1598376e-39
0.61915165 -0.14842381 0.071684532 6.9805739e-39
0.61915165 -0.14592381 0.071684532 8.3811507e-39
0.61665165 -0.14342381 0.069184534 1.7138638e-38
0.61665165 -0.14342381 0.071684532 1.8428664e-38
0.61665165 -0.14842381 0.074184529 4.6043669e-39
0.61665165 -0.14592381 0.074184529 9.9465833e-39
0.61915165 -0.14842381 0.074184529 4.1430398e-39
0.61915165 -0.14842381 0.076684535 2.9423344e-39
0.62165165 -0.14842381 0.071684532 3.5877164e-39
0.62165165 -0.14842381 0.074184529 3.3114897e-39
0.62415165 -0.14842381 0.074184529 3.0338238e-39
