# .PCD v0.7 - Point Cloud Data file format
VERSION 0.7
FIELDS x y z rgb
SIZE 4 4 4 4
TYPE F F F F
COUNT 1 1 1 1
WIDTH 485
HEIGHT 1
VIEWPOINT 0 0 0 1 0 0 0
POINTS 485
DATA ascii
0.63091558 0.20355637 0.061921015 3.3104107e-39
0.63091558 0.20605637 0.061921015 2.6650413e-39
0.63341558 0.20355637 0.059421014 2.4864135e-39
0.63591558 0.20355637 0.059421014 2.0250809e-39
0.63841558 0.20105638 0.059421014 1.2903885e-39
0.63841558 0.20355637 0.059421014 2.0254368e-39
0.64091557 0.20105638 0.056921016 9.2160738e-40
0.64091557 0.20105638 0.059421014 1.1031204e-39
0.64091557 0.20355637 0.056921016 1.6562941e-39
0.63341558 0.20605637 0.059421014 2.0254368e-39
0.63591558 0.20605637 0.056921016 2.3906222e-39
0.63591558 0.20605637 0.059421014 1.5662761e-39
0.63591558 0.20855637 0.056921016 1.1063476e-39
0.63591558 0.20855637 0.059421014 1.1056441e-39
0.63591558 0.21105638 0.059421014 3.8707675e-39
0.63841558 0.21105638 0.059421014 1.3800674e-39
0.63841558 0.21355638 0.059421014 1.1031204e-39
0.64091557 0.21105638 0.056921016 2.0221886e-39
0.64091557 0.21355638 0.056921016 5.521144e-40
0.64091557 0.21355638 0.059421014 0
0.64341557 0.20105638 0.056921016 1.836766e-40
0.64341557 0.20105638 0.059421014 1.8367099e-40
0.64341557 0.20355637 0.056921016 4.6026909e-40
0.64341557 0.20355637 0.059421014 7.3504691e-40
0.64591557 0.20105638 0.056921016 0
0.64591557 0.20105638 0.059421014 4.2038954e-45
0.64841557 0.20105638 0.056921016 0
0.64841557 0.20355637 0.056921016 1.836766e-40
0.65091556 0.20105638 0.056921016 0
0.65091556 0.20355637 0.056921016 0
0.63341558 0.19855638 0.064421013 3.657389e-43
0.63341558 0.19855638 0.069421016 0
0.63591558 0.19855638 0.066921018 3.6734899e-40
0.63591558 0.19855638 0.069421016 5.6051939e-45
0.63341558 0.20105638 0.064421013 2.0257829e-39
0.63341558 0.20355637 0.061921015 1.7495464e-39
0.63341558 0.20355637 0.064421013 2.0257857e-39
0.63591558 0.20105638 0.061921015 1.749196e-39
0.63591558 0.20105638 0.064421013 1.3800674e-39
0.63591558 0.20355637 0.061921015 2.5739372e-39
0.63591558 0.20355637 0.064421013 1.6566445e-39
0.63341558 0.20105638 0.069421016 1.1031204e-39
0.63591558 0.20105638 0.066921018 2.0250865e-39
0.63591558 0.20105638 0.069421016 1.3804163e-39
0.63591558 0.20355637 0.066921018 1.841742e-39
0.63591558 0.20355637 0.069421016 1.3811226e-39
0.63841558 0.19855638 0.064421013 5.6051939e-45
0.64091557 0.19855638 0.061921015 7.0064923e-45
0.64091557 0.19855638 0.064421013 0
0.63841558 0.19855638 0.066921018 5.6051939e-45
0.63841558 0.19855638 0.069421016 0
0.64091557 0.19855638 0.066921018 0
0.64091557 0.19855638 0.069421016 1.4012985e-45
0.63841558 0.20105638 0.061921015 1.2878704e-39
0.63841558 0.20105638 0.064421013 1.1038294e-39
0.63841558 0.20355637 0.061921015 1.6566445e-39
0.64091557 0.20105638 0.061921015 1.1038294e-39
0.63841558 0.20105638 0.066921018 8.4077908e-45
0.63841558 0.20105638 0.069421016 1.1038266e-39
0.63841558 0.20355637 0.066921018 1.4726133e-39
0.63841558 0.20355637 0.069421016 1.1960251e-39
0.64091557 0.20105638 0.066921018 1.8439126e-40
0.64091557 0.20105638 0.069421016 2.7658689e-40
0.64091557 0.20355637 0.069421016 1.3811226e-39
0.63591558 0.19855638 0.071921013 0
0.63591558 0.19855638 0.074421018 1.4733196e-39
0.63591558 0.20105638 0.071921013 1.0109247e-39
0.63591558 0.20105638 0.074421018 1.6566445e-39
0.64091557 0.19855638 0.071921013 1.8367099e-40
0.63841558 0.20105638 0.071921013 1.4733196e-39
0.63841558 0.20355637 0.071921013 1.1041783e-39
0.64091557 0.20105638 0.071921013 1.1963726e-39
0.64091557 0.20355637 0.071921013 1.6566445e-39
0.63341558 0.20605637 0.061921015 1.0119841e-39
0.63341558 0.20605637 0.064421013 1.8413945e-39
0.63341558 0.20855637 0.061921015 1.3804163e-39
0.63341558 0.20855637 0.064421013 1.0109247e-39
0.63591558 0.20605637 0.061921015 2.4817416e-39
0.63591558 0.20605637 0.064421013 1.4726133e-39
0.63591558 0.20855637 0.061921015 2.0211194e-39
0.63591558 0.20855637 0.064421013 8.279544e-40
0.63591558 0.20605637 0.066921018 1.4733196e-39
0.63591558 0.20605637 0.069421016 1.2885682e-39
0.63591558 0.20855637 0.066921018 3.6734198e-40
0.63591558 0.20855637 0.069421016 8.2724394e-40
0.63591558 0.21105638 0.061921015 6.4431283e-40
0.63591558 0.21105638 0.064421013 7.3504691e-40
0.63591558 0.21355638 0.061921015 4.5917748e-40
0.63591558 0.21355638 0.064421013 1.0109247e-39
0.63841558 0.20855637 0.061921015 2.7658689e-40
0.63841558 0.20605637 0.066921018 1.1038294e-39
0.63841558 0.20605637 0.069421016 8.2724394e-40
0.63841558 0.20855637 0.066921018 1.0119841e-39
0.63841558 0.20855637 0.069421016 2.7658689e-40
0.64091557 0.20605637 0.069421016 8.2724394e-40
0.64091557 0.20855637 0.066921018 6.4320721e-40
0.64091557 0.20855637 0.069421016 1.8439126e-40
0.63841558 0.21105638 0.061921015 4.6026909e-40
0.63841558 0.21105638 0.064421013 8.2724394e-40
0.63841558 0.21355638 0.061921015 5.521172e-40
0.63841558 0.21355638 0.064421013 6.4536941e-40
0.63841558 0.21105638 0.066921018 8.2724394e-40
0.63841558 0.21355638 0.066921018 2.7658689e-40
0.64091557 0.21105638 0.066921018 8.2724394e-40
0.64091557 0.21105638 0.069421016 1.8439126e-40
0.64091557 0.21355638 0.066921018 2.7801762e-40
0.64091557 0.21355638 0.069421016 2.7730015e-40
0.64091557 0.20605637 0.071921013 7.3504691e-40
0.64341557 0.19855638 0.069421016 2.2998335e-39
0.64591557 0.19855638 0.069421016 2.6679055e-39
0.64341557 0.20105638 0.069421016 1.6577025e-39
0.64591557 0.20105638 0.069421016 1.0127016e-39
0.64341557 0.19855638 0.071921013 2.1143856e-39
0.64341557 0.19855638 0.074421018 2.8537233e-39
0.64591557 0.19855638 0.071921013 1.8442601e-39
0.64591557 0.19855638 0.074421018 2.5789595e-39
0.64341557 0.20105638 0.071921013 1.6577025e-39
0.64341557 0.20355637 0.071921013 1.6577025e-39
0.64591557 0.20105638 0.071921013 2.026492e-39
0.64591557 0.20105638 0.074421018 2.3020139e-39
0.64591557 0.20355637 0.071921013 2.118689e-39
0.64591557 0.20355637 0.074421018 2.0257857e-39
0.64841557 0.19605638 0.071921013 3.037767e-39
0.64841557 0.19855638 0.071921013 3.0381174e-39
0.64841557 0.19855638 0.074421018 2.3027201e-39
0.65091556 0.19855638 0.074421018 1.2892843e-39
0.64841557 0.19605638 0.076921016 2.7608088e-39
0.64841557 0.19855638 0.076921016 2.0232508e-39
0.64841557 0.20105638 0.071921013 2.3027201e-39
0.64841557 0.20105638 0.074421018 2.118689e-39
0.64841557 0.20355637 0.071921013 1.8424496e-39
0.64841557 0.20355637 0.074421018 1.1077741e-39
0.65091556 0.20105638 0.071921013 2.1179828e-39
0.65091556 0.20105638 0.074421018 1.6573507e-39
0.65091556 0.20355637 0.071921013 1.8413945e-39
0.65091556 0.20355637 0.074421018 1.3811226e-39
0.64841557 0.20105638 0.076921016 8.279544e-40
0.64841557 0.20355637 0.076921016 1.2882207e-39
0.65091556 0.20355637 0.076921016 5.5317378e-40
0.64341557 0.20605637 0.069421016 8.279544e-40
0.64341557 0.20855637 0.069421016 7.3576017e-40
0.64591557 0.20855637 0.069421016 1.1960251e-39
0.64341557 0.21105638 0.069421016 4.5917748e-40
0.64341557 0.21355638 0.066921018 4.6132988e-40
0.64341557 0.21355638 0.069421016 3.6734198e-40
0.64591557 0.21105638 0.069421016 8.279544e-40
0.64591557 0.21355638 0.069421016 3.6734198e-40
0.64841557 0.21355638 0.069421016 7.3504691e-40
0.64341557 0.20605637 0.071921013 7.3504691e-40
0.64341557 0.20855637 0.071921013 2.7658689e-40
0.64591557 0.20605637 0.071921013 1.4733196e-39
0.64591557 0.20605637 0.074421018 1.4733196e-39
0.64591557 0.20855637 0.071921013 1.011631e-39
0.64591557 0.20855637 0.074421018 1.0119841e-39
0.64341557 0.21105638 0.071921013 4.5917748e-40
0.64591557 0.21105638 0.071921013 8.279544e-40
0.64591557 0.21355638 0.071921013 7.3576017e-40
0.64841557 0.20605637 0.071921013 1.4733196e-39
0.64841557 0.20605637 0.074421018 1.4733196e-39
0.64841557 0.20855637 0.071921013 1.1963726e-39
0.64841557 0.20855637 0.074421018 1.4733196e-39
0.65091556 0.20605637 0.071921013 1.7495464e-39
0.65091556 0.20605637 0.074421018 9.219563e-40
0.65091556 0.20855637 0.071921013 1.1041783e-39
0.65091556 0.20855637 0.074421018 1.1066951e-39
0.65091556 0.20605637 0.076921016 1.1963726e-39
0.65091556 0.20855637 0.076921016 1.3811226e-39
0.64841557 0.21105638 0.071921013 1.1963726e-39
0.64841557 0.21105638 0.074421018 1.6566445e-39
0.64841557 0.21355638 0.071921013 1.0119841e-39
0.64841557 0.21355638 0.074421018 1.1963726e-39
0.65091556 0.21105638 0.071921013 1.6577025e-39
0.65091556 0.21105638 0.074421018 1.1985432e-39
0.65091556 0.21355638 0.071921013 1.1963726e-39
0.65091556 0.21355638 0.074421018 1.3811226e-39
0.65091556 0.21105638 0.076921016 7.3827129e-40
0.65091556 0.21355638 0.076921016 1.4726133e-39
0.65091556 0.21355638 0.079421014 1.3804163e-39
0.65591556 0.19355638 0.056921016 7.2737115e-39
0.65841556 0.19355638 0.056921016 8.7567449e-39
0.65841556 0.19355638 0.059421014 6.7284677e-39
0.66091561 0.19105637 0.056921016 1.3265724e-38
0.66091561 0.19355638 0.056921016 6.6304651e-39
0.66091561 0.19355638 0.059421014 0
0.65591556 0.19605638 0.056921016 5.0627905e-39
0.65591556 0.19855638 0.056921016 5.6051939e-45
0.65341556 0.20105638 0.056921016 0
0.65341556 0.20105638 0.059421014 0
0.65341556 0.20355637 0.056921016 0
0.65341556 0.20355637 0.059421014 0
0.65591556 0.20105638 0.056921016 0
0.65591556 0.20105638 0.059421014 0
0.65591556 0.20355637 0.059421014 0
0.65841556 0.19605638 0.056921016 1.0779661e-38
0.65841556 0.19605638 0.059421014 9.2141512e-39
0.66091561 0.19605638 0.056921016 9.4907395e-39
0.66091561 0.19605638 0.059421014 5.345899e-39
0.66091561 0.19855638 0.056921016 9.398541e-39
0.66091561 0.19855638 0.059421014 6.4540318e-39
0.65841556 0.20355637 0.056921016 1.1942202e-39
0.66091561 0.20105638 0.056921016 4.5139299e-39
0.66341561 0.19605638 0.056921016 0
0.66341561 0.19855638 0.059421014 6.1745484e-39
0.66091561 0.20105638 0.061921015 3.6831364e-39
0.65341556 0.20355637 0.074421018 3.6734198e-40
0.65341556 0.20605637 0.074421018 8.2976067e-40
0.65341556 0.20855637 0.074421018 1.1963726e-39
0.65591556 0.20855637 0.074421018 0
0.65341556 0.20605637 0.076921016 0
0.65341556 0.20855637 0.076921016 7.3504691e-40
0.65341556 0.21105638 0.074421018 1.6566445e-39
0.65341556 0.21355638 0.071921013 1.2882179e-39
0.65341556 0.21355638 0.074421018 1.4736727e-39
0.65591556 0.21105638 0.074421018 8.2724394e-40
0.65591556 0.21355638 0.074421018 1.4733196e-39
0.65341556 0.21105638 0.076921016 1.1960251e-39
0.65341556 0.21355638 0.076921016 1.3811226e-39
0.65341556 0.21355638 0.079421014 0
0.65591556 0.21355638 0.076921016 1.3804163e-39
0.66341561 0.20105638 0.061921015 4.2363102e-39
0.64091557 0.21605638 0.059421014 1.1049407e-39
0.64091557 0.21855637 0.059421014 2.5800259e-39
0.64341557 0.21605638 0.056921016 1.1063476e-39
0.64341557 0.21855637 0.056921016 1.9368145e-39
0.64341557 0.21855637 0.059421014 4.5917748e-40
0.64341557 0.22105637 0.059421014 6.4396251e-40
0.64341557 0.22355637 0.059421014 1.8328984e-42
0.64591557 0.22105637 0.056921016 8.2654609e-40
0.64591557 0.22355637 0.056921016 1.3793611e-39
0.64591557 0.22355637 0.059421014 6.4431283e-40
0.64591557 0.22605638 0.056921016 7.3650846e-40
0.64591557 0.22605638 0.059421014 1.4730267e-39
0.64591557 0.22855638 0.056921016 2.4907436e-39
0.64591557 0.22855638 0.059421014 1.6613416e-39
0.64591557 0.23105638 0.059421014 1.0089349e-41
0.64841557 0.22855638 0.059421014 2.1804204e-42
0.64841557 0.23105638 0.056921016 1.0452285e-41
0.64841557 0.23105638 0.059421014 1.1529884e-41
0.64841557 0.23355637 0.059421014 4.2441981e-39
0.65091556 0.23355637 0.059421014 4.0612768e-39
0.63841558 0.21605638 0.061921015 8.2689361e-40
0.63841558 0.21605638 0.064421013 9.1856516e-41
0.64091557 0.21605638 0.061921015 8.2724394e-40
0.64091557 0.21605638 0.064421013 7.0064923e-45
0.64091557 0.21855637 0.061921015 2.7589044e-40
0.64091557 0.21855637 0.064421013 4.6097815e-40
0.64091557 0.21605638 0.066921018 2.7730015e-40
0.64091557 0.21855637 0.066921018 7.3504691e-40
0.64091557 0.22105637 0.061921015 4.6242849e-44
0.64341557 0.21605638 0.064421013 4.6097815e-40
0.64341557 0.21855637 0.061921015 4.6026909e-40
0.64341557 0.21855637 0.064421013 2.7658689e-40
0.64341557 0.21605638 0.066921018 2.7730015e-40
0.64341557 0.21605638 0.069421016 7.1746481e-43
0.64341557 0.21855637 0.066921018 4.6026909e-40
0.64341557 0.21855637 0.069421016 7.3504691e-40
0.64591557 0.21605638 0.066921018 1.8439126e-40
0.64591557 0.21605638 0.069421016 3.6734198e-40
0.64591557 0.21855637 0.066921018 2.7658689e-40
0.64591557 0.21855637 0.069421016 6.4320721e-40
0.64341557 0.22105637 0.061921015 1.8622416e-40
0.64341557 0.22105637 0.064421013 1.0109247e-39
0.64341557 0.22355637 0.061921015 1.1027728e-39
0.64341557 0.22355637 0.064421013 9.1856516e-41
0.64591557 0.22105637 0.061921015 2.7658689e-40
0.64591557 0.22105637 0.064421013 4.6097815e-40
0.64591557 0.22355637 0.061921015 4.6097815e-40
0.64591557 0.22355637 0.064421013 2.7658689e-40
0.64341557 0.22105637 0.066921018 7.3504691e-40
0.64341557 0.22355637 0.066921018 2.7658689e-40
0.64591557 0.22105637 0.066921018 4.6132988e-40
0.64591557 0.22105637 0.069421016 1.8582339e-40
0.64591557 0.22355637 0.066921018 2.7658689e-40
0.64591557 0.22355637 0.069421016 2.7801762e-40
0.64841557 0.21605638 0.069421016 3.6734198e-40
0.64841557 0.21855637 0.069421016 0
0.64841557 0.22105637 0.069421016 1.8582339e-40
0.64841557 0.22355637 0.066921018 8.279544e-40
0.64841557 0.22355637 0.069421016 0
0.65091556 0.22355637 0.069421016 4.5917748e-40
0.64591557 0.21605638 0.071921013 3.6734198e-40
0.64591557 0.21855637 0.071921013 4.5917748e-40
0.64841557 0.21605638 0.071921013 8.279544e-40
0.64841557 0.21605638 0.074421018 1.1963726e-39
0.64841557 0.21855637 0.071921013 7.3576017e-40
0.64841557 0.21855637 0.074421018 1.0119841e-39
0.65091556 0.21605638 0.071921013 8.2759987e-40
0.65091556 0.21605638 0.074421018 1.3811226e-39
0.65091556 0.21855637 0.071921013 1.0119841e-39
0.65091556 0.21855637 0.074421018 1.4726133e-39
0.65091556 0.21605638 0.076921016 1.4726133e-39
0.65091556 0.21855637 0.076921016 1.3811226e-39
0.64841557 0.22105637 0.071921013 7.3504691e-40
0.64841557 0.22105637 0.074421018 8.2759987e-40
0.64841557 0.22355637 0.071921013 0
0.64841557 0.22355637 0.074421018 6.4285128e-40
0.65091556 0.22105637 0.071921013 1.0119841e-39
0.65091556 0.22105637 0.074421018 1.0123429e-39
0.65091556 0.22355637 0.071921013 6.4320721e-40
0.65091556 0.22355637 0.074421018 8.2831313e-40
0.65091556 0.22105637 0.076921016 1.3814785e-39
0.64341557 0.22605638 0.061921015 1.1949685e-39
0.64591557 0.22605638 0.061921015 2.7589044e-40
0.64591557 0.22605638 0.064421013 2.7623797e-40
0.64591557 0.22855638 0.061921015 1.1294466e-42
0.64591557 0.22855638 0.064421013 7.3722733e-40
0.64591557 0.23105638 0.061921015 2.9552376e-39
0.64841557 0.22605638 0.061921015 0
0.64841557 0.22605638 0.064421013 8.279544e-40
0.64841557 0.22855638 0.061921015 1.2878704e-39
0.64841557 0.22855638 0.064421013 8.2724394e-40
0.64841557 0.22605638 0.066921018 4.6097815e-40
0.64841557 0.22605638 0.069421016 7.1746481e-43
0.64841557 0.22855638 0.066921018 8.2724394e-40
0.65091556 0.22605638 0.066921018 7.3504691e-40
0.65091556 0.22605638 0.069421016 0
0.65091556 0.22855638 0.066921018 4.6097815e-40
0.65091556 0.22855638 0.069421016 4.6097815e-40
0.64841557 0.23105638 0.061921015 0
0.64841557 0.23105638 0.064421013 2.7554292e-40
0.64841557 0.23355637 0.061921015 7.1746481e-43
0.64841557 0.23355637 0.064421013 3.5873241e-43
0.65091556 0.23105638 0.061921015 2.7554292e-40
0.65091556 0.23105638 0.064421013 6.4536941e-40
0.65091556 0.23355637 0.061921015 7.1886611e-43
0.65091556 0.23355637 0.064421013 5.5317378e-40
0.65091556 0.23105638 0.066921018 1.8582339e-40
0.65091556 0.23105638 0.069421016 4.6132988e-40
0.65091556 0.23355637 0.066921018 1.1956747e-39
0.65091556 0.23355637 0.069421016 1.1038294e-39
0.65091556 0.22605638 0.071921013 7.3504691e-40
0.65091556 0.22605638 0.074421018 5.5317378e-40
0.65091556 0.23605637 0.056921016 4.0609237e-39
0.65091556 0.23605637 0.059421014 0
0.65091556 0.23605637 0.061921015 0
0.65091556 0.23605637 0.064421013 7.3504691e-40
0.65091556 0.23855637 0.064421013 0
0.65091556 0.23605637 0.066921018 0
0.65091556 0.23605637 0.069421016 7.3792097e-40
0.65091556 0.23855637 0.066921018 2.8025969e-45
0.65091556 0.23855637 0.069421016 0
0.65091556 0.24105638 0.069421016 1.4468936e-38
0.65591556 0.22105637 0.069421016 1.1041783e-39
0.65341556 0.21605638 0.071921013 5.5317378e-40
0.65341556 0.21605638 0.074421018 1.3804163e-39
0.65341556 0.21855637 0.071921013 1.3804163e-39
0.65341556 0.21855637 0.074421018 1.3804163e-39
0.65591556 0.21605638 0.074421018 1.3811226e-39
0.65591556 0.21855637 0.074421018 1.4726133e-39
0.65341556 0.21605638 0.076921016 1.4726133e-39
0.65341556 0.21605638 0.079421014 7.3504691e-40
0.65341556 0.21855637 0.076921016 1.6566445e-39
0.65341556 0.21855637 0.079421014 1.4726133e-39
0.65591556 0.21605638 0.076921016 7.3504691e-40
0.65591556 0.21855637 0.076921016 1.6566445e-39
0.65591556 0.21855637 0.079421014 1.1960251e-39
0.65341556 0.22105637 0.071921013 1.1960251e-39
0.65341556 0.22105637 0.074421018 1.2882179e-39
0.65341556 0.22355637 0.071921013 1.1960251e-39
0.65341556 0.22355637 0.074421018 1.3811226e-39
0.65591556 0.22105637 0.074421018 1.2882179e-39
0.65591556 0.22355637 0.074421018 1.2885682e-39
0.65341556 0.22105637 0.076921016 1.3811226e-39
0.65341556 0.22355637 0.076921016 1.2878704e-39
0.65591556 0.22105637 0.076921016 1.3804163e-39
0.65591556 0.22355637 0.076921016 1.4733196e-39
0.65841556 0.21855637 0.074421018 1.2882207e-39
0.66091561 0.21855637 0.074421018 0
0.65841556 0.21855637 0.076921016 1.2885682e-39
0.66091561 0.21855637 0.076921016 4.5918589e-40
0.65841556 0.22105637 0.071921013 1.3811226e-39
0.65841556 0.22105637 0.074421018 1.3804135e-39
0.65841556 0.22355637 0.074421018 1.2885682e-39
0.66091561 0.22105637 0.074421018 1.4726133e-39
0.66091561 0.22355637 0.074421018 1.3804163e-39
0.65841556 0.22105637 0.076921016 1.1038294e-39
0.65841556 0.22355637 0.076921016 1.3804163e-39
0.66091561 0.22105637 0.076921016 1.1960251e-39
0.66091561 0.22355637 0.076921016 1.7463094e-39
0.65341556 0.22855638 0.069421016 7.3576017e-40
0.65341556 0.23355637 0.061921015 1.0112751e-39
0.65341556 0.23355637 0.064421013 4.6097815e-40
0.65341556 0.23105638 0.066921018 5.5282345e-40
0.65341556 0.23105638 0.069421016 7.1746481e-43
0.65341556 0.23355637 0.066921018 1.0109247e-39
0.65341556 0.23355637 0.069421016 2.7623797e-40
0.65591556 0.23105638 0.069421016 8.2759987e-40
0.65591556 0.23355637 0.066921018 8.2689361e-40
0.65591556 0.23355637 0.069421016 1.1031204e-39
0.65341556 0.22605638 0.071921013 7.3504691e-40
0.65341556 0.22605638 0.074421018 1.1963726e-39
0.65341556 0.22855638 0.071921013 2.7623797e-40
0.65341556 0.22855638 0.074421018 1.1960223e-39
0.65591556 0.22605638 0.071921013 1.2885682e-39
0.65591556 0.22605638 0.074421018 1.4733196e-39
0.65591556 0.22855638 0.071921013 1.011631e-39
0.65591556 0.22855638 0.074421018 1.2882179e-39
0.65341556 0.22605638 0.076921016 1.3804163e-39
0.65591556 0.22605638 0.076921016 1.4733196e-39
0.65341556 0.23105638 0.071921013 8.4077908e-45
0.65591556 0.23105638 0.071921013 1.0112751e-39
0.65591556 0.23105638 0.074421018 1.3804163e-39
0.65591556 0.23355637 0.071921013 6.4501908e-40
0.65591556 0.23355637 0.074421018 1.1981929e-39
0.65841556 0.22605638 0.074421018 1.1077741e-39
0.65841556 0.22855638 0.071921013 1.2882207e-39
0.65841556 0.22855638 0.074421018 1.4733196e-39
0.66091561 0.22605638 0.074421018 1.6566445e-39
0.66091561 0.22855638 0.074421018 1.1063476e-39
0.65841556 0.22605638 0.076921016 1.1985432e-39
0.65841556 0.22855638 0.076921016 1.4726133e-39
0.66091561 0.22605638 0.076921016 1.4726133e-39
0.66091561 0.22855638 0.076921016 1.4726133e-39
0.66091561 0.22855638 0.079421014 0
0.65841556 0.23105638 0.071921013 1.011631e-39
0.65841556 0.23105638 0.074421018 1.6573507e-39
0.65841556 0.23355637 0.071921013 9.2125985e-40
0.65841556 0.23355637 0.074421018 8.2976067e-40
0.66091561 0.23105638 0.074421018 1.1063476e-39
0.66091561 0.23355637 0.074421018 1.1981929e-39
0.65841556 0.23105638 0.076921016 1.8403379e-39
0.65841556 0.23105638 0.079421014 0
0.65841556 0.23355637 0.076921016 1.102026e-39
0.65841556 0.23355637 0.079421014 0
0.66091561 0.23105638 0.076921016 1.3804163e-39
0.66091561 0.23105638 0.079421014 0
0.66091561 0.23355637 0.076921016 2.7912604e-40
0.66091561 0.23355637 0.079421014 0
0.66341561 0.22105637 0.074421018 1.1960251e-39
0.66341561 0.22355637 0.074421018 1.4733196e-39
0.66341561 0.22355637 0.076921016 0
0.66341561 0.22605638 0.074421018 1.6573507e-39
0.66341561 0.22855638 0.074421018 1.6566445e-39
0.66341561 0.22605638 0.076921016 1.0101905e-39
0.66341561 0.22855638 0.076921016 1.3775324e-39
0.66341561 0.23105638 0.076921016 9.1835496e-41
0.66591561 0.23105638 0.076921016 0
0.65341556 0.23605637 0.056921016 0
0.65341556 0.23605637 0.059421014 0
0.65341556 0.23855637 0.056921016 1.8765769e-40
0.65341556 0.23855637 0.059421014 1.0649868e-43
0.65591556 0.24105638 0.056921016 1.0138979e-38
0.65591556 0.24105638 0.059421014 9.9556665e-39
0.65341556 0.23605637 0.061921015 2.7658689e-40
0.65341556 0.23605637 0.064421013 1.1985432e-39
0.65341556 0.23855637 0.061921015 0
0.65341556 0.23855637 0.064421013 0
0.65591556 0.23855637 0.061921015 0
0.65341556 0.23605637 0.066921018 1.2878704e-39
0.65341556 0.23605637 0.069421016 1.011631e-39
0.65341556 0.23855637 0.066921018 0
0.65341556 0.23855637 0.069421016 0
0.65591556 0.23605637 0.066921018 1.0109247e-39
0.65591556 0.23605637 0.069421016 4.5992157e-40
0.65591556 0.23855637 0.066921018 0
0.65591556 0.23855637 0.069421016 0
0.65341556 0.24105638 0.061921015 2.7765888e-40
0.65341556 0.24105638 0.064421013 0
0.65591556 0.24105638 0.061921015 0
0.65341556 0.24105638 0.066921018 0
0.65341556 0.24105638 0.069421016 1.4561132e-38
0.65591556 0.24105638 0.066921018 0
0.65591556 0.24105638 0.069421016 2.5778511e-39
0.65841556 0.23855637 0.069421016 0
0.65841556 0.24105638 0.069421016 7.0936307e-39
0.65591556 0.23605637 0.071921013 5.5282345e-40
0.65591556 0.23605637 0.074421018 1.4012985e-45
0.65591556 0.23855637 0.071921013 0
0.65841556 0.23605637 0.071921013 0
0.65841556 0.23605637 0.074421018 0
0.65841556 0.23855637 0.071921013 0
0.65841556 0.23855637 0.074421018 1.1796257e-38
0.66091561 0.23605637 0.071921013 5.6051939e-45
0.66091561 0.23605637 0.074421018 0
0.66091561 0.23855637 0.071921013 1.179661e-38
0.66091561 0.23855637 0.074421018 1.4748041e-38
0.65841556 0.23605637 0.076921016 1.8367099e-40
0.66091561 0.23605637 0.076921016 0
0.65841556 0.24105638 0.071921013 6.5411786e-39
0.65841556 0.24105638 0.074421018 1.3638804e-38
0.66091561 0.24105638 0.071921013 8.5684104e-39
0.66091561 0.24105638 0.074421018 1.7599266e-38
0.66341561 0.23855637 0.074421018 1.6312127e-38
0.66341561 0.24105638 0.071921013 1.7415951e-38
0.65091556 0.21355638 0.081921011 0
