# .PCD v0.7 - Point Cloud Data file format
VERSION 0.7
FIELDS x y z rgb
SIZE 4 4 4 4
TYPE F F F F
COUNT 1 1 1 1
WIDTH 456
HEIGHT 1
VIEWPOINT 0 0 0 1 0 0 0
POINTS 456
DATA ascii
0.63492227 0.20350204 0.058303338 3.0359944e-39
0.63742226 0.20350204 0.058303338 2.0250809e-39
0.63992226 0.20100205 0.058303338 5.5282345e-40
0.63992226 0.20350204 0.058303338 1.7484898e-39
0.64242226 0.20100205 0.058303338 1.8367099e-40
0.64492226 0.20100205 0.058303338 0
0.63492227 0.19850205 0.065803342 6.4285968e-40
0.63492227 0.19850205 0.068303339 0
0.63242227 0.20100205 0.063303337 2.0257829e-39
0.63242227 0.20350204 0.060803339 3.3107582e-39
0.63242227 0.20350204 0.063303337 1.8413945e-39
0.63492227 0.20100205 0.060803339 1.8406882e-39
0.63492227 0.20100205 0.063303337 1.6562941e-39
0.63492227 0.20350204 0.060803339 1.8410441e-39
0.63492227 0.20350204 0.063303337 1.6566445e-39
0.63492227 0.20100205 0.065803342 1.7484898e-39
0.63492227 0.20100205 0.068303339 2.1143856e-39
0.63492227 0.20350204 0.065803342 1.4733196e-39
0.63492227 0.20350204 0.068303339 2.2994831e-39
0.63742226 0.19850205 0.063303337 4.2038954e-45
0.63742226 0.19850205 0.068303339 1.4012985e-45
0.63992226 0.19850205 0.065803342 0
0.63992226 0.19850205 0.068303339 9.1835496e-41
0.63742226 0.20100205 0.060803339 1.6566445e-39
0.63742226 0.20100205 0.063303337 1.2878704e-39
0.63742226 0.20350204 0.060803339 1.472263e-39
0.63992226 0.20100205 0.060803339 4.6097815e-40
0.63742226 0.20100205 0.065803342 1.1031204e-39
0.63742226 0.20100205 0.068303339 8.279544e-40
0.63742226 0.20350204 0.068303339 1.3811226e-39
0.63992226 0.20100205 0.065803342 0
0.63992226 0.20100205 0.068303339 7.3504691e-40
0.63992226 0.20350204 0.068303339 1.2882179e-39
0.64242226 0.19850205 0.068303339 9.18397e-41
0.64242226 0.20100205 0.060803339 1.836766e-40
0.64242226 0.20100205 0.063303337 3.6734198e-40
0.64492226 0.20100205 0.060803339 4.2038954e-45
0.64242226 0.20100205 0.068303339 1.1041783e-39
0.64242226 0.20350204 0.068303339 1.6573507e-39
0.63742226 0.19850205 0.070803337 0
0.63992226 0.19850205 0.070803337 1.8367099e-40
0.63742226 0.20100205 0.070803337 1.1038294e-39
0.63742226 0.20350204 0.070803337 1.1963726e-39
0.63992226 0.20100205 0.070803337 1.1041783e-39
0.63992226 0.20100205 0.073303342 1.7502554e-39
0.63992226 0.20350204 0.070803337 1.6573507e-39
0.63992226 0.20350204 0.073303342 1.6573507e-39
0.64242226 0.19850205 0.070803337 3.6734198e-40
0.64242226 0.19850205 0.073303342 2.9459217e-39
0.64492226 0.19850205 0.070803337 2.4845806e-39
0.64242226 0.20100205 0.070803337 2.1143856e-39
0.64242226 0.20100205 0.073303342 1.841742e-39
0.64242226 0.20350204 0.070803337 1.4733196e-39
0.64242226 0.20350204 0.073303342 1.3811226e-39
0.64492226 0.20100205 0.070803337 1.2892843e-39
0.64492226 0.20100205 0.073303342 2.3027201e-39
0.64492226 0.20350204 0.070803337 2.026492e-39
0.64492226 0.20350204 0.073303342 1.841742e-39
0.64992225 0.20100205 0.058303338 5.6051939e-45
0.64992225 0.20350204 0.058303338 5.6051939e-45
0.65492225 0.19600205 0.058303338 0
0.65242225 0.20100205 0.058303338 5.6051939e-45
0.65242225 0.20350204 0.058303338 5.6051939e-45
0.65492225 0.20100205 0.058303338 0
0.65492225 0.20350204 0.058303338 0
0.65742224 0.19100204 0.058303338 9.0261235e-39
0.65742224 0.19350205 0.058303338 9.5807477e-39
0.65992224 0.19100204 0.058303338 1.317386e-38
0.65992224 0.19350205 0.058303338 9.0275711e-39
0.66242224 0.19350205 0.058303338 7.37024e-39
0.65742224 0.19600205 0.058303338 2.2055093e-39
0.65742224 0.19850205 0.058303338 4.5917748e-40
0.65992224 0.19600205 0.058303338 8.6634955e-39
0.65992224 0.19850205 0.058303338 7.646101e-39
0.65742224 0.20100205 0.058303338 0
0.65742224 0.20350204 0.058303338 0
0.65992224 0.20100205 0.058303338 7.0947251e-39
0.65992224 0.20350204 0.058303338 1.9310706e-39
0.66242224 0.19600205 0.058303338 9.03012e-39
0.66242224 0.19850205 0.058303338 1.0043192e-38
0.66242224 0.20100205 0.058303338 4.0529924e-39
0.66242224 0.20350204 0.058303338 3.4061768e-39
0.64742225 0.19600205 0.070803337 5.2529425e-39
0.64742225 0.19600205 0.073303342 3.1299627e-39
0.64742225 0.19850205 0.070803337 2.7608088e-39
0.64742225 0.19850205 0.073303342 2.6722089e-39
0.64742225 0.19850205 0.075803339 1.7495464e-39
0.64992225 0.19850205 0.075803339 2.115445e-39
0.64742225 0.20100205 0.070803337 2.3949158e-39
0.64742225 0.20100205 0.073303342 2.3949158e-39
0.64742225 0.20350204 0.070803337 1.841742e-39
0.64742225 0.20350204 0.073303342 1.841742e-39
0.64992225 0.20100205 0.073303342 2.3020139e-39
0.64992225 0.20350204 0.073303342 1.3836407e-39
0.64742225 0.20100205 0.075803339 1.0119841e-39
0.64742225 0.20100205 0.078303337 1.2885682e-39
0.64742225 0.20350204 0.075803339 1.7495464e-39
0.64742225 0.20350204 0.078303337 8.2759987e-40
0.64992225 0.20100205 0.075803339 4.5917748e-40
0.64992225 0.20350204 0.075803339 1.011631e-39
0.65742224 0.19100204 0.060803339 6.6275966e-39
0.65742224 0.19350205 0.060803339 7.0929146e-39
0.65992224 0.19350205 0.060803339 0
0.65742224 0.19600205 0.060803339 9.6743922e-39
0.65992224 0.19600205 0.060803339 4.61265e-39
0.65992224 0.19850205 0.060803339 6.1752575e-39
0.63492227 0.20600204 0.058303338 2.4828206e-39
0.63492227 0.20850204 0.058303338 1.1981901e-39
0.63492227 0.21100205 0.058303338 3.1360807e-39
0.63742226 0.20600204 0.058303338 1.8410441e-39
0.63742226 0.20850204 0.058303338 1.1088643e-39
0.63742226 0.21100205 0.058303338 3.596298e-39
0.63742226 0.21350205 0.058303338 2.7623797e-40
0.63992226 0.21350205 0.058303338 1.7448912e-39
0.63992226 0.21600205 0.058303338 2.5800259e-39
0.63992226 0.21850204 0.058303338 2.2134014e-39
0.64242226 0.21850204 0.058303338 3.6734198e-40
0.64242226 0.22100204 0.058303338 2.7589044e-40
0.64492226 0.22100204 0.058303338 2.7623797e-40
0.64492226 0.22350204 0.058303338 6.4501908e-40
0.63242227 0.20600204 0.060803339 2.5731932e-39
0.63242227 0.20600204 0.063303337 1.8410441e-39
0.63242227 0.20850204 0.063303337 1.3804163e-39
0.63492227 0.20600204 0.060803339 8.2976067e-40
0.63492227 0.20600204 0.063303337 1.2882179e-39
0.63492227 0.20850204 0.060803339 2.1129605e-39
0.63492227 0.20850204 0.063303337 1.011631e-39
0.63492227 0.20600204 0.065803342 1.3811226e-39
0.63492227 0.20600204 0.068303339 1.838505e-39
0.63492227 0.20850204 0.065803342 4.5917748e-40
0.63492227 0.20850204 0.068303339 8.279544e-40
0.63492227 0.21100205 0.060803339 1.3775366e-39
0.63492227 0.21100205 0.063303337 4.5992157e-40
0.63742226 0.20850204 0.060803339 5.5282345e-40
0.63742226 0.20600204 0.065803342 1.838505e-39
0.63742226 0.20600204 0.068303339 1.2885682e-39
0.63742226 0.20850204 0.065803342 4.5917748e-40
0.63742226 0.20850204 0.068303339 8.279544e-40
0.63992226 0.20600204 0.068303339 1.0119841e-39
0.63992226 0.20850204 0.068303339 2.7801762e-40
0.63742226 0.21100205 0.060803339 2.7589044e-40
0.63742226 0.21100205 0.063303337 6.4501908e-40
0.63742226 0.21350205 0.060803339 9.1862121e-41
0.63742226 0.21350205 0.063303337 8.2689361e-40
0.63742226 0.21100205 0.065803342 7.3504691e-40
0.63742226 0.21100205 0.068303339 8.2724394e-40
0.63742226 0.21350205 0.065803342 5.5282345e-40
0.63742226 0.21350205 0.068303339 8.279544e-40
0.63992226 0.21100205 0.065803342 8.279544e-40
0.63992226 0.21100205 0.068303339 8.2724394e-40
0.63992226 0.21350205 0.065803342 2.7801762e-40
0.63992226 0.21350205 0.068303339 1.1963726e-39
0.64242226 0.20600204 0.068303339 7.1746481e-43
0.64242226 0.20850204 0.068303339 0
0.64242226 0.21100205 0.068303339 7.3504691e-40
0.64242226 0.21350205 0.065803342 4.6132988e-40
0.64242226 0.21350205 0.068303339 8.279544e-40
0.64492226 0.21100205 0.068303339 4.5917748e-40
0.64492226 0.21350205 0.068303339 3.6734198e-40
0.63742226 0.20600204 0.070803337 8.279544e-40
0.63992226 0.20600204 0.070803337 8.2724394e-40
0.63992226 0.20850204 0.070803337 3.5873241e-43
0.64242226 0.20600204 0.070803337 2.7730015e-40
0.64242226 0.20850204 0.070803337 0
0.64492226 0.20600204 0.070803337 8.279544e-40
0.64492226 0.20600204 0.073303342 1.3814785e-39
0.64492226 0.20850204 0.070803337 1.8439126e-40
0.64492226 0.20850204 0.073303342 1.1041783e-39
0.64242226 0.21100205 0.070803337 3.6734198e-40
0.64492226 0.21100205 0.070803337 4.5917748e-40
0.64492226 0.21350205 0.070803337 6.4284847e-40
0.63742226 0.21600205 0.060803339 2.3974339e-39
0.63742226 0.21600205 0.063303337 1.1038294e-39
0.63992226 0.21600205 0.060803339 7.3504691e-40
0.63992226 0.21600205 0.063303337 9.1856516e-41
0.63992226 0.21850204 0.060803339 7.3504691e-40
0.63992226 0.21850204 0.063303337 1.8404094e-40
0.63992226 0.21600205 0.065803342 0
0.63992226 0.21850204 0.065803342 1.8439126e-40
0.64242226 0.21850204 0.060803339 2.7589044e-40
0.64242226 0.21850204 0.063303337 2.8866748e-42
0.64242226 0.21600205 0.065803342 7.3576017e-40
0.64242226 0.21600205 0.068303339 7.3576017e-40
0.64242226 0.21850204 0.065803342 8.279544e-40
0.64242226 0.21850204 0.068303339 8.279544e-40
0.64492226 0.21600205 0.065803342 4.6097815e-40
0.64492226 0.21600205 0.068303339 6.4320721e-40
0.64492226 0.21850204 0.065803342 5.5282345e-40
0.64492226 0.21850204 0.068303339 6.4320721e-40
0.64242226 0.22100204 0.060803339 7.3650846e-40
0.64242226 0.22100204 0.063303337 5.5317378e-40
0.64242226 0.22350204 0.060803339 8.2906282e-40
0.64242226 0.22350204 0.063303337 1.6534075e-39
0.64492226 0.22100204 0.060803339 5.5317378e-40
0.64492226 0.22100204 0.063303337 2.7658689e-40
0.64492226 0.22350204 0.060803339 6.4396251e-40
0.64492226 0.22350204 0.063303337 6.4285968e-40
0.64242226 0.22100204 0.065803342 4.6097815e-40
0.64242226 0.22350204 0.065803342 0
0.64492226 0.22100204 0.065803342 4.6097815e-40
0.64492226 0.22100204 0.068303339 2.7658689e-40
0.64492226 0.22350204 0.065803342 6.4285968e-40
0.64492226 0.22350204 0.068303339 7.3469798e-40
0.64492226 0.21600205 0.070803337 7.1746481e-43
0.64492226 0.22600205 0.058303338 7.3650846e-40
0.64492226 0.22850205 0.058303338 1.8460762e-39
0.64492226 0.22600205 0.060803339 1.6534075e-39
0.64492226 0.22600205 0.063303337 7.3469798e-40
0.64492226 0.22850205 0.063303337 6.4396251e-40
0.64742225 0.20600204 0.070803337 1.4733196e-39
0.64742225 0.20600204 0.073303342 1.6573507e-39
0.64742225 0.20850204 0.070803337 1.2885682e-39
0.64742225 0.20850204 0.073303342 1.2885682e-39
0.64992225 0.20600204 0.073303342 1.6566445e-39
0.64992225 0.20850204 0.073303342 1.1960251e-39
0.64742225 0.20600204 0.075803339 1.4733196e-39
0.64742225 0.20600204 0.078303337 8.2976067e-40
0.64992225 0.20600204 0.075803339 1.2882179e-39
0.64992225 0.20600204 0.078303337 0
0.64992225 0.20850204 0.075803339 1.1963726e-39
0.64992225 0.20850204 0.078303337 1.8404094e-40
0.64742225 0.21100205 0.070803337 8.279544e-40
0.64742225 0.21100205 0.073303342 1.1960251e-39
0.64742225 0.21350205 0.070803337 7.3576017e-40
0.64742225 0.21350205 0.073303342 1.0119841e-39
0.64992225 0.21100205 0.073303342 1.1963726e-39
0.64992225 0.21350205 0.070803337 1.1041783e-39
0.64992225 0.21350205 0.073303342 1.1041783e-39
0.64992225 0.21100205 0.075803339 1.472263e-39
0.64992225 0.21100205 0.078303337 1.4736727e-39
0.65242225 0.20600204 0.075803339 0
0.65242225 0.20850204 0.075803339 9.1835496e-41
0.65242225 0.20850204 0.078303337 0
0.65242225 0.21100205 0.073303342 1.3804163e-39
0.65242225 0.21350205 0.073303342 1.2885682e-39
0.65492225 0.21100205 0.073303342 1.6566445e-39
0.65492225 0.21350205 0.073303342 1.6573507e-39
0.65242225 0.21100205 0.075803339 2.7658689e-40
0.65242225 0.21100205 0.078303337 8.2724394e-40
0.65242225 0.21350205 0.075803339 1.2882179e-39
0.65242225 0.21350205 0.078303337 1.3804163e-39
0.65492225 0.21100205 0.075803339 1.1038294e-39
0.65492225 0.21350205 0.075803339 1.3804135e-39
0.65492225 0.21350205 0.078303337 0
0.64742225 0.21600205 0.068303339 7.1746481e-43
0.64742225 0.21850204 0.068303339 1.836766e-40
0.64742225 0.22100204 0.065803342 8.2724394e-40
0.64742225 0.22100204 0.068303339 6.4284847e-40
0.64742225 0.22350204 0.065803342 8.2724394e-40
0.64742225 0.22350204 0.068303339 7.3576017e-40
0.64742225 0.21600205 0.070803337 4.5917748e-40
0.64742225 0.21600205 0.073303342 8.279544e-40
0.64742225 0.21850204 0.070803337 7.3504691e-40
0.64742225 0.21850204 0.073303342 8.2724394e-40
0.64992225 0.21600205 0.070803337 1.0119841e-39
0.64992225 0.21600205 0.073303342 8.279544e-40
0.64992225 0.21850204 0.070803337 4.6132988e-40
0.64992225 0.21850204 0.073303342 8.279544e-40
0.64742225 0.22100204 0.070803337 9.3629158e-41
0.64742225 0.22100204 0.073303342 1.8582339e-40
0.64742225 0.22350204 0.070803337 0
0.64992225 0.22100204 0.070803337 2.7658689e-40
0.64992225 0.22100204 0.073303342 8.279544e-40
0.64992225 0.22350204 0.070803337 0
0.64992225 0.22350204 0.073303342 6.4285128e-40
0.65242225 0.21600205 0.073303342 1.1963726e-39
0.65242225 0.21850204 0.070803337 1.0119841e-39
0.65242225 0.21850204 0.073303342 1.1963726e-39
0.65492225 0.21600205 0.073303342 1.1041783e-39
0.65492225 0.21850204 0.070803337 1.1960251e-39
0.65492225 0.21850204 0.073303342 1.4726133e-39
0.65242225 0.21600205 0.075803339 1.4726133e-39
0.65242225 0.21600205 0.078303337 1.472263e-39
0.65242225 0.21850204 0.075803339 1.6573507e-39
0.65242225 0.21850204 0.078303337 1.6570004e-39
0.65492225 0.21600205 0.075803339 1.2882207e-39
0.65492225 0.21600205 0.078303337 2.7658689e-40
0.65492225 0.21850204 0.075803339 1.6577025e-39
0.65492225 0.21850204 0.078303337 1.4726133e-39
0.65242225 0.22100204 0.070803337 8.279544e-40
0.65242225 0.22100204 0.073303342 1.0119841e-39
0.65242225 0.22350204 0.073303342 8.279544e-40
0.65492225 0.22100204 0.070803337 1.1041783e-39
0.65492225 0.22100204 0.073303342 1.1041783e-39
0.65492225 0.22350204 0.073303342 1.4733196e-39
0.65242225 0.22100204 0.075803339 6.4536941e-40
0.65242225 0.22350204 0.075803339 1.1963726e-39
0.65492225 0.22100204 0.075803339 1.3814785e-39
0.65492225 0.22100204 0.078303337 1.3811226e-39
0.65492225 0.22350204 0.075803339 1.7495464e-39
0.65742224 0.20850204 0.073303342 1.8367099e-40
0.65742224 0.21100205 0.073303342 7.3504691e-40
0.65742224 0.21350205 0.073303342 1.1960251e-39
0.65742224 0.21350205 0.075803339 0
0.65742224 0.21600205 0.073303342 1.3804163e-39
0.65742224 0.21850204 0.073303342 1.4726133e-39
0.65742224 0.21600205 0.075803339 0
0.65742224 0.21850204 0.075803339 7.3469798e-40
0.65742224 0.21850204 0.078303337 7.3504691e-40
0.65992224 0.21850204 0.075803339 2.7658689e-40
0.65742224 0.22100204 0.073303342 1.4726133e-39
0.65742224 0.22350204 0.073303342 1.3811226e-39
0.65992224 0.22100204 0.073303342 1.6566445e-39
0.65992224 0.22350204 0.073303342 1.2885682e-39
0.65742224 0.22100204 0.075803339 1.3811226e-39
0.65742224 0.22350204 0.075803339 1.3804163e-39
0.65992224 0.22100204 0.075803339 1.4726133e-39
0.65992224 0.22350204 0.075803339 1.3811226e-39
0.66242224 0.21850204 0.073303342 0
0.66242224 0.22100204 0.073303342 1.3811226e-39
0.66242224 0.22350204 0.073303342 1.2885682e-39
0.6649223 0.22350204 0.073303342 1.3804163e-39
0.66242224 0.22100204 0.075803339 1.2882207e-39
0.66242224 0.22350204 0.075803339 1.1960251e-39
0.64742225 0.22600205 0.058303338 1.105291e-39
0.64742225 0.22850205 0.058303338 1.0173987e-39
0.64742225 0.23100205 0.058303338 1.1522877e-41
0.64992225 0.23100205 0.058303338 1.821688e-44
0.64992225 0.23350205 0.058303338 3.5073646e-39
0.65242225 0.23600204 0.058303338 3.7846871e-39
0.65492225 0.23600204 0.058303338 0
0.65492225 0.23850204 0.058303338 2.8025969e-44
0.65492225 0.24100205 0.058303338 1.0048582e-38
0.65742224 0.24100205 0.058303338 9.9556665e-39
0.64742225 0.22600205 0.060803339 1.3775366e-39
0.64742225 0.22600205 0.063303337 6.4285968e-40
0.64742225 0.22850205 0.060803339 2.5265411e-42
0.64742225 0.22850205 0.063303337 8.2941034e-40
0.64742225 0.22600205 0.065803342 6.4285968e-40
0.64742225 0.22600205 0.068303339 8.2689361e-40
0.64742225 0.22850205 0.065803342 7.3504691e-40
0.64742225 0.22850205 0.068303339 8.279544e-40
0.64992225 0.22600205 0.065803342 8.279544e-40
0.64992225 0.22600205 0.068303339 2.7658689e-40
0.64992225 0.22850205 0.065803342 8.2724394e-40
0.64992225 0.22850205 0.068303339 4.6097815e-40
0.64742225 0.23100205 0.060803339 2.9552376e-39
0.64742225 0.23100205 0.063303337 0
0.64742225 0.23350205 0.060803339 2.9545201e-39
0.64992225 0.23350205 0.060803339 3.5873241e-43
0.64992225 0.23350205 0.063303337 1.0789998e-42
0.64992225 0.23100205 0.065803342 4.6026909e-40
0.64992225 0.23100205 0.068303339 8.2759987e-40
0.64992225 0.23350205 0.065803342 7.3721471e-40
0.64992225 0.23350205 0.068303339 1.0109247e-39
0.65242225 0.22850205 0.068303339 2.7730015e-40
0.65242225 0.23350205 0.060803339 1.0775985e-42
0.65242225 0.23350205 0.063303337 5.5317378e-40
0.65242225 0.23100205 0.065803342 3.7021184e-40
0.65242225 0.23100205 0.068303339 7.3576017e-40
0.65242225 0.23350205 0.065803342 4.6026909e-40
0.65242225 0.23350205 0.068303339 1.1038266e-39
0.65492225 0.23100205 0.068303339 1.8439126e-40
0.65492225 0.23350205 0.065803342 6.4607706e-40
0.65492225 0.23350205 0.068303339 8.2689361e-40
0.64992225 0.22600205 0.070803337 2.7658689e-40
0.65242225 0.22600205 0.070803337 7.3576017e-40
0.65242225 0.22600205 0.073303342 8.279544e-40
0.65242225 0.22850205 0.070803337 6.4320721e-40
0.65242225 0.22850205 0.073303342 5.5317378e-40
0.65492225 0.22600205 0.073303342 1.4733196e-39
0.65492225 0.22850205 0.070803337 8.279544e-40
0.65492225 0.22850205 0.073303342 1.1038294e-39
0.65242225 0.22600205 0.075803339 1.4733196e-39
0.65492225 0.22600205 0.075803339 1.7495464e-39
0.65242225 0.23100205 0.070803337 9.3629158e-41
0.65242225 0.23100205 0.073303342 7.3504691e-40
0.65242225 0.23350205 0.070803337 7.3469798e-40
0.65492225 0.23100205 0.070803337 2.7658689e-40
0.65492225 0.23100205 0.073303342 6.4536941e-40
0.65492225 0.23350205 0.070803337 1.0109247e-39
0.65492225 0.23350205 0.073303342 6.4536941e-40
0.64992225 0.23600204 0.063303337 0
0.64992225 0.23600204 0.068303339 1.8511433e-40
0.64992225 0.23850204 0.068303339 0
0.65242225 0.23600204 0.060803339 0
0.65242225 0.23600204 0.063303337 2.7658689e-40
0.65242225 0.23850204 0.060803339 1.0789998e-43
0.65242225 0.23850204 0.063303337 1.4012985e-45
0.65492225 0.23600204 0.060803339 8.2724394e-40
0.65492225 0.23600204 0.063303337 8.2976067e-40
0.65492225 0.23850204 0.060803339 0
0.65492225 0.23850204 0.063303337 0
0.65242225 0.23600204 0.065803342 1.2878704e-39
0.65242225 0.23600204 0.068303339 1.2882179e-39
0.65242225 0.23850204 0.065803342 0
0.65242225 0.23850204 0.068303339 0
0.65492225 0.23600204 0.065803342 1.2882179e-39
0.65492225 0.23600204 0.068303339 1.1031204e-39
0.65492225 0.23850204 0.065803342 1.8511433e-40
0.65492225 0.23850204 0.068303339 0
0.65242225 0.24100205 0.063303337 0
0.65492225 0.24100205 0.060803339 2.7765888e-40
0.65242225 0.24100205 0.068303339 1.391793e-38
0.65492225 0.24100205 0.065803342 0
0.65492225 0.24100205 0.068303339 0
0.65242225 0.23850204 0.070803337 0
0.65492225 0.23600204 0.070803337 1.0109247e-39
0.65492225 0.23600204 0.073303342 7.3470919e-40
0.65492225 0.23850204 0.070803337 0
0.65242225 0.24100205 0.070803337 1.4377101e-38
0.65742224 0.22600205 0.073303342 1.7495464e-39
0.65742224 0.22850205 0.073303342 9.2266255e-40
0.65992224 0.22600205 0.073303342 1.6573507e-39
0.65992224 0.22850205 0.073303342 1.7495464e-39
0.65992224 0.22600205 0.075803339 1.7495464e-39
0.65992224 0.22850205 0.075803339 1.7495464e-39
0.65742224 0.23100205 0.070803337 1.0119841e-39
0.65742224 0.23100205 0.073303342 1.2882179e-39
0.65742224 0.23350205 0.070803337 1.4715568e-39
0.65742224 0.23350205 0.073303342 1.2882179e-39
0.65992224 0.23100205 0.073303342 1.7495464e-39
0.65992224 0.23350205 0.073303342 1.6566445e-39
0.65742224 0.23100205 0.075803339 1.8410441e-39
0.65742224 0.23100205 0.078303337 9.4025726e-41
0.65742224 0.23350205 0.075803339 2.0254368e-39
0.65742224 0.23350205 0.078303337 0
0.65992224 0.23100205 0.075803339 1.1985432e-39
0.65992224 0.23100205 0.078303337 0
0.65992224 0.23350205 0.075803339 1.6562941e-39
0.65992224 0.23350205 0.078303337 0
0.66242224 0.22600205 0.073303342 1.6573507e-39
0.66242224 0.22850205 0.073303342 9.219563e-40
0.6649223 0.22600205 0.073303342 1.6566445e-39
0.6649223 0.22850205 0.073303342 1.4726133e-39
0.66242224 0.22600205 0.075803339 1.7495464e-39
0.66242224 0.22850205 0.075803339 1.6566445e-39
0.66242224 0.22850205 0.078303337 0
0.6649223 0.22600205 0.075803339 1.4733196e-39
0.6649223 0.22850205 0.075803339 8.2724394e-40
0.66242224 0.23100205 0.075803339 9.18397e-41
0.66242224 0.23100205 0.078303337 0
0.66242224 0.23350205 0.075803339 0
0.66242224 0.23350205 0.078303337 0
0.6649223 0.23100205 0.075803339 0
0.65742224 0.23850204 0.068303339 0
0.65742224 0.24100205 0.068303339 0
0.65742224 0.23600204 0.070803337 1.8370602e-40
0.65742224 0.23600204 0.073303342 5.6051939e-45
0.65742224 0.23850204 0.070803337 0
0.65742224 0.23850204 0.073303342 1.1938615e-39
0.65992224 0.23600204 0.073303342 0
0.65992224 0.23850204 0.070803337 9.0214026e-39
0.65992224 0.23850204 0.073303342 0
0.65742224 0.23600204 0.075803339 0
0.65992224 0.23600204 0.075803339 1.8367099e-40
0.65992224 0.23850204 0.075803339 4.5917748e-40
0.65742224 0.24100205 0.070803337 3.1303004e-39
0.65742224 0.24100205 0.073303342 8.8435554e-39
0.65992224 0.24100205 0.070803337 6.7248509e-39
0.65992224 0.24100205 0.073303342 1.3914668e-38
0.66242224 0.23850204 0.073303342 1.4747315e-38
0.66242224 0.23850204 0.075803339 6.8167159e-39
0.66242224 0.24100205 0.073303342 1.741667e-38
0.64992225 0.20600204 0.080803335 0
0.64992225 0.20850204 0.080803335 0
