# .PCD v0.7 - Point Cloud Data file format
VERSION 0.7
FIELDS x y z rgb
SIZE 4 4 4 4
TYPE F F F F
COUNT 1 1 1 1
WIDTH 454
HEIGHT 1
VIEWPOINT 0 0 0 1 0 0 0
POINTS 454
DATA ascii
0.63578957 0.20281996 0.05946685 1.8410441e-39
0.63828957 0.20031996 0.05946685 4.6026909e-40
0.63828957 0.20281996 0.05946685 1.7484898e-39
0.64078957 0.20031996 0.05946685 9.1845305e-41
0.64078957 0.20281996 0.056966852 1.6566445e-39
0.64078957 0.20281996 0.05946685 4.5992157e-40
0.64328957 0.20031996 0.056966852 1.9618179e-44
0.64328957 0.20031996 0.05946685 9.1835496e-41
0.63328958 0.20281996 0.061966851 1.8410441e-39
0.63328958 0.20281996 0.064466849 1.6566445e-39
0.63578957 0.19781996 0.069466852 5.6051939e-45
0.63828957 0.19781996 0.066966854 0
0.63828957 0.19781996 0.069466852 0
0.63578957 0.20031996 0.061966851 2.7623797e-40
0.63578957 0.20031996 0.064466849 8.2724394e-40
0.63578957 0.20281996 0.061966851 1.472263e-39
0.63578957 0.20281996 0.064466849 2.2994831e-39
0.63828957 0.20031996 0.061966851 7.3504691e-40
0.63828957 0.20031996 0.064466849 6.4285968e-40
0.63828957 0.20281996 0.061966851 1.1038294e-39
0.63828957 0.20281996 0.064466849 7.350441e-40
0.63578957 0.20031996 0.066966854 8.4077908e-45
0.63578957 0.20031996 0.069466852 7.0064923e-45
0.63578957 0.20281996 0.066966854 1.2882179e-39
0.63578957 0.20281996 0.069466852 1.3804163e-39
0.63828957 0.20031996 0.066966854 1.011631e-39
0.63828957 0.20031996 0.069466852 1.011631e-39
0.63828957 0.20281996 0.066966854 1.3804163e-39
0.63828957 0.20281996 0.069466852 1.1960251e-39
0.64078957 0.19781996 0.066966854 1.8367099e-40
0.64078957 0.19781996 0.069466852 1.4012985e-45
0.64328957 0.19781996 0.069466852 1.7495464e-39
0.64078957 0.20031996 0.061966851 1.836766e-40
0.64078957 0.20031996 0.064466849 5.6051939e-45
0.64328957 0.20031996 0.061966851 1.4012985e-45
0.64078957 0.20031996 0.066966854 1.4012985e-45
0.64078957 0.20031996 0.069466852 0
0.64078957 0.20281996 0.066966854 8.2724394e-40
0.64078957 0.20281996 0.069466852 1.1963726e-39
0.64328957 0.20031996 0.069466852 8.2831313e-40
0.63828957 0.19531997 0.074466854 2.2994831e-39
0.63828957 0.19781996 0.071966849 1.8367099e-40
0.63828957 0.19781996 0.074466854 8.279544e-40
0.63828957 0.20031996 0.071966849 1.1038294e-39
0.63828957 0.20031996 0.074466854 1.6573507e-39
0.64078957 0.19781996 0.071966849 0
0.64328957 0.19781996 0.071966849 2.0268395e-39
0.64078957 0.20031996 0.071966849 1.3804163e-39
0.64078957 0.20281996 0.071966849 1.4726133e-39
0.64328957 0.20031996 0.071966849 1.1041783e-39
0.64328957 0.20281996 0.071966849 1.7502554e-39
0.64578956 0.20281996 0.056966852 1.8367099e-40
0.64828956 0.20281996 0.056966852 0
0.65328956 0.19781996 0.056966852 0
0.65078956 0.20031996 0.056966852 0
0.65078956 0.20281996 0.056966852 0
0.65078956 0.20281996 0.05946685 0
0.65328956 0.20031996 0.056966852 1.4012985e-45
0.65328956 0.20031996 0.05946685 0
0.65328956 0.20281996 0.056966852 1.4012985e-45
0.65328956 0.20281996 0.05946685 0
0.65828955 0.19281997 0.056966852 9.0272208e-39
0.66078955 0.19031996 0.05946685 1.2989857e-38
0.66078955 0.19281997 0.056966852 6.6297588e-39
0.66078955 0.19281997 0.05946685 6.7205532e-39
0.65578955 0.19531997 0.056966852 4.785849e-39
0.65578955 0.19531997 0.05946685 1.041123e-38
0.65578955 0.19781996 0.056966852 8.2651947e-40
0.65828955 0.19531997 0.056966852 1.1148073e-38
0.65828955 0.19781996 0.056966852 8.9404369e-39
0.65828955 0.19781996 0.05946685 7.8304923e-39
0.65578955 0.20031996 0.056966852 0
0.65578955 0.20031996 0.05946685 0
0.65578955 0.20281996 0.056966852 0
0.65578955 0.20281996 0.05946685 1.4012985e-45
0.65828955 0.20031996 0.056966852 7.184425e-39
0.65828955 0.20031996 0.05946685 7.6457535e-39
0.65828955 0.20281996 0.056966852 1.6573507e-39
0.65828955 0.20281996 0.05946685 1.285704e-39
0.66078955 0.19531997 0.056966852 7.2783933e-39
0.66078955 0.19531997 0.05946685 5.6228446e-39
0.66078955 0.19781996 0.056966852 9.3978278e-39
0.66078955 0.19781996 0.05946685 9.6744048e-39
0.66328961 0.19781996 0.056966852 5.3455487e-39
0.66328961 0.19781996 0.05946685 6.4511339e-39
0.66078955 0.20031996 0.056966852 7.4652676e-39
0.66078955 0.20031996 0.05946685 7.3727441e-39
0.66078955 0.20281996 0.056966852 4.6072031e-39
0.66078955 0.20281996 0.05946685 2.7604613e-39
0.64578956 0.19531997 0.071966849 4.4231804e-39
0.64578956 0.19531997 0.074466854 2.9459217e-39
0.64578956 0.19781996 0.071966849 2.9459217e-39
0.64578956 0.19781996 0.074466854 3.0381174e-39
0.64828956 0.19531997 0.071966849 5.3444402e-39
0.64828956 0.19781996 0.071966849 2.9459217e-39
0.64578956 0.20031996 0.071966849 1.841742e-39
0.64578956 0.20031996 0.074466854 2.4871114e-39
0.64578956 0.20281996 0.071966849 1.7495464e-39
0.64578956 0.20281996 0.074466854 2.118689e-39
0.64828956 0.20031996 0.071966849 2.3949158e-39
0.64828956 0.20031996 0.074466854 3.037767e-39
0.64828956 0.20281996 0.071966849 2.118689e-39
0.64828956 0.20281996 0.074466854 2.6689859e-39
0.64578956 0.20031996 0.076966852 2.3030677e-39
0.64828956 0.20031996 0.076966852 1.4733196e-39
0.64828956 0.20281996 0.076966852 1.1041783e-39
0.65078956 0.20031996 0.074466854 2.3027201e-39
0.65078956 0.20281996 0.074466854 1.6534075e-39
0.65078956 0.20281996 0.076966852 1.1041783e-39
0.65578955 0.19281997 0.061966851 7.1858319e-39
0.65578955 0.19531997 0.061966851 9.398527e-39
0.65578955 0.19781996 0.061966851 8.0148863e-39
0.65828955 0.19531997 0.061966851 5.6231949e-39
0.65828955 0.19781996 0.061966851 6.454029e-39
0.65828955 0.20031996 0.061966851 4.5164872e-39
0.66078955 0.20031996 0.061966851 5.7125123e-39
0.63578957 0.20531996 0.05946685 3.2167899e-39
0.63578957 0.20781995 0.056966852 6.4753442e-40
0.63578957 0.20781995 0.05946685 8.2905722e-40
0.63578957 0.21031997 0.05946685 2.4885786e-39
0.63828957 0.21031997 0.05946685 1.8374484e-39
0.63828957 0.21281996 0.05946685 1.3775366e-39
0.63828957 0.21531996 0.05946685 7.3469798e-40
0.63828957 0.21781996 0.05946685 1.7531435e-39
0.64078957 0.21531996 0.056966852 1.8404094e-40
0.64078957 0.21531996 0.05946685 1.1049407e-39
0.64078957 0.21781996 0.05946685 6.4284847e-40
0.64328957 0.22031996 0.05946685 7.3469798e-40
0.64328957 0.22281995 0.05946685 6.4431283e-40
0.63328958 0.20531996 0.061966851 1.8410441e-39
0.63328958 0.20531996 0.064466849 1.1960251e-39
0.63328958 0.20781995 0.061966851 1.1031204e-39
0.63328958 0.21031997 0.061966851 1.5612203e-39
0.63578957 0.20531996 0.061966851 1.6573507e-39
0.63578957 0.20531996 0.064466849 2.4838744e-39
0.63578957 0.20781995 0.061966851 1.1031204e-39
0.63578957 0.20781995 0.064466849 4.6097815e-40
0.63828957 0.20781995 0.061966851 1.8582339e-40
0.63578957 0.20531996 0.066966854 1.2885682e-39
0.63578957 0.20531996 0.069466852 1.2882179e-39
0.63828957 0.20531996 0.066966854 1.1963726e-39
0.63828957 0.20531996 0.069466852 8.2976067e-40
0.63828957 0.20781995 0.066966854 7.3504691e-40
0.63828957 0.20781995 0.069466852 0
0.63578957 0.21031997 0.061966851 1.8381575e-39
0.63578957 0.21031997 0.064466849 9.1845305e-41
0.63578957 0.21281996 0.061966851 2.7589044e-40
0.63578957 0.21281996 0.064466849 8.2689361e-40
0.63828957 0.21031997 0.061966851 0
0.63828957 0.21031997 0.064466849 0
0.63828957 0.21281996 0.061966851 5.5282345e-40
0.63828957 0.21281996 0.064466849 2.7801762e-40
0.63828957 0.21031997 0.066966854 2.7658689e-40
0.63828957 0.21031997 0.069466852 2.7658689e-40
0.63828957 0.21281996 0.066966854 2.7658689e-40
0.64078957 0.20531996 0.069466852 1.1038294e-39
0.64078957 0.20781995 0.066966854 2.7730015e-40
0.64078957 0.20781995 0.069466852 0
0.64328957 0.20781995 0.069466852 6.4320721e-40
0.64078957 0.21031997 0.066966854 7.3504691e-40
0.64078957 0.21031997 0.069466852 7.3576017e-40
0.64078957 0.21281996 0.066966854 8.2689361e-40
0.64078957 0.21281996 0.069466852 8.279544e-40
0.64328957 0.21031997 0.069466852 4.5917748e-40
0.64328957 0.21281996 0.066966854 2.7730015e-40
0.64328957 0.21281996 0.069466852 7.3576017e-40
0.64328957 0.20531996 0.071966849 1.2882179e-39
0.64328957 0.20781995 0.071966849 4.5917748e-40
0.63578957 0.21531996 0.061966851 1.2893291e-39
0.63828957 0.21531996 0.061966851 8.2689361e-40
0.63828957 0.21531996 0.064466849 6.4285968e-40
0.63828957 0.21781996 0.061966851 7.350441e-40
0.64078957 0.21531996 0.061966851 2.7623797e-40
0.64078957 0.21781996 0.061966851 1.9618179e-44
0.64078957 0.21781996 0.064466849 7.0064923e-45
0.64328957 0.21781996 0.061966851 2.5153307e-42
0.64328957 0.21781996 0.064466849 5.5317378e-40
0.64078957 0.21531996 0.066966854 6.4320721e-40
0.64078957 0.21531996 0.069466852 4.6097815e-40
0.64328957 0.21531996 0.066966854 2.7730015e-40
0.64328957 0.21531996 0.069466852 7.1746481e-43
0.64328957 0.21781996 0.066966854 4.6097815e-40
0.64328957 0.21781996 0.069466852 2.7730015e-40
0.64078957 0.22031996 0.061966851 6.4396251e-40
0.64328957 0.22031996 0.061966851 1.1031204e-39
0.64328957 0.22031996 0.064466849 2.7658689e-40
0.64328957 0.22281995 0.061966851 6.4396251e-40
0.64328957 0.22281995 0.064466849 8.2689361e-40
0.64578956 0.22031996 0.056966852 1.7463094e-39
0.64578956 0.22281995 0.056966852 1.1031204e-39
0.64578956 0.21031997 0.069466852 8.279544e-40
0.64578956 0.21281996 0.069466852 8.279544e-40
0.64578956 0.20531996 0.071966849 1.3811226e-39
0.64578956 0.20531996 0.074466854 1.2885682e-39
0.64578956 0.20781995 0.071966849 1.1963726e-39
0.64828956 0.20531996 0.071966849 1.3811226e-39
0.64828956 0.20531996 0.074466854 1.4733196e-39
0.64828956 0.20781995 0.071966849 1.1963726e-39
0.64828956 0.20781995 0.074466854 1.2885682e-39
0.64578956 0.21031997 0.071966849 7.3576017e-40
0.64578956 0.21281996 0.071966849 2.7730015e-40
0.64828956 0.21031997 0.071966849 1.1963726e-39
0.64828956 0.21031997 0.074466854 1.3811226e-39
0.64828956 0.21281996 0.071966849 1.0119841e-39
0.65078956 0.20531996 0.074466854 1.3811226e-39
0.65078956 0.20781995 0.074466854 1.3811226e-39
0.65328956 0.20531996 0.074466854 1.2882179e-39
0.65328956 0.20781995 0.074466854 0
0.65078956 0.20531996 0.076966852 1.1045371e-39
0.65078956 0.20781995 0.076966852 1.2885682e-39
0.65078956 0.20781995 0.07946685 1.8367099e-40
0.65078956 0.21031997 0.071966849 1.3804163e-39
0.65078956 0.21031997 0.074466854 1.1041783e-39
0.65078956 0.21281996 0.071966849 1.1960251e-39
0.65078956 0.21281996 0.074466854 1.2882207e-39
0.65328956 0.21031997 0.074466854 1.4726133e-39
0.65328956 0.21281996 0.071966849 1.6573507e-39
0.65328956 0.21281996 0.074466854 1.4733196e-39
0.65078956 0.21031997 0.076966852 4.5917748e-40
0.65078956 0.21031997 0.07946685 7.3504691e-40
0.65078956 0.21281996 0.076966852 1.2885682e-39
0.65328956 0.21031997 0.076966852 6.4286249e-40
0.65328956 0.21281996 0.076966852 6.4679453e-40
0.65328956 0.21281996 0.07946685 0
0.64578956 0.21531996 0.066966854 4.5917748e-40
0.64578956 0.21531996 0.069466852 1.8367099e-40
0.64578956 0.21781996 0.066966854 0
0.64578956 0.21781996 0.069466852 7.1746481e-43
0.64828956 0.21531996 0.069466852 7.1746481e-43
0.64828956 0.21781996 0.069466852 0
0.64578956 0.22031996 0.061966851 5.5282345e-40
0.64578956 0.22281995 0.061966851 6.4536941e-40
0.64578956 0.22281995 0.064466849 0
0.64578956 0.22031996 0.066966854 4.6097815e-40
0.64578956 0.22031996 0.069466852 7.3576017e-40
0.64578956 0.22281995 0.066966854 1.8439126e-40
0.64578956 0.22281995 0.069466852 2.7730015e-40
0.64828956 0.22031996 0.069466852 9.3629158e-41
0.64828956 0.22281995 0.066966854 2.7658689e-40
0.64828956 0.22281995 0.069466852 4.5917748e-40
0.65078956 0.22281995 0.069466852 3.6734899e-40
0.64828956 0.21531996 0.071966849 2.7801762e-40
0.64828956 0.21531996 0.074466854 1.1963726e-39
0.64828956 0.21781996 0.071966849 7.3576017e-40
0.64828956 0.21781996 0.074466854 1.0119841e-39
0.64828956 0.22031996 0.071966849 7.1746481e-43
0.64828956 0.22031996 0.074466854 8.279544e-40
0.64828956 0.22281995 0.071966849 3.6734198e-40
0.65078956 0.21531996 0.071966849 1.1041783e-39
0.65078956 0.21531996 0.074466854 1.1041783e-39
0.65078956 0.21781996 0.071966849 1.1038294e-39
0.65078956 0.21781996 0.074466854 1.011631e-39
0.65328956 0.21531996 0.071966849 1.3811226e-39
0.65328956 0.21531996 0.074466854 1.1963726e-39
0.65328956 0.21781996 0.071966849 1.1960251e-39
0.65328956 0.21781996 0.074466854 1.2882179e-39
0.65078956 0.21781996 0.076966852 1.2885682e-39
0.65328956 0.21531996 0.076966852 1.2882207e-39
0.65328956 0.21531996 0.07946685 4.6097815e-40
0.65328956 0.21781996 0.076966852 1.4726133e-39
0.65328956 0.21781996 0.07946685 1.3811226e-39
0.65078956 0.22031996 0.071966849 7.3504691e-40
0.65078956 0.22031996 0.074466854 8.2724394e-40
0.65078956 0.22281995 0.071966849 7.3576017e-40
0.65078956 0.22281995 0.074466854 7.3504691e-40
0.65328956 0.22031996 0.071966849 1.1038294e-39
0.65328956 0.22031996 0.074466854 1.1031204e-39
0.65328956 0.22281995 0.071966849 1.0119841e-39
0.65328956 0.22281995 0.074466854 1.1038294e-39
0.65078956 0.22031996 0.076966852 1.2885682e-39
0.65328956 0.22031996 0.076966852 1.3811226e-39
0.65578955 0.21281996 0.071966849 1.4733196e-39
0.65578955 0.21281996 0.074466854 8.2941034e-40
0.65828955 0.21281996 0.074466854 4.6097815e-40
0.65578955 0.21031997 0.076966852 0
0.65578955 0.21281996 0.076966852 0
0.65578955 0.21531996 0.071966849 1.1963726e-39
0.65578955 0.21531996 0.074466854 1.3804163e-39
0.65578955 0.21781996 0.071966849 1.1960251e-39
0.65578955 0.21781996 0.074466854 1.6566445e-39
0.65828955 0.21531996 0.074466854 1.1960251e-39
0.65828955 0.21781996 0.074466854 1.4726133e-39
0.65578955 0.21531996 0.076966852 1.2882207e-39
0.65578955 0.21781996 0.076966852 1.3804163e-39
0.65578955 0.21781996 0.07946685 1.1960251e-39
0.65828955 0.21781996 0.076966852 1.1038266e-39
0.65578955 0.22031996 0.071966849 1.1963726e-39
0.65578955 0.22031996 0.074466854 1.2882179e-39
0.65578955 0.22281995 0.074466854 1.1038266e-39
0.65828955 0.22031996 0.071966849 1.7495464e-39
0.65828955 0.22031996 0.074466854 1.4733196e-39
0.65828955 0.22281995 0.071966849 1.4733196e-39
0.65828955 0.22281995 0.074466854 1.3811226e-39
0.65578955 0.22031996 0.076966852 1.3811226e-39
0.65578955 0.22031996 0.07946685 5.5424157e-40
0.65578955 0.22281995 0.076966852 1.3811226e-39
0.65828955 0.22031996 0.076966852 8.279544e-40
0.65828955 0.22281995 0.076966852 1.6573507e-39
0.66078955 0.21781996 0.074466854 2.7658689e-40
0.66078955 0.21781996 0.076966852 3.6734899e-40
0.66078955 0.22031996 0.074466854 1.4733196e-39
0.66078955 0.22281995 0.074466854 1.3811226e-39
0.66328961 0.22031996 0.074466854 8.2831313e-40
0.66328961 0.22281995 0.074466854 8.2831313e-40
0.66078955 0.22031996 0.076966852 1.0123429e-39
0.66078955 0.22281995 0.076966852 8.2831313e-40
0.64578956 0.22531997 0.056966852 1.1059944e-39
0.64578956 0.22531997 0.05946685 7.3650846e-40
0.64578956 0.22781996 0.05946685 2.1804204e-42
0.64828956 0.22781996 0.056966852 8.3446203e-40
0.64578956 0.23031996 0.05946685 1.1179559e-41
0.64828956 0.23031996 0.056966852 1.1897024e-41
0.64828956 0.23031996 0.05946685 1.224875e-41
0.64828956 0.23281996 0.05946685 3.0474318e-39
0.65078956 0.23281996 0.05946685 2.5861019e-39
0.65078956 0.23531996 0.056966852 3.9679896e-39
0.65078956 0.23531996 0.05946685 0
0.65328956 0.23531996 0.05946685 0
0.65328956 0.23781995 0.056966852 0
0.65328956 0.23781995 0.05946685 1.0369609e-43
0.65328956 0.24031997 0.05946685 7.3105741e-42
0.65578955 0.23781995 0.05946685 1.1490647e-43
0.65578955 0.24031997 0.05946685 4.0903902e-42
0.65578955 0.24281996 0.056966852 9.4028626e-39
0.65828955 0.24281996 0.05946685 0
0.64578956 0.22531997 0.061966851 1.4693834e-39
0.64578956 0.22531997 0.064466849 0
0.64578956 0.22781996 0.061966851 3.7097275e-40
0.64578956 0.22781996 0.064466849 4.6100057e-40
0.64828956 0.22531997 0.061966851 2.7658689e-40
0.64828956 0.22531997 0.064466849 2.7658689e-40
0.64828956 0.22781996 0.061966851 6.4501908e-40
0.64828956 0.22781996 0.064466849 7.350441e-40
0.64828956 0.22531997 0.066966854 8.2724394e-40
0.64828956 0.22531997 0.069466852 7.3504691e-40
0.64828956 0.22781996 0.066966854 8.2724394e-40
0.64828956 0.22781996 0.069466852 7.3576017e-40
0.64578956 0.23031996 0.061966851 9.7216482e-41
0.64578956 0.23031996 0.064466849 1.8404094e-40
0.64578956 0.23281996 0.061966851 3.2300644e-39
0.64828956 0.23031996 0.061966851 4.6097815e-40
0.64828956 0.23031996 0.064466849 2.7554292e-40
0.64828956 0.23281996 0.061966851 0
0.64828956 0.23281996 0.064466849 2.7554292e-40
0.64828956 0.23031996 0.066966854 4.6026909e-40
0.65078956 0.22531997 0.069466852 4.5917748e-40
0.65078956 0.22781996 0.066966854 1.0119841e-39
0.65078956 0.22781996 0.069466852 7.3576017e-40
0.65328956 0.22781996 0.069466852 1.8582339e-40
0.65078956 0.23281996 0.061966851 3.5873241e-43
0.65078956 0.23281996 0.064466849 5.5282345e-40
0.65078956 0.23031996 0.066966854 1.0112751e-39
0.65078956 0.23031996 0.069466852 4.6097815e-40
0.65078956 0.23281996 0.066966854 8.2724394e-40
0.65078956 0.23281996 0.069466852 5.5317378e-40
0.65328956 0.23031996 0.069466852 2.7658689e-40
0.65328956 0.23281996 0.066966854 1.0109247e-39
0.65328956 0.23281996 0.069466852 2.7658689e-40
0.65078956 0.22531997 0.071966849 6.4286249e-40
0.65078956 0.22531997 0.074466854 5.5317378e-40
0.65078956 0.22781996 0.071966849 7.350441e-40
0.65078956 0.22781996 0.074466854 8.2724394e-40
0.65328956 0.22531997 0.071966849 2.7658689e-40
0.65328956 0.22531997 0.074466854 1.1038294e-39
0.65328956 0.22781996 0.071966849 8.2831313e-40
0.65328956 0.22781996 0.074466854 1.1041783e-39
0.65328956 0.23031996 0.071966849 1.8404094e-40
0.65328956 0.23281996 0.071966849 9.1845305e-41
0.65078956 0.23531996 0.061966851 3.5873241e-43
0.65078956 0.23531996 0.064466849 6.4501908e-40
0.65078956 0.23781995 0.061966851 1.0369609e-43
0.65078956 0.23781995 0.064466849 5.6051939e-45
0.65328956 0.23531996 0.061966851 1.1038294e-39
0.65328956 0.23531996 0.064466849 5.5282345e-40
0.65328956 0.23781995 0.061966851 0
0.65328956 0.23781995 0.064466849 0
0.65078956 0.23531996 0.066966854 5.5317378e-40
0.65078956 0.23531996 0.069466852 8.3048234e-40
0.65078956 0.23781995 0.066966854 0
0.65078956 0.23781995 0.069466852 0
0.65328956 0.23531996 0.066966854 1.8511433e-40
0.65328956 0.23531996 0.069466852 1.1031204e-39
0.65328956 0.23781995 0.066966854 0
0.65328956 0.23781995 0.069466852 0
0.65328956 0.24031997 0.061966851 0
0.65328956 0.24031997 0.064466849 0
0.65078956 0.24031997 0.069466852 1.3917925e-38
0.65328956 0.24031997 0.066966854 0
0.65328956 0.24031997 0.069466852 0
0.65578955 0.22531997 0.074466854 1.3804163e-39
0.65578955 0.22781996 0.074466854 1.3811226e-39
0.65828955 0.22531997 0.074466854 1.4733196e-39
0.65828955 0.22781996 0.074466854 1.6573507e-39
0.65578955 0.22531997 0.076966852 1.3811226e-39
0.65828955 0.22531997 0.076966852 1.7491988e-39
0.65828955 0.22781996 0.076966852 1.6566445e-39
0.65578955 0.23031996 0.071966849 2.7658689e-40
0.65578955 0.23031996 0.074466854 1.2885682e-39
0.65578955 0.23281996 0.071966849 4.6097815e-40
0.65578955 0.23281996 0.074466854 1.3804163e-39
0.65828955 0.23031996 0.071966849 8.279544e-40
0.65828955 0.23031996 0.074466854 1.6573507e-39
0.65828955 0.23281996 0.071966849 1.4726133e-39
0.65828955 0.23281996 0.074466854 1.6566445e-39
0.65828955 0.23031996 0.076966852 1.0159862e-39
0.65828955 0.23031996 0.07946685 0
0.65828955 0.23281996 0.076966852 7.3468397e-40
0.65828955 0.23281996 0.07946685 0
0.66078955 0.22531997 0.074466854 1.4733196e-39
0.66078955 0.22781996 0.074466854 1.3811226e-39
0.66328961 0.22531997 0.074466854 1.7495464e-39
0.66328961 0.22781996 0.074466854 1.7495464e-39
0.66078955 0.22531997 0.076966852 1.7495464e-39
0.66078955 0.22781996 0.076966852 1.6573507e-39
0.66328961 0.22531997 0.076966852 1.2856969e-39
0.66328961 0.22781996 0.076966852 7.3576017e-40
0.66078955 0.23031996 0.074466854 1.2907388e-39
0.66078955 0.23281996 0.074466854 1.6562941e-39
0.66328961 0.23031996 0.074466854 1.7495464e-39
0.66078955 0.23031996 0.076966852 2.0257829e-39
0.66078955 0.23031996 0.07946685 0
0.66078955 0.23281996 0.076966852 0
0.66078955 0.23281996 0.07946685 0
0.66328961 0.23031996 0.076966852 0
0.66328961 0.23281996 0.076966852 0
0.65578955 0.23531996 0.066966854 1.011631e-39
0.65578955 0.23531996 0.069466852 1.0109247e-39
0.65578955 0.23781995 0.066966854 4.6097815e-40
0.65578955 0.23781995 0.069466852 0
0.65828955 0.23781995 0.069466852 0
0.65578955 0.24031997 0.061966851 1.8367099e-40
0.65578955 0.24031997 0.066966854 0
0.65578955 0.24031997 0.069466852 0
0.65828955 0.24031997 0.069466852 0
0.65578955 0.23531996 0.071966849 4.5992157e-40
0.65578955 0.23531996 0.074466854 0
0.65578955 0.23781995 0.071966849 0
0.65828955 0.23531996 0.071966849 2.7554292e-40
0.65828955 0.23531996 0.074466854 1.1063476e-39
0.65828955 0.23781995 0.071966849 0
0.65828955 0.23781995 0.074466854 0
0.65828955 0.23531996 0.076966852 0
0.65578955 0.24031997 0.071966849 3.1310192e-39
0.65828955 0.24031997 0.071966849 7.0936335e-39
0.65828955 0.24031997 0.074466854 1.3914315e-38
0.66078955 0.23531996 0.074466854 1.2856969e-39
0.66078955 0.23781995 0.071966849 1.2856969e-39
0.66078955 0.23781995 0.074466854 1.8367099e-40
0.66078955 0.23531996 0.076966852 0
0.66078955 0.23781995 0.076966852 6.9099681e-39
0.66078955 0.24031997 0.071966849 8.5604314e-39
0.66078955 0.24031997 0.074466854 1.4379609e-38
0.66328961 0.24031997 0.074466854 1.594514e-38
0.6657896 0.22781996 0.074466854 1.4729693e-39
