# .PCD v0.7 - Point Cloud Data file format
VERSION 0.7
FIELDS x y z rgb
SIZE 4 4 4 4
TYPE F F F F
COUNT 1 1 1 1
WIDTH 487
HEIGHT 1
VIEWPOINT 0 0 0 1 0 0 0
POINTS 487
DATA ascii
0.57190722 -0.07728406 0.072340362 3.2264393e-39
0.57190722 -0.072284058 0.059840363 1.1985432e-39
0.57190722 -0.06978406 0.057340365 8.2831313e-40
0.57190722 -0.06978406 0.059840363 2.3020139e-39
0.57190722 -0.067284063 0.057340365 3.0370608e-39
0.57190722 -0.067284063 0.059840363 2.3945682e-39
0.57190722 -0.064784065 0.057340365 1.9332398e-39
0.57190722 -0.06228406 0.057340365 2.0254368e-39
0.56690723 -0.074784063 0.069840364 2.9502251e-39
0.56690723 -0.072284058 0.069840364 3.8679005e-39
0.56940722 -0.074784063 0.064840361 4.1448377e-39
0.56940722 -0.072284058 0.064840361 3.2239786e-39
0.57190722 -0.072284058 0.064840361 2.9484623e-39
0.56940722 -0.074784063 0.067340367 4.4217735e-39
0.56940722 -0.074784063 0.069840364 1.6577025e-39
0.56940722 -0.072284058 0.067340367 3.6863861e-39
0.56940722 -0.072284058 0.069840364 3.5016417e-39
0.56940722 -0.06978406 0.064840361 3.3150742e-39
0.57190722 -0.06978406 0.064840361 3.6831364e-39
0.57190722 -0.067284063 0.064840361 2.9452001e-39
0.56940722 -0.06978406 0.067340367 2.9448652e-39
0.56940722 -0.06978406 0.069840364 3.4998242e-39
0.56940722 -0.067284063 0.067340367 2.6711551e-39
0.56940722 -0.067284063 0.069840364 3.4980263e-39
0.57190722 -0.06978406 0.067340367 3.3143553e-39
0.57190722 -0.06978406 0.069840364 3.4998242e-39
0.57190722 -0.067284063 0.067340367 2.3945682e-39
0.57190722 -0.067284063 0.069840364 3.4980263e-39
0.56690723 -0.074784063 0.072340362 2.0271968e-39
0.56690723 -0.072284058 0.072340362 2.9459442e-39
0.56690723 -0.06978406 0.072340362 3.868248e-39
0.56940722 -0.074784063 0.072340362 1.3829344e-39
0.56940722 -0.074784063 0.074840367 2.8698593e-42
0.56940722 -0.072284058 0.072340362 2.4853163e-39
0.56940722 -0.072284058 0.074840367 2.4856667e-39
0.57190722 -0.074784063 0.072340362 2.3981388e-39
0.57190722 -0.074784063 0.074840367 3.4990955e-39
0.57190722 -0.072284058 0.072340362 3.1310361e-39
0.57190722 -0.072284058 0.074840367 3.5938373e-39
0.56940722 -0.06978406 0.072340362 4.4192539e-39
0.56940722 -0.06978406 0.074840367 4.6961996e-39
0.56940722 -0.067284063 0.072340362 3.4987452e-39
0.57190722 -0.06978406 0.072340362 4.4192539e-39
0.57190722 -0.06978406 0.074840367 4.052642e-39
0.57190722 -0.067284063 0.072340362 4.0508302e-39
0.57190722 -0.067284063 0.074840367 4.1430258e-39
0.56940722 -0.064784065 0.069840364 1.7502554e-39
0.57190722 -0.064784065 0.069840364 1.6573507e-39
0.57190722 -0.06228406 0.069840364 2.1150919e-39
0.56940722 -0.064784065 0.072340362 2.0268395e-39
0.56940722 -0.06228406 0.072340362 2.2065813e-39
0.57190722 -0.064784065 0.072340362 3.3132749e-39
0.57190722 -0.064784065 0.074840367 3.7731657e-39
0.57190722 -0.06228406 0.072340362 2.667558e-39
0.57190722 -0.06228406 0.074840367 3.4973075e-39
0.57190722 -0.059784062 0.072340362 1.8402972e-39
0.57190722 -0.057284061 0.074840367 3.7757048e-39
0.57190722 -0.05478406 0.074840367 3.5913136e-39
0.57690722 -0.07728406 0.064840361 6.3550973e-39
0.57440722 -0.07728406 0.069840364 2.9502251e-39
0.57690722 -0.07728406 0.069840364 2.1190365e-39
0.57940722 -0.07728406 0.064840361 4.6054655e-39
0.57940722 -0.07728406 0.067340367 3.2264547e-39
0.57940722 -0.07728406 0.069840364 1.6566445e-39
0.58190721 -0.079784058 0.069840364 3.1292228e-39
0.58190721 -0.07728406 0.069840364 9.5082305e-41
0.57440722 -0.07728406 0.072340362 2.7647549e-39
0.57690722 -0.07728406 0.072340362 6.3589803e-39
0.57940722 -0.07728406 0.072340362 3.2369995e-42
0.58190721 -0.079784058 0.072340362 4.2244356e-39
0.58190721 -0.07728406 0.072340362 1.3829344e-39
0.58440721 -0.07728406 0.069840364 0
0.58940721 -0.082284063 0.069840364 5.6051939e-45
0.58940721 -0.079784058 0.069840364 1.8020698e-42
0.5919072 -0.079784058 0.069840364 2.9459442e-39
0.58690721 -0.082284063 0.074840367 0
0.58440721 -0.079784058 0.072340362 1.8104776e-42
0.58440721 -0.079784058 0.074840367 2.8025969e-45
0.58440721 -0.07728406 0.072340362 6.4357014e-40
0.58440721 -0.07728406 0.074840367 1.8395966e-39
0.58690721 -0.079784058 0.072340362 8.4077908e-45
0.58690721 -0.079784058 0.074840367 2.9473833e-39
0.58690721 -0.07728406 0.072340362 1.5630097e-39
0.58690721 -0.07728406 0.074840367 3.1306857e-39
0.58940721 -0.079784058 0.072340362 3.4976704e-39
0.58940721 -0.07728406 0.072340362 4.3277898e-39
0.5919072 -0.079784058 0.072340362 3.7753517e-39
0.5919072 -0.07728406 0.072340362 4.052642e-39
0.57440722 -0.072284058 0.059840363 1.6573507e-39
0.57690722 -0.072284058 0.059840363 3.4998242e-39
0.57440722 -0.06978406 0.057340365 2.026506e-39
0.57440722 -0.06978406 0.059840363 2.9448652e-39
0.57440722 -0.067284063 0.057340365 2.7640584e-39
0.57440722 -0.067284063 0.059840363 2.1190365e-39
0.57690722 -0.06978406 0.057340365 3.3140078e-39
0.57690722 -0.06978406 0.059840363 3.4987452e-39
0.57690722 -0.067284063 0.057340365 1.2892843e-39
0.57690722 -0.067284063 0.059840363 2.8526569e-39
0.57940722 -0.067284063 0.059840363 2.3945682e-39
0.58190721 -0.067284063 0.057340365 2.2994831e-39
0.57440722 -0.064784065 0.057340365 1.8413945e-39
0.57440722 -0.064784065 0.059840363 1.6566445e-39
0.57690722 -0.064784065 0.057340365 1.3811226e-39
0.57690722 -0.064784065 0.059840363 1.6573507e-39
0.57940722 -0.064784065 0.059840363 1.7495464e-39
0.57940722 -0.06228406 0.059840363 1.7491988e-39
0.58190721 -0.064784065 0.057340365 1.7495464e-39
0.58190721 -0.064784065 0.059840363 1.3814785e-39
0.58190721 -0.06228406 0.057340365 7.3756504e-40
0.58940721 -0.06228406 0.057340365 2.4835269e-39
0.58940721 -0.059784062 0.057340365 2.2080064e-39
0.58940721 -0.057284061 0.057340365 4.1455467e-39
0.57440722 -0.072284058 0.062340364 2.3027201e-39
0.57690722 -0.074784063 0.064840361 4.7016268e-39
0.57690722 -0.072284058 0.062340364 3.6863861e-39
0.57440722 -0.074784063 0.069840364 1.1066951e-39
0.57440722 -0.072284058 0.069840364 2.3005747e-39
0.57690722 -0.074784063 0.069840364 1.5662341e-39
0.57690722 -0.072284058 0.069840364 2.2108973e-39
0.57440722 -0.06978406 0.062340364 3.3143553e-39
0.57440722 -0.067284063 0.062340364 2.4845806e-39
0.57440722 -0.067284063 0.064840361 2.1143856e-39
0.57690722 -0.06978406 0.062340364 3.7749846e-39
0.57940722 -0.074784063 0.064840361 1.1099447e-39
0.57940722 -0.074784063 0.067340367 1.6587801e-39
0.57940722 -0.074784063 0.069840364 3.2253953e-39
0.57940722 -0.072284058 0.067340367 2.9484623e-39
0.57940722 -0.072284058 0.069840364 3.8682508e-39
0.58190721 -0.074784063 0.069840364 2.0268563e-39
0.58190721 -0.072284058 0.069840364 4.3277898e-39
0.57440722 -0.074784063 0.072340362 1.5687522e-39
0.57440722 -0.072284058 0.072340362 3.2228814e-39
0.57440722 -0.072284058 0.074840367 3.7760551e-39
0.57690722 -0.074784063 0.072340362 2.392748e-39
0.57690722 -0.072284058 0.072340362 3.8682508e-39
0.57440722 -0.06978406 0.072340362 4.3263521e-39
0.57440722 -0.06978406 0.074840367 3.7760551e-39
0.57440722 -0.067284063 0.072340362 4.0508302e-39
0.57440722 -0.067284063 0.074840367 4.0511945e-39
0.57690722 -0.06978406 0.072340362 3.4983738e-39
0.57690722 -0.067284063 0.072340362 3.4069223e-39
0.57690722 -0.067284063 0.074840367 3.8679005e-39
0.57440722 -0.067284063 0.077340364 4.4199854e-39
0.57690722 -0.067284063 0.077340364 2.759755e-39
0.57940722 -0.074784063 0.072340362 2.0239879e-39
0.57940722 -0.072284058 0.072340362 4.6040166e-39
0.57940722 -0.072284058 0.074840367 3.3140078e-39
0.58190721 -0.074784063 0.072340362 3.2246947e-39
0.58190721 -0.074784063 0.074840367 3.4991179e-39
0.58190721 -0.072284058 0.072340362 4.0522917e-39
0.58190721 -0.072284058 0.074840367 3.2218122e-39
0.57940722 -0.06978406 0.072340362 3.3139812e-39
0.57940722 -0.06978406 0.074840367 2.7651108e-39
0.57940722 -0.067284063 0.072340362 2.026506e-39
0.57940722 -0.067284063 0.074840367 2.7615529e-39
0.58190721 -0.06978406 0.072340362 3.1331871e-39
0.58190721 -0.06978406 0.074840367 2.6722089e-39
0.58190721 -0.067284063 0.072340362 2.1176324e-39
0.58190721 -0.067284063 0.074840367 2.0257857e-39
0.57940722 -0.067284063 0.077340364 3.4051104e-39
0.57690722 -0.064784065 0.062340364 1.7495464e-39
0.57440722 -0.059784062 0.069840364 2.3916914e-39
0.57690722 -0.059784062 0.069840364 3.7760551e-39
0.57690722 -0.057284061 0.069840364 4.1426895e-39
0.57440722 -0.064784065 0.072340362 3.3150644e-39
0.57440722 -0.064784065 0.074840367 5.3401593e-39
0.57440722 -0.06228406 0.072340362 3.4051104e-39
0.57440722 -0.06228406 0.074840367 3.9586345e-39
0.57690722 -0.064784065 0.074840367 4.7869869e-39
0.57690722 -0.06228406 0.074840367 4.6043669e-39
0.57440722 -0.064784065 0.077340364 4.9717467e-39
0.57440722 -0.06228406 0.077340364 5.0657052e-39
0.57690722 -0.064784065 0.077340364 3.4962509e-39
0.57690722 -0.064784065 0.079840362 3.6806323e-39
0.57690722 -0.06228406 0.077340364 4.0504742e-39
0.57690722 -0.06228406 0.079840362 3.3139812e-39
0.57440722 -0.059784062 0.072340362 2.5778595e-39
0.57440722 -0.059784062 0.074840367 3.4994683e-39
0.57440722 -0.057284061 0.074840367 3.5920226e-39
0.57690722 -0.059784062 0.072340362 2.9466532e-39
0.57690722 -0.059784062 0.074840367 4.6958436e-39
0.57690722 -0.057284061 0.072340362 3.7757048e-39
0.57690722 -0.057284061 0.074840367 3.959743e-39
0.57440722 -0.059784062 0.077340364 4.603648e-39
0.57440722 -0.057284061 0.077340364 3.9600961e-39
0.57690722 -0.059784062 0.077340364 6.167378e-39
0.57690722 -0.057284061 0.077340364 4.0555105e-39
0.57940722 -0.064784065 0.074840367 4.3252983e-39
0.57940722 -0.06228406 0.074840367 4.6925996e-39
0.58190721 -0.064784065 0.072340362 3.4037021e-39
0.58190721 -0.064784065 0.074840367 2.4835381e-39
0.58190721 -0.06228406 0.074840367 3.8682508e-39
0.57940722 -0.064784065 0.077340364 3.1289061e-39
0.57940722 -0.06228406 0.077340364 3.4987172e-39
0.57940722 -0.059784062 0.074840367 5.5266833e-39
0.57940722 -0.057284061 0.074840367 4.1444873e-39
0.58190721 -0.059784062 0.074840367 4.978564e-39
0.58190721 -0.057284061 0.074840367 2.947033e-39
0.57940722 -0.059784062 0.077340364 5.7121634e-39
0.57940722 -0.057284061 0.077340364 3.869348e-39
0.58190721 -0.059784062 0.077340364 3.0403132e-39
0.58190721 -0.057284061 0.077340364 2.2126951e-39
0.58440721 -0.074784063 0.072340362 3.8679005e-39
0.58440721 -0.074784063 0.074840367 4.1444873e-39
0.58440721 -0.072284058 0.072340362 3.5920198e-39
0.58440721 -0.072284058 0.074840367 3.130313e-39
0.58690721 -0.074784063 0.072340362 3.5913136e-39
0.58690721 -0.074784063 0.074840367 3.4991179e-39
0.58690721 -0.072284058 0.072340362 2.6722089e-39
0.58690721 -0.072284058 0.074840367 3.4061768e-39
0.58440721 -0.06978406 0.072340362 2.9491685e-39
0.58440721 -0.06978406 0.074840367 2.9484623e-39
0.58440721 -0.067284063 0.072340362 2.947033e-39
0.58440721 -0.067284063 0.074840367 4.6076305e-39
0.58690721 -0.06978406 0.072340362 3.2228814e-39
0.58690721 -0.06978406 0.074840367 2.6722257e-39
0.58690721 -0.067284063 0.072340362 4.2392067e-39
0.58690721 -0.067284063 0.074840367 5.2504818e-39
0.58940721 -0.074784063 0.072340362 3.9579283e-39
0.58940721 -0.072284058 0.072340362 3.2228646e-39
0.58940721 -0.072284058 0.074840367 3.4973075e-39
0.5919072 -0.074784063 0.072340362 3.4991179e-39
0.5919072 -0.074784063 0.074840367 3.4998242e-39
0.5919072 -0.072284058 0.072340362 3.3150644e-39
0.5919072 -0.072284058 0.074840367 3.9586471e-39
0.58940721 -0.06978406 0.072340362 2.9441463e-39
0.58940721 -0.06978406 0.074840367 3.3136575e-39
0.58940721 -0.067284063 0.072340362 3.2218276e-39
0.58940721 -0.067284063 0.074840367 3.2221779e-39
0.5919072 -0.06978406 0.072340362 3.5902346e-39
0.5919072 -0.06978406 0.074840367 4.7873554e-39
0.5919072 -0.067284063 0.074840367 4.8802545e-39
0.58940721 -0.067284063 0.077340364 4.0508442e-39
0.5919072 -0.067284063 0.077340364 5.8900708e-39
0.58940721 -0.059784062 0.069840364 5.2529999e-39
0.58940721 -0.057284061 0.069840364 2.7640584e-39
0.58440721 -0.064784065 0.072340362 2.9445148e-39
0.58440721 -0.064784065 0.074840367 4.9713711e-39
0.58440721 -0.06228406 0.074840367 4.7880589e-39
0.58690721 -0.064784065 0.072340362 5.2497363e-39
0.58690721 -0.064784065 0.074840367 5.4337786e-39
0.58690721 -0.06228406 0.074840367 5.4330752e-39
0.58690721 -0.064784065 0.077340364 4.8813083e-39
0.58690721 -0.06228406 0.077340364 4.4250371e-39
0.58440721 -0.059784062 0.074840367 5.343776e-39
0.58440721 -0.057284061 0.072340362 2.6711551e-39
0.58440721 -0.057284061 0.074840367 2.1179828e-39
0.58690721 -0.059784062 0.072340362 2.9481176e-39
0.58690721 -0.059784062 0.074840367 5.2529999e-39
0.58690721 -0.057284061 0.072340362 1.6566445e-39
0.58690721 -0.057284061 0.074840367 2.6711551e-39
0.58940721 -0.064784065 0.074840367 3.9589975e-39
0.58940721 -0.06228406 0.074840367 5.253353e-39
0.5919072 -0.064784065 0.074840367 4.1448377e-39
0.5919072 -0.06228406 0.072340362 3.6878252e-39
0.5919072 -0.06228406 0.074840367 4.701624e-39
0.58940721 -0.064784065 0.077340364 3.7767572e-39
0.5919072 -0.064784065 0.077340364 5.6156167e-39
0.58940721 -0.059784062 0.072340362 3.2243457e-39
0.58940721 -0.059784062 0.074840367 4.7902071e-39
0.58940721 -0.057284061 0.072340362 3.2221625e-39
0.58940721 -0.057284061 0.074840367 2.1165338e-39
0.5919072 -0.059784062 0.072340362 2.9491461e-39
0.5919072 -0.057284061 0.072340362 2.2094511e-39
0.5969072 -0.082284063 0.067340367 0
0.5944072 -0.079784058 0.069840364 3.7757048e-39
0.5944072 -0.07728406 0.069840364 4.2352354e-39
0.5969072 -0.079784058 0.067340367 3.7760551e-39
0.5969072 -0.079784058 0.069840364 4.0529924e-39
0.5969072 -0.07728406 0.067340367 3.8679005e-39
0.5969072 -0.07728406 0.069840364 3.4097908e-39
0.5994072 -0.082284063 0.064840361 3.0306008e-39
0.60190719 -0.084784061 0.064840361 1.3369793e-38
0.60190719 -0.082284063 0.064840361 0
0.5994072 -0.084784061 0.069840364 0
0.5994072 -0.082284063 0.067340367 0
0.5994072 -0.082284063 0.069840364 3.8686011e-39
0.60190719 -0.084784061 0.067340367 3.2326092e-39
0.60190719 -0.084784061 0.069840364 0
0.60190719 -0.082284063 0.067340367 0
0.60190719 -0.082284063 0.069840364 4.6422496e-40
0.5994072 -0.079784058 0.064840361 2.9484623e-39
0.60190719 -0.079784058 0.064840361 3.4090873e-39
0.5994072 -0.079784058 0.067340367 4.237392e-39
0.5994072 -0.079784058 0.069840364 3.6867364e-39
0.5994072 -0.07728406 0.067340367 4.4199854e-39
0.5994072 -0.07728406 0.069840364 3.5945408e-39
0.60190719 -0.079784058 0.067340367 4.237392e-39
0.60190719 -0.079784058 0.069840364 4.5136202e-39
0.5944072 -0.082284063 0.072340362 2.026506e-39
0.5944072 -0.079784058 0.072340362 4.2352354e-39
0.5944072 -0.07728406 0.072340362 3.4101467e-39
0.5944072 -0.07728406 0.074840367 3.8671816e-39
0.5969072 -0.079784058 0.072340362 4.4214246e-39
0.5969072 -0.07728406 0.072340362 3.3179286e-39
0.5969072 -0.07728406 0.074840367 3.3175783e-39
0.5994072 -0.082284063 0.072340362 4.1448377e-39
0.60190719 -0.082284063 0.072340362 4.5139705e-39
0.60190719 -0.082284063 0.074840367 4.4199854e-39
0.5994072 -0.079784058 0.072340362 4.5139705e-39
0.5994072 -0.07728406 0.072340362 3.9604464e-39
0.5994072 -0.07728406 0.074840367 3.5923729e-39
0.60190719 -0.079784058 0.072340362 4.6061661e-39
0.60190719 -0.079784058 0.074840367 5.0639045e-39
0.60190719 -0.07728406 0.072340362 3.8679005e-39
0.60190719 -0.07728406 0.074840367 3.2199919e-39
0.60190719 -0.079784058 0.077340364 4.5143208e-39
0.60190719 -0.07728406 0.077340364 3.2253953e-39
0.60440719 -0.084784061 0.067340367 0
0.60440719 -0.082284063 0.069840364 3.4069223e-39
0.60440719 -0.079784058 0.069840364 4.6058158e-39
0.60440719 -0.082284063 0.072340362 2.6679055e-39
0.60440719 -0.079784058 0.072340362 4.7902071e-39
0.60440719 -0.079784058 0.074840367 4.8802545e-39
0.60440719 -0.07728406 0.074840367 5.5226952e-39
0.60440719 -0.079784058 0.077340364 3.8686011e-39
0.60440719 -0.07728406 0.077340364 4.6980114e-39
0.60440719 -0.07728406 0.079840362 4.2377424e-39
0.60690719 -0.07728406 0.077340364 4.052642e-39
0.60690719 -0.07728406 0.079840362 0
0.60940719 -0.07728406 0.077340364 0
0.5944072 -0.074784063 0.072340362 2.9491685e-39
0.5944072 -0.074784063 0.074840367 2.7647549e-39
0.5944072 -0.072284058 0.072340362 3.957578e-39
0.5944072 -0.072284058 0.074840367 3.315077e-39
0.5969072 -0.074784063 0.072340362 3.5891205e-39
0.5969072 -0.074784063 0.074840367 3.0409914e-39
0.5969072 -0.072284058 0.074840367 3.2250478e-39
0.5944072 -0.072284058 0.077340364 3.4991179e-39
0.5969072 -0.074784063 0.077340364 5.0660905e-39
0.5969072 -0.072284058 0.077340364 5.434873e-39
0.5944072 -0.06978406 0.074840367 4.2366886e-39
0.5944072 -0.067284063 0.074840367 5.249386e-39
0.5969072 -0.06978406 0.074840367 2.9459442e-39
0.5969072 -0.067284063 0.074840367 4.1437433e-39
0.5944072 -0.06978406 0.077340364 3.4984145e-39
0.5944072 -0.067284063 0.077340364 3.6831238e-39
0.5969072 -0.06978406 0.077340364 4.7898568e-39
0.5969072 -0.067284063 0.077340364 4.419282e-39
0.5994072 -0.074784063 0.074840367 3.8686011e-39
0.5994072 -0.072284058 0.074840367 5.4345227e-39
0.60190719 -0.074784063 0.074840367 4.0522917e-39
0.60190719 -0.072284058 0.074840367 5.5274274e-39
0.5994072 -0.074784063 0.077340364 4.4228273e-39
0.5994072 -0.072284058 0.077340364 5.1603937e-39
0.60190719 -0.074784063 0.077340364 3.8679005e-39
0.60190719 -0.072284058 0.077340364 3.5016361e-39
0.5994072 -0.06978406 0.074840367 5.2479636e-39
0.5994072 -0.067284063 0.074840367 4.8799014e-39
0.60190719 -0.06978406 0.074840367 5.7114277e-39
0.60190719 -0.067284063 0.074840367 4.6058158e-39
0.5994072 -0.06978406 0.077340364 5.6185286e-39
0.5994072 -0.067284063 0.077340364 5.155768e-39
0.60190719 -0.06978406 0.077340364 4.1448377e-39
0.60190719 -0.067284063 0.077340364 5.1582861e-39
0.5969072 -0.06228406 0.069840364 1.7549638e-39
0.5944072 -0.059784062 0.069840364 3.5945408e-39
0.5944072 -0.057284061 0.069840364 2.6715223e-39
0.5969072 -0.059784062 0.067340367 5.0660905e-39
0.5969072 -0.059784062 0.069840364 1.9357579e-39
0.5969072 -0.057284061 0.067340367 2.6725789e-39
0.5969072 -0.057284061 0.069840364 4.9591168e-39
0.5994072 -0.059784062 0.067340367 2.9484623e-39
0.5994072 -0.059784062 0.069840364 2.3963773e-39
0.5994072 -0.057284061 0.067340367 2.0247039e-39
0.5994072 -0.057284061 0.069840364 2.0203809e-39
0.5944072 -0.064784065 0.074840367 5.3412327e-39
0.5944072 -0.06228406 0.072340362 3.9672988e-39
0.5944072 -0.06228406 0.074840367 4.9764214e-39
0.5969072 -0.064784065 0.074840367 6.3568237e-39
0.5969072 -0.06228406 0.072340362 3.7760551e-39
0.5969072 -0.06228406 0.074840367 4.5136202e-39
0.5944072 -0.064784065 0.077340364 5.8947554e-39
0.5944072 -0.059784062 0.072340362 2.2141216e-39
0.5944072 -0.057284061 0.072340362 5.2346233e-39
0.5969072 -0.059784062 0.072340362 2.7633522e-39
0.5969072 -0.057284061 0.072340362 2.2040519e-39
0.5994072 -0.064784065 0.074840367 5.7121634e-39
0.5994072 -0.06228406 0.072340362 2.7647773e-39
0.5994072 -0.06228406 0.074840367 3.3179511e-39
0.60190719 -0.064784065 0.074840367 4.0548098e-39
0.60190719 -0.06228406 0.074840367 2.6743795e-39
0.5994072 -0.064784065 0.077340364 4.882058e-39
0.60190719 -0.064784065 0.077340364 5.1589896e-39
0.5994072 -0.059784062 0.072340362 0
0.5994072 -0.057284061 0.072340362 1.9285454e-39
0.60190719 -0.059784062 0.072340362 0
0.60190719 -0.059784062 0.074840367 5.7856363e-39
0.60190719 -0.057284061 0.072340362 1.3775324e-39
0.60190719 -0.057284061 0.074840367 3.4036601e-39
0.60440719 -0.074784063 0.074840367 2.4867639e-39
0.60440719 -0.072284058 0.074840367 4.1426895e-39
0.60440719 -0.074784063 0.077340364 3.5016417e-39
0.60440719 -0.074784063 0.079840362 4.7934343e-39
0.60440719 -0.072284058 0.077340364 4.6962136e-39
0.60440719 -0.072284058 0.079840362 5.3433809e-39
0.60690719 -0.074784063 0.079840362 0
0.60690719 -0.072284058 0.077340364 5.6192475e-39
0.60690719 -0.072284058 0.079840362 2.9484371e-39
0.60440719 -0.067284063 0.074840367 5.066794e-39
0.60690719 -0.067284063 0.074840367 4.6958633e-39
0.60440719 -0.06978406 0.077340364 6.6334008e-39
0.60440719 -0.06978406 0.079840362 6.8170816e-39
0.60440719 -0.067284063 0.077340364 4.971018e-39
0.60690719 -0.06978406 0.077340364 6.9099807e-39
0.60690719 -0.06978406 0.079840362 5.0650045e-39
0.60690719 -0.067284063 0.077340364 4.6025942e-39
0.60940719 -0.074784063 0.077340364 0
0.60940719 -0.074784063 0.079840362 3.4897489e-39
0.60940719 -0.072284058 0.077340364 3.4990955e-39
0.60940719 -0.072284058 0.079840362 5.5115647e-39
0.61190724 -0.074784063 0.079840362 1.5008007e-38
0.61190724 -0.072284058 0.079840362 1.2057747e-38
0.61190724 -0.067284063 0.074840367 5.0635724e-39
0.60940719 -0.06978406 0.077340364 7.0021819e-39
0.60940719 -0.06978406 0.079840362 4.2312487e-39
0.60940719 -0.067284063 0.077340364 4.9685027e-39
0.61190724 -0.06978406 0.077340364 3.221417e-39
0.61190724 -0.067284063 0.077340364 2.2065813e-39
0.60440719 -0.064784065 0.074840367 5.0657052e-39
0.60440719 -0.06228406 0.074840367 3.3179511e-39
0.60690719 -0.064784065 0.074840367 4.5136202e-39
0.60440719 -0.064784065 0.077340364 4.2373892e-39
0.60440719 -0.064784065 0.079840362 3.9615436e-39
0.60440719 -0.06228406 0.077340364 2.852301e-39
0.60690719 -0.064784065 0.077340364 4.6961996e-39
0.60690719 -0.06228406 0.077340364 6.1529782e-39
0.60440719 -0.059784062 0.072340362 5.9693073e-39
0.60440719 -0.059784062 0.074840367 1.102026e-39
0.60440719 -0.057284061 0.072340362 3.4036573e-39
0.60440719 -0.059784062 0.077340364 2.0203809e-39
0.60940719 -0.064784065 0.074840367 4.4214246e-39
0.60940719 -0.06228406 0.074840367 5.9693073e-39
0.61190724 -0.064784065 0.074840367 3.961894e-39
0.60940719 -0.064784065 0.077340364 0
0.57940722 -0.052284062 0.059840363 1.2712528e-38
0.57940722 -0.049784061 0.059840363 7.4573769e-39
0.58940721 -0.05478406 0.057340365 5.0671429e-39
0.58940721 -0.05478406 0.059840363 4.1430398e-39
0.5919072 -0.05478406 0.057340365 4.6025942e-39
0.58190721 -0.05478406 0.069840364 3.869362e-39
0.58190721 -0.052284062 0.069840364 3.7793174e-39
0.57440722 -0.05478406 0.074840367 4.0522917e-39
0.57690722 -0.05478406 0.072340362 3.3179861e-39
0.57690722 -0.052284062 0.072340362 3.4105405e-39
0.57440722 -0.05478406 0.077340364 4.0522917e-39
0.57940722 -0.05478406 0.072340362 4.1463076e-39
0.57940722 -0.05478406 0.074840367 3.6856826e-39
0.57940722 -0.052284062 0.072340362 3.9615576e-39
0.57940722 -0.052284062 0.074840367 3.6856826e-39
0.58190721 -0.05478406 0.072340362 3.5027375e-39
0.58190721 -0.05478406 0.074840367 3.3186924e-39
0.58190721 -0.052284062 0.072340362 8.2941034e-40
0.58190721 -0.052284062 0.074840367 0
0.57940722 -0.05478406 0.077340364 3.129262e-39
0.58440721 -0.05478406 0.072340362 2.4846129e-39
0.58440721 -0.05478406 0.074840367 2.4795584e-39
0.58440721 -0.052284062 0.072340362 0
0.58440721 -0.052284062 0.074840367 1.7448744e-39
0.58690721 -0.05478406 0.072340362 1.8367099e-39
0.58690721 -0.05478406 0.074840367 1.9285454e-39
0.58940721 -0.05478406 0.072340362 1.7448744e-39
0.58940721 -0.05478406 0.074840367 2.2040519e-39
0.5919072 -0.05478406 0.072340362 1.6530389e-39
0.5969072 -0.05478406 0.069840364 1.2856969e-39
0.5994072 -0.05478406 0.069840364 3.4947711e-39
0.5944072 -0.05478406 0.072340362 3.3107414e-39
0.61690724 -0.06978406 0.074840367 6.6132319e-39
0.61690724 -0.067284063 0.072340362 0
0.61940724 -0.067284063 0.072340362 1.5023203e-38
0.61940724 -0.067284063 0.074840367 1.4931006e-38
0.61440724 -0.064784065 0.069840364 3.8682508e-39
0.61440724 -0.06228406 0.069840364 5.5101298e-39
0.61440724 -0.064784065 0.072340362 1.8410441e-39
0.61440724 -0.064784065 0.074840367 0
0.61440724 -0.06228406 0.072340362 1.6530389e-39
0.61440724 -0.06228406 0.074840367 7.3468397e-40
0.61690724 -0.064784065 0.072340362 0
0.61690724 -0.064784065 0.074840367 0
0.61690724 -0.06228406 0.072340362 3.4015105e-39
0.61440724 -0.064784065 0.077340364 0
0.61940724 -0.064784065 0.072340362 1.7327734e-38
0.61940724 -0.064784065 0.074840367 1.7235538e-38
0.61940724 -0.06228406 0.072340362 1.7967349e-38
0.61940724 -0.06228406 0.074840367 2.0274387e-38
0.60690719 -0.074784063 0.08234036 3.1224069e-39
0.60690719 -0.072284058 0.08234036 5.1445814e-39
