# .PCD v0.7 - Point Cloud Data file format
VERSION 0.7
FIELDS x y z rgb
SIZE 4 4 4 4
TYPE F F F F
COUNT 1 1 1 1
WIDTH 483
HEIGHT 1
VIEWPOINT 0 0 0 1 0 0 0
POINTS 483
DATA ascii
0.57248038 -0.073427595 0.060538068 7.557871e-39
0.56998038 -0.073427595 0.065538071 4.6040166e-39
0.57248038 -0.075927593 0.063038073 1.253464e-38
0.57248038 -0.075927593 0.065538071 1.0415884e-38
0.57248038 -0.073427595 0.063038073 4.6079696e-39
0.57248038 -0.073427595 0.065538071 3.685258e-39
0.57498038 -0.073427595 0.058038071 7.1890885e-39
0.57498038 -0.073427595 0.060538068 4.7001666e-39
0.57748038 -0.073427595 0.060538068 3.7760523e-39
0.57498038 -0.075927593 0.065538071 8.1085057e-39
0.56998038 -0.068427593 0.058038071 2.7647773e-39
0.57248038 -0.070927598 0.060538068 2.4845933e-39
0.57248038 -0.068427593 0.060538068 3.0392286e-39
0.56998038 -0.070927598 0.065538071 3.7760551e-39
0.56998038 -0.068427593 0.065538071 3.3143553e-39
0.57248038 -0.070927598 0.063038073 2.6718614e-39
0.57248038 -0.070927598 0.065538071 3.8682508e-39
0.57248038 -0.068427593 0.063038073 3.2221597e-39
0.57248038 -0.068427593 0.065538071 2.7608088e-39
0.56998038 -0.065927595 0.058038071 2.1179828e-39
0.57248038 -0.065927595 0.060538068 1.7484898e-39
0.57248038 -0.065927595 0.063038073 2.115445e-39
0.57248038 -0.065927595 0.065538071 1.7495464e-39
0.57498038 -0.070927598 0.058038071 1.2914451e-39
0.57498038 -0.070927598 0.060538068 2.3938592e-39
0.57498038 -0.068427593 0.058038071 2.9491685e-39
0.57498038 -0.068427593 0.060538068 3.1296151e-39
0.57748038 -0.070927598 0.058038071 3.3143553e-39
0.57748038 -0.070927598 0.060538068 2.9473833e-39
0.57748038 -0.068427593 0.058038071 3.3143553e-39
0.57748038 -0.068427593 0.060538068 3.3143553e-39
0.57498038 -0.065927595 0.058038071 1.3811226e-39
0.57498038 -0.065927595 0.060538068 1.1045371e-39
0.57498038 -0.063427597 0.058038071 1.7491988e-39
0.57498038 -0.063427597 0.060538068 1.6573507e-39
0.57748038 -0.065927595 0.058038071 1.6573507e-39
0.57748038 -0.065927595 0.060538068 2.1150919e-39
0.57748038 -0.063427597 0.058038071 1.6573507e-39
0.57498038 -0.065927595 0.063038073 2.3909515e-39
0.57748038 -0.065927595 0.063038073 1.6566445e-39
0.56748039 -0.075927593 0.070538074 7.7429686e-39
0.56748039 -0.073427595 0.068038069 3.3150644e-39
0.56748039 -0.073427595 0.070538074 1.7502554e-39
0.56748039 -0.075927593 0.073038071 4.9799905e-39
0.56748039 -0.073427595 0.073038071 1.4747798e-39
0.56748039 -0.070927598 0.068038069 4.0522917e-39
0.56748039 -0.070927598 0.070538074 3.8679005e-39
0.56748039 -0.068427593 0.068038069 3.3143553e-39
0.56748039 -0.070927598 0.073038071 3.5913136e-39
0.56748039 -0.068427593 0.073038071 3.4987452e-39
0.56748039 -0.065927595 0.068038069 1.6544739e-39
0.56748039 -0.065927595 0.073038071 3.037767e-39
0.56748039 -0.063427597 0.073038071 1.7491988e-39
0.56998038 -0.075927593 0.070538074 8.6613291e-39
0.56998038 -0.073427595 0.068038069 4.2366886e-39
0.56998038 -0.073427595 0.070538074 2.7608088e-39
0.57248038 -0.075927593 0.070538074 2.950574e-39
0.57248038 -0.073427595 0.068038069 2.207998e-39
0.57248038 -0.073427595 0.070538074 1.7520645e-39
0.56998038 -0.075927593 0.073038071 4.6040166e-39
0.56998038 -0.075927593 0.075538069 1.3818807e-39
0.56998038 -0.073427595 0.073038071 5.5317378e-40
0.57248038 -0.075927593 0.073038071 3.2232149e-39
0.57248038 -0.073427595 0.073038071 1.2914451e-39
0.57248038 -0.073427595 0.075538069 3.0381174e-39
0.57498038 -0.078427598 0.073038071 6.0845612e-39
0.57748038 -0.078427598 0.073038071 2.0279535e-39
0.57498038 -0.075927593 0.068038069 6.263252e-39
0.57498038 -0.075927593 0.070538074 2.4845806e-39
0.57498038 -0.073427595 0.070538074 3.2232149e-39
0.57748038 -0.075927593 0.070538074 1.8424496e-39
0.57748038 -0.073427595 0.070538074 2.9484371e-39
0.57498038 -0.075927593 0.073038071 1.2903885e-39
0.57498038 -0.075927593 0.075538069 1.6580822e-39
0.57498038 -0.073427595 0.073038071 2.9491685e-39
0.57498038 -0.073427595 0.075538069 3.3175951e-39
0.57748038 -0.075927593 0.073038071 1.5673257e-39
0.57748038 -0.073427595 0.073038071 3.5923701e-39
0.56998038 -0.070927598 0.068038069 3.8671816e-39
0.56998038 -0.070927598 0.070538074 3.6863861e-39
0.56998038 -0.068427593 0.068038069 3.2218122e-39
0.56998038 -0.068427593 0.070538074 3.4998242e-39
0.57248038 -0.068427593 0.070538074 3.5923701e-39
0.56998038 -0.070927598 0.073038071 3.7753517e-39
0.56998038 -0.068427593 0.073038071 4.0501239e-39
0.57248038 -0.070927598 0.073038071 3.6860329e-39
0.57248038 -0.070927598 0.075538069 3.5938317e-39
0.57248038 -0.068427593 0.073038071 3.7760551e-39
0.57248038 -0.068427593 0.075538069 4.1426713e-39
0.56998038 -0.065927595 0.068038069 1.7470268e-39
0.56998038 -0.065927595 0.070538074 2.8537233e-39
0.56998038 -0.063427597 0.070538074 1.6566445e-39
0.57248038 -0.063427597 0.070538074 2.1143856e-39
0.56998038 -0.065927595 0.073038071 2.7647773e-39
0.56998038 -0.063427597 0.073038071 2.2994831e-39
0.57248038 -0.065927595 0.075538069 3.8682508e-39
0.57248038 -0.063427597 0.073038071 2.667558e-39
0.57248038 -0.063427597 0.075538069 3.5920226e-39
0.57498038 -0.070927598 0.075538069 3.3175951e-39
0.57498038 -0.068427593 0.073038071 3.7764013e-39
0.57498038 -0.068427593 0.075538069 2.9491685e-39
0.57748038 -0.070927598 0.073038071 3.9586471e-39
0.57748038 -0.070927598 0.075538069 2.7651108e-39
0.57748038 -0.068427593 0.073038071 2.4845806e-39
0.57748038 -0.068427593 0.075538069 2.1190365e-39
0.57498038 -0.065927595 0.075538069 4.237392e-39
0.57498038 -0.063427597 0.075538069 4.4217735e-39
0.57748038 -0.065927595 0.075538069 2.759755e-39
0.57498038 -0.065927595 0.078038067 4.5103986e-39
0.57498038 -0.063427597 0.078038067 5.4323563e-39
0.57748038 -0.065927595 0.078038067 3.1299823e-39
0.57748038 -0.063427597 0.078038067 4.0519386e-39
0.57498038 -0.055927597 0.058038071 1.4733196e-39
0.57498038 -0.053427596 0.058038071 1.7495464e-39
0.57748038 -0.055927597 0.058038071 3.3089477e-39
0.57748038 -0.053427596 0.058038071 1.2896919e-38
0.57748038 -0.053427596 0.060538068 1.2620708e-38
0.57748038 -0.050927594 0.058038071 7.5495725e-39
0.56998038 -0.060927596 0.073038071 2.4817416e-39
0.57248038 -0.060927596 0.073038071 1.7491988e-39
0.57248038 -0.060927596 0.075538069 3.219294e-39
0.57498038 -0.060927596 0.070538074 2.8548051e-39
0.57498038 -0.058427595 0.070538074 3.8682508e-39
0.57748038 -0.058427595 0.070538074 3.7764013e-39
0.57498038 -0.060927596 0.073038071 3.3175951e-39
0.57498038 -0.060927596 0.075538069 3.5923701e-39
0.57498038 -0.058427595 0.073038071 3.2253981e-39
0.57498038 -0.058427595 0.075538069 3.8682508e-39
0.57748038 -0.060927596 0.073038071 3.5913136e-39
0.57748038 -0.060927596 0.075538069 4.7902071e-39
0.57748038 -0.058427595 0.073038071 3.7760551e-39
0.57748038 -0.058427595 0.075538069 4.2399102e-39
0.57498038 -0.055927597 0.070538074 4.1419706e-39
0.57498038 -0.055927597 0.073038071 3.8682508e-39
0.57498038 -0.055927597 0.075538069 4.0522917e-39
0.57498038 -0.053427596 0.075538069 3.5027375e-39
0.57748038 -0.055927597 0.073038071 3.5938317e-39
0.57748038 -0.055927597 0.075538069 3.5938373e-39
0.57748038 -0.053427596 0.073038071 3.2283086e-39
0.57748038 -0.060927596 0.078038067 4.6058158e-39
0.57748038 -0.050927594 0.073038071 5.7106822e-39
0.59748036 -0.083427593 0.068038069 3.1224251e-39
0.59998035 -0.083427593 0.065538071 0
0.60248035 -0.083427593 0.065538071 1.2911333e-38
0.59998035 -0.083427593 0.068038069 0
0.59998035 -0.083427593 0.070538074 0
0.60248035 -0.085927598 0.068038069 8.56667e-39
0.60248035 -0.083427593 0.068038069 4.6422496e-40
0.60248035 -0.083427593 0.070538074 3.4069223e-39
0.60248035 -0.083427593 0.073038071 2.4845806e-39
0.60498035 -0.083427593 0.070538074 2.9491685e-39
0.60498035 -0.083427593 0.073038071 3.8570908e-39
0.57998037 -0.065927595 0.058038071 1.7495464e-39
0.57998037 -0.063427597 0.058038071 1.6573507e-39
0.58248037 -0.065927595 0.060538068 2.026492e-39
0.58248037 -0.063427597 0.060538068 2.0232508e-39
0.59498036 -0.080927595 0.065538071 3.5873241e-43
0.59498036 -0.078427598 0.065538071 2.9466532e-39
0.57998037 -0.078427598 0.070538074 1.3858211e-39
0.58248037 -0.080927595 0.070538074 3.3150742e-39
0.58248037 -0.078427598 0.070538074 3.9586345e-39
0.57998037 -0.078427598 0.073038071 1.4765552e-39
0.58248037 -0.080927595 0.073038071 3.1224167e-39
0.58248037 -0.078427598 0.073038071 6.4284847e-40
0.57998037 -0.075927593 0.068038069 2.1172401e-39
0.57998037 -0.075927593 0.070538074 9.5082305e-41
0.57998037 -0.073427595 0.068038069 3.5001745e-39
0.57998037 -0.073427595 0.070538074 3.7760551e-39
0.58248037 -0.075927593 0.070538074 2.1204995e-39
0.58248037 -0.073427595 0.070538074 3.7760551e-39
0.57998037 -0.075927593 0.073038071 2.5800287e-39
0.57998037 -0.073427595 0.073038071 3.868248e-39
0.58248037 -0.075927593 0.073038071 3.4991179e-39
0.58248037 -0.073427595 0.073038071 3.7757048e-39
0.58498037 -0.080927595 0.070538074 3.6734198e-39
0.58498037 -0.078427598 0.070538074 9.1835496e-41
0.58498037 -0.080927595 0.073038071 9.8090893e-45
0.58498037 -0.078427598 0.073038071 2.7550649e-40
0.58498037 -0.078427598 0.075538069 2.9459442e-39
0.58748037 -0.080927595 0.075538069 0
0.58748037 -0.078427598 0.073038071 3.1306857e-39
0.58748037 -0.078427598 0.075538069 4.4199854e-39
0.58498037 -0.073427595 0.070538074 4.1419706e-39
0.58498037 -0.075927593 0.073038071 3.2250478e-39
0.58498037 -0.075927593 0.075538069 3.5945408e-39
0.58498037 -0.073427595 0.073038071 3.4097908e-39
0.58748037 -0.075927593 0.073038071 3.9604464e-39
0.58748037 -0.075927593 0.075538069 4.7884092e-39
0.58748037 -0.073427595 0.073038071 3.2253953e-39
0.57998037 -0.070927598 0.070538074 3.9586471e-39
0.58248037 -0.070927598 0.070538074 3.4980389e-39
0.57998037 -0.070927598 0.073038071 3.1306689e-39
0.57998037 -0.070927598 0.075538069 3.0402852e-39
0.57998037 -0.068427593 0.073038071 2.8537233e-39
0.57998037 -0.068427593 0.075538069 2.759755e-39
0.58248037 -0.070927598 0.073038071 3.3150742e-39
0.58248037 -0.070927598 0.075538069 3.5909408e-39
0.58248037 -0.068427593 0.073038071 3.3143553e-39
0.58248037 -0.068427593 0.075538069 3.4976886e-39
0.57998037 -0.065927595 0.073038071 2.3016636e-39
0.57998037 -0.065927595 0.075538069 3.0367105e-39
0.57998037 -0.063427597 0.075538069 3.1285053e-39
0.58248037 -0.065927595 0.073038071 2.1176324e-39
0.58248037 -0.065927595 0.075538069 2.6689691e-39
0.58248037 -0.063427597 0.075538069 4.87557e-39
0.58498037 -0.070927598 0.070538074 3.4069223e-39
0.58498037 -0.068427593 0.070538074 2.8569729e-39
0.58498037 -0.070927598 0.073038071 3.5920226e-39
0.58498037 -0.068427593 0.073038071 4.1430398e-39
0.58748037 -0.070927598 0.073038071 2.854075e-39
0.58748037 -0.070927598 0.075538069 2.1183387e-39
0.58748037 -0.068427593 0.073038071 3.9607967e-39
0.58748037 -0.068427593 0.075538069 3.5906115e-39
0.58498037 -0.065927595 0.073038071 5.4323563e-39
0.58498037 -0.065927595 0.075538069 5.066794e-39
0.58498037 -0.063427597 0.073038071 3.9586471e-39
0.58498037 -0.063427597 0.075538069 4.7880589e-39
0.58748037 -0.065927595 0.073038071 5.6163874e-39
0.58748037 -0.065927595 0.075538069 4.0515883e-39
0.58748037 -0.063427597 0.073038071 4.5139705e-39
0.58748037 -0.063427597 0.075538069 4.6065193e-39
0.57998037 -0.065927595 0.078038067 3.6795631e-39
0.57998037 -0.063427597 0.078038067 3.2214619e-39
0.58998036 -0.078427598 0.070538074 3.1306857e-39
0.59248036 -0.078427598 0.070538074 3.5913136e-39
0.58998036 -0.078427598 0.073038071 2.5796784e-39
0.59248036 -0.080927595 0.073038071 0
0.59248036 -0.078427598 0.073038071 3.3168917e-39
0.59248036 -0.075927593 0.070538074 4.1451936e-39
0.58998036 -0.075927593 0.073038071 4.1444873e-39
0.58998036 -0.073427595 0.073038071 3.9586471e-39
0.58998036 -0.073427595 0.075538069 3.6831364e-39
0.59248036 -0.075927593 0.073038071 4.6040166e-39
0.59248036 -0.073427595 0.073038071 3.5909408e-39
0.59498036 -0.080927595 0.068038069 0
0.59498036 -0.078427598 0.068038069 3.8679005e-39
0.59498036 -0.078427598 0.070538074 4.052642e-39
0.59748036 -0.080927595 0.068038069 0
0.59748036 -0.080927595 0.070538074 1.3829344e-39
0.59748036 -0.078427598 0.068038069 3.9604464e-39
0.59748036 -0.078427598 0.070538074 4.237392e-39
0.59498036 -0.080927595 0.073038071 3.4112383e-39
0.59498036 -0.078427598 0.073038071 3.5016417e-39
0.59748036 -0.078427598 0.073038071 4.2352354e-39
0.59498036 -0.075927593 0.070538074 4.3263521e-39
0.59748036 -0.075927593 0.070538074 3.5923701e-39
0.59498036 -0.075927593 0.073038071 3.8685843e-39
0.59498036 -0.075927593 0.075538069 3.3154119e-39
0.59498036 -0.073427595 0.073038071 3.222531e-39
0.59498036 -0.073427595 0.075538069 3.407623e-39
0.59748036 -0.075927593 0.073038071 3.7764013e-39
0.59748036 -0.075927593 0.075538069 3.7771075e-39
0.59748036 -0.073427595 0.075538069 3.5938317e-39
0.59748036 -0.073427595 0.078038067 4.6980114e-39
0.58998036 -0.070927598 0.073038071 3.3150644e-39
0.58998036 -0.070927598 0.075538069 3.3140078e-39
0.58998036 -0.068427593 0.073038071 2.8526695e-39
0.58998036 -0.068427593 0.075538069 3.2218122e-39
0.59248036 -0.070927598 0.073038071 3.3143553e-39
0.59248036 -0.070927598 0.075538069 4.0529924e-39
0.59248036 -0.068427593 0.073038071 5.1589896e-39
0.59248036 -0.068427593 0.075538069 4.7919671e-39
0.58998036 -0.065927595 0.075538069 3.3136575e-39
0.58998036 -0.063427597 0.075538069 4.6065193e-39
0.59248036 -0.065927595 0.073038071 4.1419706e-39
0.59248036 -0.065927595 0.075538069 5.1568218e-39
0.59248036 -0.063427597 0.073038071 4.5175859e-39
0.59248036 -0.063427597 0.075538069 5.7110493e-39
0.59498036 -0.070927598 0.075538069 3.3143553e-39
0.59498036 -0.068427593 0.075538069 3.3183e-39
0.59748036 -0.070927598 0.075538069 3.7738719e-39
0.59748036 -0.068427593 0.075538069 3.7753517e-39
0.59498036 -0.065927595 0.075538069 5.7107242e-39
0.59498036 -0.063427597 0.073038071 4.5172355e-39
0.59498036 -0.063427597 0.075538069 4.8838671e-39
0.59748036 -0.065927595 0.075538069 6.0780788e-39
0.59748036 -0.063427597 0.073038071 4.7898568e-39
0.59748036 -0.063427597 0.075538069 4.7902071e-39
0.59498036 -0.068427593 0.078038067 3.5891205e-39
0.59748036 -0.070927598 0.078038067 4.9724277e-39
0.59748036 -0.068427593 0.078038067 4.1430258e-39
0.59498036 -0.065927595 0.078038067 5.894405e-39
0.59498036 -0.063427597 0.078038067 4.5132699e-39
0.59748036 -0.065927595 0.078038067 4.697308e-39
0.59748036 -0.063427597 0.078038067 2.9484623e-39
0.58748037 -0.055927597 0.058038071 4.7941784e-39
0.58748037 -0.053427596 0.058038071 6.5447911e-39
0.58998036 -0.060927596 0.058038071 2.300202e-39
0.58998036 -0.058427595 0.058038071 3.3143553e-39
0.58998036 -0.058427595 0.060538068 4.417847e-39
0.58998036 -0.055927597 0.060538068 3.8679005e-39
0.59248036 -0.055927597 0.060538068 3.8675473e-39
0.59498036 -0.058427595 0.065538071 2.3974339e-39
0.59498036 -0.055927597 0.065538071 1.1066951e-39
0.57998037 -0.060927596 0.075538069 5.8050625e-39
0.57998037 -0.058427595 0.075538069 4.7902071e-39
0.58248037 -0.060927596 0.075538069 5.5288609e-39
0.58248037 -0.058427595 0.073038071 3.8700458e-39
0.58248037 -0.058427595 0.075538069 2.5789595e-39
0.57998037 -0.055927597 0.070538074 3.2286617e-39
0.57998037 -0.053427596 0.070538074 3.2286617e-39
0.58248037 -0.055927597 0.070538074 4.0559043e-39
0.58248037 -0.053427596 0.068038069 3.2283086e-39
0.58248037 -0.053427596 0.070538074 3.9615576e-39
0.57998037 -0.055927597 0.073038071 3.8704172e-39
0.57998037 -0.055927597 0.075538069 3.5938317e-39
0.57998037 -0.053427596 0.073038071 3.5027375e-39
0.57998037 -0.053427596 0.075538069 1.105291e-39
0.58248037 -0.055927597 0.073038071 3.3179861e-39
0.58248037 -0.055927597 0.075538069 2.6733201e-39
0.58248037 -0.053427596 0.073038071 1.5666265e-39
0.58248037 -0.053427596 0.075538069 9.1835496e-41
0.58498037 -0.060927596 0.075538069 5.9866021e-39
0.58498037 -0.058427595 0.075538069 3.2246947e-39
0.58748037 -0.060927596 0.073038071 5.1608029e-39
0.58748037 -0.060927596 0.075538069 4.6998261e-39
0.58748037 -0.058427595 0.073038071 3.2246947e-39
0.58748037 -0.058427595 0.075538069 3.9600961e-39
0.58498037 -0.053427596 0.070538074 3.871513e-39
0.58498037 -0.055927597 0.073038071 2.0203809e-39
0.58498037 -0.055927597 0.075538069 1.8367099e-39
0.58498037 -0.053427596 0.073038071 1.1938615e-39
0.58748037 -0.055927597 0.073038071 1.4726133e-39
0.58748037 -0.055927597 0.075538069 9.1835496e-41
0.57998037 -0.060927596 0.078038067 5.2500894e-39
0.57998037 -0.058427595 0.078038067 4.6061661e-39
0.58248037 -0.058427595 0.078038067 2.2126951e-39
0.57998037 -0.055927597 0.078038067 2.9484679e-39
0.58248037 -0.055927597 0.078038067 1.2907388e-39
0.57998037 -0.050927594 0.073038071 5.7999856e-39
0.59248036 -0.060927596 0.070538074 4.3317555e-39
0.59248036 -0.058427595 0.070538074 2.7647773e-39
0.58998036 -0.060927596 0.073038071 5.0664436e-39
0.58998036 -0.060927596 0.075538069 3.6863861e-39
0.58998036 -0.058427595 0.073038071 2.6725789e-39
0.59248036 -0.060927596 0.073038071 3.5938317e-39
0.59248036 -0.058427595 0.073038071 3.0410167e-39
0.58998036 -0.055927597 0.070538074 2.0203809e-39
0.58998036 -0.053427596 0.070538074 4.5960796e-39
0.59248036 -0.055927597 0.070538074 2.2040519e-39
0.58998036 -0.055927597 0.073038071 0
0.59248036 -0.055927597 0.073038071 0
0.59248036 -0.053427596 0.073038071 1.2797107e-38
0.59498036 -0.060927596 0.070538074 4.6980114e-39
0.59498036 -0.058427595 0.068038069 3.5016361e-39
0.59498036 -0.058427595 0.070538074 2.9484623e-39
0.59748036 -0.060927596 0.070538074 1.9371746e-39
0.59748036 -0.058427595 0.068038069 2.9491685e-39
0.59748036 -0.058427595 0.070538074 2.1219246e-39
0.59498036 -0.060927596 0.073038071 1.9361082e-39
0.59498036 -0.058427595 0.073038071 2.0283039e-39
0.59748036 -0.060927596 0.073038071 3.2243457e-39
0.59748036 -0.060927596 0.075538069 3.4079789e-39
0.59748036 -0.058427595 0.073038071 1.3800674e-39
0.59498036 -0.055927597 0.068038069 0
0.59498036 -0.055927597 0.070538074 1.4693679e-39
0.59748036 -0.055927597 0.068038069 1.102026e-39
0.59748036 -0.055927597 0.070538074 3.4947711e-39
0.59498036 -0.055927597 0.073038071 5.6938008e-39
0.59748036 -0.055927597 0.073038071 7.5466536e-39
0.59998035 -0.080927595 0.065538071 0
0.59998035 -0.078427598 0.065538071 3.593487e-39
0.60248035 -0.080927595 0.065538071 0
0.59998035 -0.080927595 0.068038069 2.026506e-39
0.59998035 -0.080927595 0.070538074 3.7760551e-39
0.59998035 -0.078427598 0.068038069 3.5938373e-39
0.59998035 -0.078427598 0.070538074 4.236683e-39
0.60248035 -0.080927595 0.068038069 4.0551602e-39
0.60248035 -0.080927595 0.070538074 4.5136202e-39
0.59998035 -0.080927595 0.073038071 4.6061661e-39
0.59998035 -0.078427598 0.073038071 3.9600961e-39
0.60248035 -0.080927595 0.073038071 4.5139705e-39
0.60248035 -0.080927595 0.075538069 4.5132699e-39
0.60248035 -0.078427598 0.073038071 4.6058032e-39
0.60248035 -0.078427598 0.075538069 4.6058032e-39
0.59998035 -0.075927593 0.073038071 3.7764055e-39
0.59998035 -0.075927593 0.075538069 3.1303354e-39
0.59998035 -0.073427595 0.075538069 4.6983618e-39
0.60248035 -0.075927593 0.075538069 2.6697076e-39
0.60248035 -0.073427595 0.075538069 4.1426895e-39
0.60498035 -0.080927595 0.070538074 4.5139705e-39
0.60498035 -0.080927595 0.073038071 4.052642e-39
0.60498035 -0.080927595 0.075538069 4.236683e-39
0.60498035 -0.078427598 0.075538069 4.9734773e-39
0.60748035 -0.078427598 0.075538069 3.6734198e-40
0.60498035 -0.075927593 0.075538069 4.3314023e-39
0.60248035 -0.075927593 0.078038067 3.4090873e-39
0.60248035 -0.073427595 0.078038067 3.867197e-39
0.60498035 -0.080927595 0.078038067 4.0490715e-39
0.60498035 -0.078427598 0.078038067 4.1448377e-39
0.60498035 -0.078427598 0.080538072 4.2251769e-39
0.60748035 -0.078427598 0.078038067 4.5917888e-39
0.60498035 -0.075927593 0.078038067 3.9622611e-39
0.60498035 -0.075927593 0.080538072 3.6870867e-39
0.60498035 -0.073427595 0.078038067 5.4334283e-39
0.60498035 -0.073427595 0.080538072 5.4355765e-39
0.60748035 -0.075927593 0.078038067 4.0529924e-39
0.60748035 -0.075927593 0.080538072 0
0.60748035 -0.073427595 0.078038067 5.5277721e-39
0.60748035 -0.073427595 0.080538072 0
0.59998035 -0.070927598 0.075538069 4.8831118e-39
0.59998035 -0.068427593 0.075538069 4.7909161e-39
0.60248035 -0.070927598 0.075538069 4.1455467e-39
0.60248035 -0.068427593 0.075538069 5.1589896e-39
0.59998035 -0.065927595 0.075538069 4.3317555e-39
0.59998035 -0.063427597 0.073038071 3.4094404e-39
0.59998035 -0.063427597 0.075538069 2.9484623e-39
0.60248035 -0.065927595 0.075538069 5.1589896e-39
0.60248035 -0.063427597 0.075538069 3.4094278e-39
0.60498035 -0.065927595 0.075538069 4.9717215e-39
0.60498035 -0.063427597 0.075538069 3.9579283e-39
0.60748035 -0.065927595 0.075538069 4.6961996e-39
0.60748035 -0.063427597 0.075538069 4.1430258e-39
0.60248035 -0.070927598 0.078038067 3.7753195e-39
0.60248035 -0.068427593 0.078038067 6.9085584e-39
0.59998035 -0.065927595 0.078038067 4.8827614e-39
0.59998035 -0.063427597 0.078038067 4.052642e-39
0.60248035 -0.065927595 0.078038067 4.5129195e-39
0.60248035 -0.063427597 0.078038067 3.4987676e-39
0.60498035 -0.070927598 0.078038067 5.7114277e-39
0.60498035 -0.070927598 0.080538072 5.8032898e-39
0.60498035 -0.068427593 0.078038067 6.5390556e-39
0.60748035 -0.070927598 0.078038067 6.8170816e-39
0.60748035 -0.070927598 0.080538072 4.7884092e-39
0.60748035 -0.068427593 0.078038067 7.5485398e-39
0.60498035 -0.065927595 0.078038067 5.0635668e-39
0.60498035 -0.065927595 0.080538072 3.961894e-39
0.60498035 -0.063427597 0.078038067 3.8682508e-39
0.60748035 -0.065927595 0.078038067 5.155768e-39
0.60998034 -0.078427598 0.075538069 2.2040519e-39
0.60998034 -0.075927593 0.078038067 0
0.60998034 -0.073427595 0.078038067 0
0.61248034 -0.073427595 0.080538072 1.5466467e-38
0.60998034 -0.068427593 0.075538069 6.9085584e-39
0.61248034 -0.068427593 0.073038071 4.6029628e-39
0.61248034 -0.068427593 0.075538069 2.3909725e-39
0.60998034 -0.065927595 0.075538069 4.054091e-39
0.60998034 -0.063427597 0.075538069 2.1179828e-39
0.61248034 -0.065927595 0.073038071 3.9618911e-39
0.61248034 -0.065927595 0.075538069 0
0.61248034 -0.063427597 0.073038071 1.7520645e-39
0.61248034 -0.063427597 0.075538069 0
0.61498034 -0.070927598 0.075538069 3.0348804e-39
0.61498034 -0.068427593 0.073038071 0
0.61498034 -0.068427593 0.075538069 2.7550649e-40
0.6174804 -0.068427593 0.073038071 8.85543e-39
0.6174804 -0.068427593 0.075538069 1.8485817e-39
0.6174804 -0.063427597 0.070538074 1.7448744e-39
0.61498034 -0.065927595 0.073038071 2.0257829e-39
0.61498034 -0.065927595 0.075538069 0
0.61498034 -0.063427597 0.073038071 1.2856969e-39
0.61498034 -0.063427597 0.075538069 0
0.6174804 -0.065927595 0.073038071 0
0.6174804 -0.065927595 0.075538069 1.5023556e-38
0.6174804 -0.063427597 0.073038071 8.2651947e-40
0.60998034 -0.070927598 0.078038067 5.4337786e-39
0.60998034 -0.068427593 0.078038067 4.6036662e-39
0.61248034 -0.070927598 0.078038067 4.0457841e-39
0.61248034 -0.068427593 0.078038067 5.5101298e-40
0.60998034 -0.065927595 0.078038067 0
0.59998035 -0.060927596 0.070538074 2.7633522e-39
0.59998035 -0.058427595 0.068038069 2.0257829e-39
0.59998035 -0.058427595 0.070538074 9.219563e-40
0.59998035 -0.060927596 0.073038071 2.9495189e-39
0.59998035 -0.060927596 0.075538069 2.7644045e-39
0.59998035 -0.058427595 0.073038071 0
0.59998035 -0.058427595 0.075538069 6.2448137e-39
0.60248035 -0.060927596 0.073038071 5.7856363e-39
0.60248035 -0.060927596 0.075538069 1.7495464e-39
0.60248035 -0.058427595 0.073038071 6.2448137e-39
0.60248035 -0.058427595 0.075538069 8.008701e-39
0.59998035 -0.055927597 0.068038069 3.4032943e-39
0.59998035 -0.055927597 0.070538074 6.9005766e-39
0.59998035 -0.055927597 0.073038071 1.3994594e-38
0.60248035 -0.055927597 0.073038071 2.0827192e-38
0.60498035 -0.060927596 0.073038071 1.7448744e-39
0.60498035 -0.060927596 0.075538069 0
0.60498035 -0.058427595 0.073038071 8.1941656e-39
0.60748035 -0.060927596 0.075538069 0
0.60248035 -0.060927596 0.078038067 0
0.60498035 -0.060927596 0.078038067 2.2040519e-39
0.61998039 -0.063427597 0.073038071 2.0642811e-38
0.61998039 -0.060927596 0.073038071 1.8243579e-38
