# .PCD v0.7 - Point Cloud Data file format
VERSION 0.7
FIELDS x y z rgb
SIZE 4 4 4 4
TYPE F F F F
COUNT 1 1 1 1
WIDTH 504
HEIGHT 1
VIEWPOINT 0 0 0 1 0 0 0
POINTS 504
DATA ascii
0.56940722 -0.07093925 0.059840363 1.6580822e-39
0.57190722 -0.07093925 0.057340365 8.2867186e-40
0.57190722 -0.07093925 0.059840363 2.0272122e-39
0.56940722 -0.068439253 0.057340365 1.7502554e-39
0.56940722 -0.068439253 0.059840363 2.7647773e-39
0.56940722 -0.065939255 0.057340365 2.8527144e-39
0.56940722 -0.065939255 0.059840363 2.9473833e-39
0.57190722 -0.068439253 0.057340365 2.7647773e-39
0.57190722 -0.068439253 0.059840363 2.7647773e-39
0.57190722 -0.065939255 0.057340365 2.4867639e-39
0.57190722 -0.065939255 0.059840363 1.7491988e-39
0.57190722 -0.075939253 0.064840361 1.2442444e-38
0.57190722 -0.075939253 0.069840364 4.7884092e-39
0.56690723 -0.075939253 0.072340362 8.2000034e-39
0.56940722 -0.075939253 0.072340362 5.3473465e-39
0.56940722 -0.075939253 0.074840367 1.9087507e-40
0.57190722 -0.075939253 0.072340362 3.5005108e-39
0.56690723 -0.073439255 0.069840364 3.1310192e-39
0.56690723 -0.07093925 0.069840364 4.052642e-39
0.56940722 -0.073439255 0.064840361 3.1321333e-39
0.56940722 -0.07093925 0.064840361 2.7633522e-39
0.57190722 -0.073439255 0.062340364 4.5154153e-39
0.57190722 -0.073439255 0.064840361 3.5913136e-39
0.57190722 -0.07093925 0.062340364 2.6718614e-39
0.57190722 -0.07093925 0.064840361 3.4069223e-39
0.56940722 -0.073439255 0.067340367 3.3164811e-39
0.56940722 -0.073439255 0.069840364 2.1190365e-39
0.56940722 -0.07093925 0.067340367 4.1444873e-39
0.56940722 -0.07093925 0.069840364 3.4094404e-39
0.57190722 -0.073439255 0.067340367 3.5008808e-39
0.57190722 -0.073439255 0.069840364 2.4853163e-39
0.57190722 -0.07093925 0.067340367 3.959743e-39
0.57190722 -0.07093925 0.069840364 3.8682508e-39
0.56940722 -0.068439253 0.064840361 3.3150742e-39
0.57190722 -0.068439253 0.062340364 3.4990955e-39
0.57190722 -0.068439253 0.064840361 3.3143553e-39
0.57190722 -0.065939255 0.064840361 2.118689e-39
0.56940722 -0.068439253 0.067340367 3.3150742e-39
0.56940722 -0.068439253 0.069840364 3.2253981e-39
0.56940722 -0.065939255 0.067340367 1.472263e-39
0.56940722 -0.065939255 0.069840364 2.6689859e-39
0.57190722 -0.068439253 0.067340367 3.5920226e-39
0.57190722 -0.068439253 0.069840364 4.1430258e-39
0.57190722 -0.065939255 0.067340367 2.7608088e-39
0.57190722 -0.065939255 0.069840364 2.8537233e-39
0.56690723 -0.073439255 0.072340362 2.1150919e-39
0.56690723 -0.07093925 0.072340362 3.8679005e-39
0.56940722 -0.073439255 0.072340362 1.5673257e-39
0.56940722 -0.073439255 0.074840367 2.8768657e-42
0.56940722 -0.07093925 0.072340362 3.7757048e-39
0.56940722 -0.07093925 0.074840367 3.4097908e-39
0.57190722 -0.073439255 0.072340362 1.6609479e-39
0.57190722 -0.07093925 0.072340362 3.9604464e-39
0.56940722 -0.068439253 0.072340362 3.3143553e-39
0.56940722 -0.065939255 0.072340362 3.037767e-39
0.57190722 -0.068439253 0.072340362 4.0519386e-39
0.57190722 -0.068439253 0.074840367 3.8682508e-39
0.57190722 -0.065939255 0.072340362 3.4079789e-39
0.57190722 -0.065939255 0.074840367 3.7760551e-39
0.56940722 -0.063439257 0.069840364 2.1143856e-39
0.57190722 -0.063439257 0.069840364 1.6566445e-39
0.56940722 -0.063439257 0.072340362 2.6679055e-39
0.56940722 -0.060939252 0.072340362 2.1143856e-39
0.57190722 -0.063439257 0.072340362 2.8533758e-39
0.57190722 -0.063439257 0.074840367 3.7760551e-39
0.57190722 -0.060939252 0.072340362 2.6679055e-39
0.57190722 -0.060939252 0.074840367 3.037767e-39
0.57440722 -0.073439255 0.059840363 4.8841978e-39
0.57440722 -0.07093925 0.057340365 2.0272122e-39
0.57440722 -0.07093925 0.059840363 2.3020139e-39
0.57690722 -0.073439255 0.057340365 4.5154153e-39
0.57690722 -0.07093925 0.057340365 2.4871114e-39
0.57440722 -0.068439253 0.057340365 2.9491685e-39
0.57440722 -0.068439253 0.059840363 2.7633522e-39
0.57440722 -0.065939255 0.057340365 1.2882179e-39
0.57440722 -0.065939255 0.059840363 1.4726133e-39
0.57690722 -0.065939255 0.057340365 1.4733196e-39
0.57690722 -0.065939255 0.059840363 1.7495464e-39
0.57940722 -0.065939255 0.059840363 1.7495464e-39
0.58190721 -0.065939255 0.057340365 1.8413945e-39
0.57440722 -0.078439251 0.069840364 1.0785775e-38
0.57440722 -0.075939253 0.067340367 6.7246001e-39
0.57440722 -0.075939253 0.069840364 4.6976611e-39
0.57690722 -0.078439251 0.069840364 1.060244e-38
0.57690722 -0.075939253 0.069840364 3.0424095e-39
0.58190721 -0.080939256 0.069840364 5.3401593e-39
0.58190721 -0.078439251 0.069840364 5.5677091e-40
0.58190721 -0.075939253 0.069840364 2.155197e-42
0.57440722 -0.075939253 0.072340362 3.3161308e-39
0.57440722 -0.075939253 0.074840367 1.1974866e-39
0.57690722 -0.078439251 0.072340362 6.2693028e-39
0.57690722 -0.075939253 0.072340362 1.2907388e-39
0.58190721 -0.080939256 0.072340362 3.397919e-39
0.57940722 -0.078439251 0.074840367 1.9357579e-39
0.57940722 -0.075939253 0.072340362 1.7513638e-39
0.57940722 -0.075939253 0.074840367 3.1306857e-39
0.58190721 -0.078439251 0.072340362 5.5208917e-40
0.58190721 -0.078439251 0.074840367 7.3469798e-40
0.58190721 -0.075939253 0.072340362 3.0417145e-39
0.58190721 -0.075939253 0.074840367 2.7665752e-39
0.57440722 -0.07093925 0.062340364 2.5789595e-39
0.57440722 -0.073439255 0.067340367 1.1056385e-39
0.57440722 -0.073439255 0.069840364 4.6097815e-40
0.57440722 -0.07093925 0.069840364 3.8682508e-39
0.57690722 -0.073439255 0.069840364 1.937162e-39
0.57440722 -0.068439253 0.062340364 2.4867639e-39
0.57440722 -0.065939255 0.062340364 1.4726133e-39
0.57440722 -0.065939255 0.064840361 2.115445e-39
0.57690722 -0.065939255 0.062340364 1.4726133e-39
0.57440722 -0.068439253 0.067340367 3.4990927e-39
0.57440722 -0.068439253 0.069840364 3.6834868e-39
0.58190721 -0.073439255 0.069840364 3.4101411e-39
0.57440722 -0.073439255 0.072340362 1.7520645e-39
0.57440722 -0.073439255 0.074840367 3.4097908e-39
0.57440722 -0.07093925 0.072340362 3.5945408e-39
0.57440722 -0.07093925 0.074840367 3.5913136e-39
0.57690722 -0.073439255 0.072340362 2.9484623e-39
0.57690722 -0.07093925 0.072340362 3.4097908e-39
0.57440722 -0.068439253 0.072340362 4.0508442e-39
0.57440722 -0.068439253 0.074840367 4.0508442e-39
0.57440722 -0.065939255 0.072340362 4.1430398e-39
0.57440722 -0.065939255 0.074840367 4.1430398e-39
0.57690722 -0.068439253 0.072340362 3.7760551e-39
0.57690722 -0.068439253 0.074840367 2.1190576e-39
0.57690722 -0.065939255 0.074840367 4.0494233e-39
0.57440722 -0.065939255 0.077340364 4.7884092e-39
0.57440722 -0.065939255 0.079840362 2.1179982e-39
0.57690722 -0.065939255 0.077340364 3.3140232e-39
0.57690722 -0.065939255 0.079840362 3.2207528e-39
0.57940722 -0.073439255 0.072340362 3.0421027e-39
0.57940722 -0.073439255 0.074840367 3.9604464e-39
0.57940722 -0.07093925 0.072340362 2.8562667e-39
0.57940722 -0.07093925 0.074840367 3.4069223e-39
0.58190721 -0.073439255 0.072340362 3.8700641e-39
0.58190721 -0.07093925 0.072340362 3.4980389e-39
0.58190721 -0.07093925 0.074840367 3.3150742e-39
0.57940722 -0.068439253 0.072340362 2.1190365e-39
0.57940722 -0.068439253 0.074840367 3.3118582e-39
0.57940722 -0.065939255 0.074840367 2.7590488e-39
0.58190721 -0.068439253 0.072340362 2.9459217e-39
0.58190721 -0.068439253 0.074840367 2.9437988e-39
0.58190721 -0.065939255 0.074840367 2.6708048e-39
0.57940722 -0.068439253 0.077340364 3.3140078e-39
0.57940722 -0.065939255 0.077340364 3.2218122e-39
0.58440721 -0.078439251 0.067340367 2.8129385e-40
0.58440721 -0.078439251 0.069840364 8.3194389e-40
0.58440721 -0.075939253 0.067340367 1.4657582e-42
0.58440721 -0.075939253 0.069840364 1.7542603e-39
0.58940721 -0.080939256 0.069840364 0
0.5919072 -0.080939256 0.069840364 3.0471501e-39
0.58940721 -0.078439251 0.069840364 3.1310361e-39
0.5919072 -0.078439251 0.069840364 2.6722257e-39
0.58440721 -0.080939256 0.072340362 2.5265411e-42
0.58440721 -0.080939256 0.074840367 1.5414283e-44
0.58690721 -0.080939256 0.072340362 9.8090893e-45
0.58690721 -0.080939256 0.074840367 0
0.58440721 -0.078439251 0.072340362 1.2864228e-39
0.58440721 -0.078439251 0.074840367 1.2889396e-39
0.58440721 -0.075939253 0.072340362 3.5913136e-39
0.58440721 -0.075939253 0.074840367 3.3172448e-39
0.58690721 -0.078439251 0.072340362 1.9321426e-39
0.58690721 -0.078439251 0.074840367 2.7647717e-39
0.58690721 -0.075939253 0.072340362 4.052642e-39
0.58690721 -0.075939253 0.074840367 4.0529924e-39
0.58940721 -0.078439251 0.072340362 3.9604464e-39
0.58940721 -0.075939253 0.072340362 4.2373892e-39
0.5919072 -0.078439251 0.072340362 3.5920226e-39
0.5919072 -0.075939253 0.072340362 3.8685983e-39
0.5919072 -0.075939253 0.074840367 3.5001745e-39
0.58440721 -0.073439255 0.069840364 3.868248e-39
0.58440721 -0.073439255 0.072340362 4.3270611e-39
0.58440721 -0.07093925 0.072340362 3.3150742e-39
0.58440721 -0.07093925 0.074840367 3.589866e-39
0.58690721 -0.073439255 0.072340362 4.1430398e-39
0.58690721 -0.073439255 0.074840367 3.5920226e-39
0.58690721 -0.07093925 0.072340362 3.22251e-39
0.58690721 -0.07093925 0.074840367 2.6722257e-39
0.58440721 -0.068439253 0.072340362 2.7640584e-39
0.58440721 -0.068439253 0.074840367 4.0519386e-39
0.58440721 -0.065939255 0.074840367 4.5150831e-39
0.58690721 -0.068439253 0.072340362 3.4097964e-39
0.58690721 -0.068439253 0.074840367 3.5945408e-39
0.58690721 -0.065939255 0.072340362 5.3423271e-39
0.58690721 -0.065939255 0.074840367 5.1582861e-39
0.58940721 -0.073439255 0.072340362 3.4998242e-39
0.58940721 -0.073439255 0.074840367 3.5913136e-39
0.58940721 -0.07093925 0.072340362 2.4878176e-39
0.58940721 -0.07093925 0.074840367 2.1179828e-39
0.5919072 -0.073439255 0.072340362 3.6824302e-39
0.5919072 -0.073439255 0.074840367 3.4991179e-39
0.5919072 -0.07093925 0.072340362 3.1296151e-39
0.5919072 -0.07093925 0.074840367 3.7757048e-39
0.58940721 -0.068439253 0.072340362 2.3945654e-39
0.58940721 -0.068439253 0.074840367 2.1179828e-39
0.58940721 -0.065939255 0.072340362 4.0515883e-39
0.58940721 -0.065939255 0.074840367 4.0515883e-39
0.5919072 -0.068439253 0.072340362 2.947033e-39
0.5919072 -0.068439253 0.074840367 4.7898568e-39
0.5919072 -0.065939255 0.074840367 3.957578e-39
0.58940721 -0.065939255 0.077340364 3.7764055e-39
0.57440722 -0.063439257 0.057340365 1.7495464e-39
0.57440722 -0.063439257 0.059840363 1.7495464e-39
0.57690722 -0.063439257 0.057340365 1.7495464e-39
0.57440722 -0.058439255 0.057340365 1.6566445e-39
0.57440722 -0.055939253 0.057340365 1.6559466e-39
0.57690722 -0.055939253 0.057340365 2.1122599e-39
0.57940722 -0.063439257 0.059840363 1.7495464e-39
0.58190721 -0.063439257 0.057340365 1.7495464e-39
0.57440722 -0.053439252 0.057340365 1.4697267e-39
0.57440722 -0.053439252 0.059840363 5.3336741e-39
0.57440722 -0.050939254 0.059840363 8.279544e-40
0.57690722 -0.053439252 0.057340365 5.0603102e-39
0.57690722 -0.053439252 0.059840363 1.2528153e-38
0.57690722 -0.050939254 0.057340365 7.3647763e-40
0.57690722 -0.050939254 0.059840363 8.0109262e-39
0.57940722 -0.053439252 0.059840363 1.280402e-38
0.57940722 -0.050939254 0.059840363 7.4584727e-39
0.58440721 -0.063439257 0.059840363 2.2994831e-39
0.58940721 -0.060939252 0.057340365 2.0236165e-39
0.58940721 -0.060939252 0.059840363 2.8548051e-39
0.58940721 -0.058439255 0.057340365 3.3143553e-39
0.58940721 -0.058439255 0.059840363 3.9600961e-39
0.58940721 -0.055939253 0.057340365 5.5284756e-39
0.58940721 -0.055939253 0.059840363 3.7757048e-39
0.5919072 -0.058439255 0.059840363 3.8679005e-39
0.5919072 -0.055939253 0.057340365 4.3256486e-39
0.5919072 -0.055939253 0.059840363 3.8679005e-39
0.58940721 -0.053439252 0.057340365 6.0809459e-39
0.5919072 -0.053439252 0.057340365 4.971018e-39
0.5919072 -0.053439252 0.059840363 3.5009326e-39
0.58190721 -0.058439255 0.067340367 3.7760551e-39
0.58190721 -0.055939253 0.067340367 3.8682508e-39
0.58190721 -0.055939253 0.069840364 3.3179861e-39
0.57440722 -0.063439257 0.072340362 3.6809827e-39
0.57440722 -0.063439257 0.074840367 4.1430398e-39
0.57440722 -0.060939252 0.072340362 3.1299627e-39
0.57440722 -0.060939252 0.074840367 3.4998242e-39
0.57690722 -0.060939252 0.072340362 2.3963479e-39
0.57690722 -0.060939252 0.074840367 4.6958436e-39
0.57440722 -0.063439257 0.077340364 5.9869524e-39
0.57440722 -0.063439257 0.079840362 3.3165414e-39
0.57440722 -0.060939252 0.077340364 4.7887595e-39
0.57690722 -0.063439257 0.077340364 3.9593926e-39
0.57690722 -0.063439257 0.079840362 3.1285572e-39
0.57690722 -0.060939252 0.077340364 5.0657052e-39
0.57440722 -0.058439255 0.072340362 3.4097908e-39
0.57440722 -0.058439255 0.074840367 3.4991179e-39
0.57440722 -0.055939253 0.074840367 3.1335948e-39
0.57690722 -0.058439255 0.072340362 3.5026955e-39
0.57690722 -0.058439255 0.074840367 4.0529924e-39
0.57690722 -0.055939253 0.072340362 3.9600961e-39
0.57690722 -0.055939253 0.074840367 3.5938373e-39
0.57440722 -0.058439255 0.077340364 4.603648e-39
0.57440722 -0.055939253 0.077340364 3.6863861e-39
0.57690722 -0.058439255 0.077340364 5.3419319e-39
0.57940722 -0.060939252 0.074840367 5.6188789e-39
0.58190721 -0.063439257 0.074840367 4.87557e-39
0.58190721 -0.060939252 0.074840367 4.6097815e-39
0.57940722 -0.063439257 0.077340364 3.9604464e-39
0.57940722 -0.060939252 0.077340364 5.342285e-39
0.57940722 -0.058439255 0.074840367 5.3419319e-39
0.57940722 -0.055939253 0.072340362 4.0522917e-39
0.57940722 -0.055939253 0.074840367 3.8679005e-39
0.58190721 -0.058439255 0.072340362 4.2366886e-39
0.58190721 -0.058439255 0.074840367 4.1470055e-39
0.58190721 -0.055939253 0.072340362 3.5027375e-39
0.58190721 -0.055939253 0.074840367 3.6863861e-39
0.57940722 -0.058439255 0.077340364 4.2402605e-39
0.57940722 -0.055939253 0.077340364 2.947033e-39
0.58190721 -0.055939253 0.077340364 1.2903885e-39
0.58190721 -0.053439252 0.067340367 3.9593926e-39
0.58190721 -0.053439252 0.069840364 3.3179861e-39
0.57690722 -0.053439252 0.072340362 4.5103986e-39
0.57940722 -0.053439252 0.072340362 3.5027305e-39
0.57940722 -0.053439252 0.074840367 3.502034e-39
0.58190721 -0.053439252 0.072340362 8.2941034e-40
0.58190721 -0.053439252 0.074840367 6.4396251e-40
0.58440721 -0.063439257 0.074840367 4.6911773e-39
0.58440721 -0.060939252 0.074840367 6.0784446e-39
0.58690721 -0.063439257 0.074840367 5.3426774e-39
0.58690721 -0.060939252 0.074840367 5.1608029e-39
0.58690721 -0.063439257 0.077340364 4.9738627e-39
0.58690721 -0.060939252 0.077340364 5.1582861e-39
0.58440721 -0.058439255 0.074840367 1.751717e-39
0.58440721 -0.055939253 0.072340362 2.7633522e-39
0.58440721 -0.055939253 0.074840367 2.026492e-39
0.58690721 -0.058439255 0.072340362 2.6736733e-39
0.58690721 -0.058439255 0.074840367 3.0406635e-39
0.58690721 -0.055939253 0.072340362 1.1985432e-39
0.58690721 -0.055939253 0.074840367 1.4726133e-39
0.58690721 -0.055939253 0.077340364 1.6530389e-39
0.58940721 -0.063439257 0.074840367 4.9738627e-39
0.58940721 -0.060939252 0.072340362 5.0660905e-39
0.58940721 -0.060939252 0.074840367 4.6079836e-39
0.5919072 -0.063439257 0.072340362 4.6079808e-39
0.5919072 -0.063439257 0.074840367 5.3440843e-39
0.5919072 -0.060939252 0.072340362 4.0548098e-39
0.5919072 -0.060939252 0.074840367 2.3963773e-39
0.58940721 -0.063439257 0.077340364 5.0671429e-39
0.58940721 -0.060939252 0.077340364 2.7655158e-39
0.58940721 -0.058439255 0.072340362 3.7757048e-39
0.58940721 -0.058439255 0.074840367 3.5016361e-39
0.58940721 -0.055939253 0.072340362 1.8367099e-39
0.58940721 -0.055939253 0.074840367 0
0.5919072 -0.058439255 0.072340362 3.2253981e-39
0.5919072 -0.058439255 0.074840367 2.489282e-39
0.5919072 -0.055939253 0.072340362 0
0.5919072 -0.055939253 0.074840367 5.4182943e-39
0.58440721 -0.053439252 0.069840364 3.5027305e-39
0.58440721 -0.053439252 0.072340362 0
0.58440721 -0.053439252 0.074840367 1.9285454e-39
0.58690721 -0.053439252 0.072340362 1.0101905e-39
0.58690721 -0.053439252 0.074840367 4.5932097e-39
0.5969072 -0.083439253 0.064840361 7.735473e-39
0.5969072 -0.080939256 0.064840361 7.258726e-43
0.5944072 -0.080939256 0.069840364 0
0.5969072 -0.083439253 0.067340367 1.7448884e-39
0.5969072 -0.083439253 0.069840364 0
0.5969072 -0.080939256 0.067340367 0
0.5969072 -0.080939256 0.069840364 3.1342983e-39
0.5944072 -0.078439251 0.069840364 3.5920226e-39
0.5969072 -0.078439251 0.067340367 3.7760551e-39
0.5969072 -0.078439251 0.069840364 4.1448377e-39
0.5969072 -0.075939253 0.069840364 3.868248e-39
0.60190719 -0.083439253 0.064840361 2.0176118e-38
0.60190719 -0.080939256 0.064840361 0
0.5994072 -0.083439253 0.067340367 0
0.5994072 -0.083439253 0.069840364 0
0.5994072 -0.080939256 0.067340367 0
0.5994072 -0.080939256 0.069840364 4.5139705e-39
0.60190719 -0.083439253 0.067340367 0
0.60190719 -0.083439253 0.069840364 0
0.60190719 -0.080939256 0.067340367 1.934309e-39
0.60190719 -0.080939256 0.069840364 3.8686011e-39
0.5994072 -0.078439251 0.064840361 3.5913136e-39
0.5994072 -0.078439251 0.067340367 3.7757048e-39
0.5994072 -0.078439251 0.069840364 3.8707675e-39
0.5944072 -0.083439253 0.072340362 3.5873241e-43
0.5944072 -0.080939256 0.072340362 2.2112532e-39
0.5944072 -0.078439251 0.072340362 4.0529924e-39
0.5944072 -0.075939253 0.072340362 3.9611527e-39
0.5944072 -0.075939253 0.074840367 3.684193e-39
0.5969072 -0.078439251 0.072340362 3.8707675e-39
0.5969072 -0.075939253 0.072340362 3.2264519e-39
0.5969072 -0.075939253 0.074840367 2.8580295e-39
0.5969072 -0.075939253 0.077340364 4.237392e-39
0.5994072 -0.083439253 0.072340362 2.9484623e-39
0.5994072 -0.080939256 0.072340362 4.5139705e-39
0.60190719 -0.083439253 0.072340362 2.7633522e-39
0.60190719 -0.083439253 0.074840367 2.7604613e-39
0.60190719 -0.080939256 0.072340362 4.5139705e-39
0.60190719 -0.080939256 0.074840367 4.6061661e-39
0.60190719 -0.080939256 0.077340364 4.2366886e-39
0.5994072 -0.078439251 0.072340362 4.1473558e-39
0.5994072 -0.075939253 0.072340362 3.8685983e-39
0.5994072 -0.075939253 0.074840367 3.7764013e-39
0.60190719 -0.078439251 0.072340362 4.5132699e-39
0.60190719 -0.078439251 0.074840367 4.6979988e-39
0.60190719 -0.075939253 0.074840367 3.4976704e-39
0.5994072 -0.075939253 0.077340364 4.4214246e-39
0.60190719 -0.078439251 0.077340364 4.9734773e-39
0.60190719 -0.075939253 0.077340364 3.5920226e-39
0.5944072 -0.073439255 0.072340362 3.3147267e-39
0.5944072 -0.073439255 0.074840367 3.3147267e-39
0.5944072 -0.07093925 0.072340362 3.3175951e-39
0.5944072 -0.07093925 0.074840367 3.7757048e-39
0.5969072 -0.073439255 0.074840367 2.6711551e-39
0.5969072 -0.07093925 0.074840367 3.3143735e-39
0.5969072 -0.073439255 0.077340364 4.4207211e-39
0.5969072 -0.07093925 0.077340364 5.1571693e-39
0.5944072 -0.068439253 0.074840367 4.7909105e-39
0.5944072 -0.065939255 0.074840367 5.5266777e-39
0.5969072 -0.068439253 0.074840367 3.7753517e-39
0.5969072 -0.065939255 0.074840367 5.7107242e-39
0.5944072 -0.068439253 0.077340364 4.6958436e-39
0.5944072 -0.065939255 0.077340364 5.1568218e-39
0.5969072 -0.068439253 0.077340364 4.6036662e-39
0.5969072 -0.065939255 0.077340364 4.5129167e-39
0.5994072 -0.073439255 0.074840367 5.0660905e-39
0.5994072 -0.07093925 0.074840367 4.9724501e-39
0.60190719 -0.073439255 0.074840367 5.2490356e-39
0.60190719 -0.07093925 0.074840367 5.3433809e-39
0.5994072 -0.073439255 0.077340364 4.5132699e-39
0.5994072 -0.07093925 0.077340364 5.8951057e-39
0.60190719 -0.073439255 0.077340364 4.6025942e-39
0.60190719 -0.07093925 0.077340364 4.6043669e-39
0.5994072 -0.068439253 0.074840367 4.2348851e-39
0.5994072 -0.065939255 0.074840367 5.7114599e-39
0.60190719 -0.068439253 0.074840367 4.6980114e-39
0.60190719 -0.065939255 0.074840367 4.4228721e-39
0.5994072 -0.068439253 0.077340364 5.0657052e-39
0.5994072 -0.065939255 0.077340364 4.9731592e-39
0.60190719 -0.068439253 0.077340364 5.3419319e-39
0.60190719 -0.065939255 0.077340364 5.2511852e-39
0.60440719 -0.083439253 0.067340367 0
0.60440719 -0.083439253 0.069840364 2.9484623e-39
0.60440719 -0.080939256 0.069840364 4.1448377e-39
0.60440719 -0.083439253 0.072340362 2.3027201e-39
0.60440719 -0.080939256 0.072340362 4.7902071e-39
0.60440719 -0.080939256 0.074840367 4.6980114e-39
0.60440719 -0.080939256 0.077340364 3.4976886e-39
0.60440719 -0.078439251 0.074840367 5.0660331e-39
0.60440719 -0.075939253 0.074840367 3.2221597e-39
0.60440719 -0.078439251 0.077340364 4.0529924e-39
0.60440719 -0.078439251 0.079840362 3.5945408e-39
0.60440719 -0.075939253 0.077340364 4.697308e-39
0.60440719 -0.075939253 0.079840362 4.0529924e-39
0.60690719 -0.075939253 0.079840362 0
0.60940719 -0.075939253 0.077340364 0
0.60940719 -0.075939253 0.079840362 4.2244328e-39
0.60440719 -0.073439255 0.074840367 4.1416175e-39
0.60440719 -0.073439255 0.077340364 4.3263521e-39
0.60440719 -0.073439255 0.079840362 5.9869524e-39
0.60440719 -0.07093925 0.077340364 5.3390677e-39
0.60440719 -0.07093925 0.079840362 6.1691969e-39
0.60690719 -0.073439255 0.079840362 0
0.60690719 -0.07093925 0.077340364 6.8174319e-39
0.60690719 -0.07093925 0.079840362 4.9731592e-39
0.60440719 -0.068439253 0.074840367 5.1586393e-39
0.60440719 -0.065939255 0.074840367 5.0671429e-39
0.60690719 -0.065939255 0.074840367 4.7880589e-39
0.60440719 -0.068439253 0.077340364 6.0794984e-39
0.60440719 -0.065939255 0.077340364 5.3419319e-39
0.60690719 -0.068439253 0.077340364 7.0918762e-39
0.60690719 -0.065939255 0.077340364 5.7060495e-39
0.60940719 -0.073439255 0.077340364 2.7640584e-39
0.60940719 -0.073439255 0.079840362 2.9387359e-39
0.60940719 -0.07093925 0.077340364 5.4337786e-39
0.60940719 -0.07093925 0.079840362 5.8882688e-39
0.61190724 -0.07093925 0.077340364 3.6834644e-39
0.61190724 -0.07093925 0.079840362 7.2618201e-39
0.60940719 -0.068439253 0.074840367 4.7880589e-39
0.60940719 -0.065939255 0.074840367 4.4214246e-39
0.61190724 -0.068439253 0.074840367 4.8799014e-39
0.61190724 -0.065939255 0.074840367 3.869348e-39
0.60940719 -0.068439253 0.077340364 7.5499677e-39
0.60940719 -0.068439253 0.079840362 1.4012985e-45
0.60940719 -0.065939255 0.077340364 3.7775027e-39
0.61190724 -0.068439253 0.077340364 2.479571e-39
0.61190724 -0.068439253 0.079840362 2.217339e-39
0.61190724 -0.065939255 0.077340364 0
0.5969072 -0.060939252 0.069840364 2.3963773e-39
0.5969072 -0.058439255 0.069840364 5.4182943e-39
0.5969072 -0.055939253 0.069840364 5.7856363e-39
0.5994072 -0.060939252 0.069840364 2.6708048e-39
0.5994072 -0.058439255 0.069840364 2.1122164e-39
0.5994072 -0.055939253 0.069840364 6.8083823e-39
0.60190719 -0.055939253 0.069840364 1.4180074e-38
0.5944072 -0.063439257 0.072340362 3.967296e-39
0.5944072 -0.063439257 0.074840367 5.5266777e-39
0.5944072 -0.060939252 0.072340362 2.0311877e-39
0.5944072 -0.060939252 0.074840367 3.2243457e-39
0.5969072 -0.063439257 0.072340362 4.7916714e-39
0.5969072 -0.063439257 0.074840367 4.8820524e-39
0.5969072 -0.060939252 0.072340362 3.3165414e-39
0.5969072 -0.060939252 0.074840367 3.959743e-39
0.5944072 -0.058439255 0.072340362 2.3970864e-39
0.5944072 -0.055939253 0.072340362 5.4182943e-39
0.5969072 -0.058439255 0.072340362 1.1985432e-39
0.5969072 -0.055939253 0.072340362 6.6236352e-39
0.5994072 -0.063439257 0.072340362 3.4097964e-39
0.5994072 -0.063439257 0.074840367 4.2366886e-39
0.5994072 -0.060939252 0.072340362 3.2250478e-39
0.5994072 -0.060939252 0.074840367 3.2246947e-39
0.60190719 -0.063439257 0.074840367 2.9473833e-39
0.60190719 -0.060939252 0.072340362 1.7491988e-39
0.60190719 -0.060939252 0.074840367 2.9473833e-39
0.5994072 -0.063439257 0.077340364 4.0522917e-39
0.60190719 -0.063439257 0.077340364 4.1455467e-39
0.60190719 -0.060939252 0.077340364 0
0.5994072 -0.058439255 0.072340362 1.9285454e-39
0.5994072 -0.055939253 0.072340362 1.381165e-38
0.60190719 -0.058439255 0.072340362 0
0.60190719 -0.058439255 0.074840367 6.4284847e-39
0.60190719 -0.055939253 0.072340362 1.8060883e-38
0.60190719 -0.055939253 0.074840367 2.101086e-38
0.60440719 -0.063439257 0.074840367 4.0529924e-39
0.60440719 -0.060939252 0.072340362 1.7448744e-39
0.60440719 -0.060939252 0.074840367 0
0.60690719 -0.063439257 0.074840367 4.0508442e-39
0.60440719 -0.063439257 0.077340364 3.9586345e-39
0.60440719 -0.063439257 0.079840362 2.3938592e-39
0.60440719 -0.060939252 0.077340364 0
0.60690719 -0.063439257 0.077340364 4.3270611e-39
0.60440719 -0.058439255 0.072340362 8.0076248e-39
0.60440719 -0.055939253 0.072340362 2.0734994e-38
0.60940719 -0.063439257 0.074840367 3.9604464e-39
0.61190724 -0.063439257 0.074840367 2.1176324e-39
0.60940719 -0.063439257 0.077340364 1.8413945e-39
0.61440724 -0.068439253 0.074840367 2.1129605e-39
0.61440724 -0.065939255 0.074840367 0
0.61690724 -0.068439253 0.074840367 8.5788375e-39
0.61690724 -0.065939255 0.074840367 1.4746962e-38
0.61440724 -0.068439253 0.077340364 0
0.61440724 -0.065939255 0.077340364 0
0.61940724 -0.065939255 0.072340362 1.493065e-38
0.61940724 -0.065939255 0.074840367 1.4838086e-38
0.61440724 -0.063439257 0.072340362 1.8410441e-39
0.61440724 -0.063439257 0.074840367 0
0.61690724 -0.063439257 0.072340362 3.9532563e-39
0.61690724 -0.063439257 0.074840367 0
0.61940724 -0.063439257 0.072340362 2.8469172e-39
0.61940724 -0.063439257 0.074840367 2.0643167e-38
0.60440719 -0.075939253 0.08234036 0
