# .PCD v0.7 - Point Cloud Data file format
VERSION 0.7
FIELDS x y z rgb
SIZE 4 4 4 4
TYPE F F F F
COUNT 1 1 1 1
WIDTH 448
HEIGHT 1
VIEWPOINT 0 0 0 1 0 0 0
POINTS 448
DATA ascii
0.57099956 -0.068497106 0.058611166 3.1321333e-39
0.57099956 -0.065997109 0.058611166 1.8413945e-39
0.57349956 -0.065997109 0.058611166 7.3899016e-40
0.57099956 -0.075997107 0.068611167 6.4487153e-39
0.57349956 -0.075997107 0.06611117 8.2000034e-39
0.57349956 -0.075997107 0.068611167 4.6980114e-39
0.56849957 -0.075997107 0.07361117 5.0697031e-39
0.57099956 -0.075997107 0.071111165 5.4395422e-39
0.57099956 -0.075997107 0.07361117 3.3189922e-39
0.57349956 -0.075997107 0.071111165 1.0177477e-39
0.57349956 -0.075997107 0.07361117 1.6577025e-39
0.56849957 -0.073497109 0.06611117 4.235604e-39
0.56849957 -0.073497109 0.068611167 3.6848993e-39
0.56849957 -0.070997104 0.06611117 3.4980389e-39
0.56849957 -0.070997104 0.068611167 3.5909408e-39
0.56849957 -0.068497106 0.06611117 3.3143553e-39
0.56849957 -0.068497106 0.068611167 3.3143553e-39
0.57099956 -0.073497109 0.063611165 2.9484623e-39
0.57099956 -0.070997104 0.063611165 2.9484623e-39
0.57349956 -0.073497109 0.061111167 6.4540416e-39
0.57349956 -0.070997104 0.061111167 1.3836407e-39
0.57099956 -0.073497109 0.06611117 3.0410167e-39
0.57099956 -0.073497109 0.068611167 3.4083264e-39
0.57099956 -0.070997104 0.06611117 2.9484623e-39
0.57099956 -0.070997104 0.068611167 3.7753517e-39
0.57349956 -0.073497109 0.06611117 3.3154119e-39
0.57349956 -0.073497109 0.068611167 9.5432629e-41
0.57349956 -0.070997104 0.06611117 4.1448377e-39
0.57099956 -0.068497106 0.063611165 3.6809827e-39
0.57349956 -0.068497106 0.061111167 2.9491685e-39
0.57349956 -0.065997109 0.061111167 1.3811226e-39
0.57349956 -0.065997109 0.063611165 2.118689e-39
0.57099956 -0.068497106 0.06611117 3.3143553e-39
0.57099956 -0.068497106 0.068611167 3.2218122e-39
0.57099956 -0.065997109 0.06611117 1.8413945e-39
0.57099956 -0.065997109 0.068611167 2.4845806e-39
0.57349956 -0.068497106 0.06611117 2.9452001e-39
0.57349956 -0.065997109 0.06611117 2.115445e-39
0.56599957 -0.073497109 0.071111165 3.685258e-39
0.56599957 -0.070997104 0.071111165 3.9600961e-39
0.56849957 -0.073497109 0.071111165 2.3909515e-39
0.56849957 -0.073497109 0.07361117 9.2125985e-40
0.56849957 -0.070997104 0.071111165 3.7753517e-39
0.56849957 -0.070997104 0.07361117 3.7757048e-39
0.56849957 -0.068497106 0.071111165 3.1310192e-39
0.56849957 -0.065997109 0.071111165 2.6700453e-39
0.57099956 -0.073497109 0.071111165 1.1056385e-39
0.57099956 -0.073497109 0.07361117 1.8449664e-39
0.57099956 -0.070997104 0.071111165 3.3172448e-39
0.57099956 -0.070997104 0.07361117 4.0529924e-39
0.57349956 -0.073497109 0.071111165 2.155197e-42
0.57349956 -0.073497109 0.07361117 3.0417145e-39
0.57349956 -0.070997104 0.071111165 3.4097908e-39
0.57349956 -0.070997104 0.07361117 3.5016361e-39
0.57099956 -0.068497106 0.071111165 3.4998242e-39
0.57099956 -0.068497106 0.07361117 3.7764013e-39
0.57099956 -0.065997109 0.071111165 3.0388236e-39
0.57099956 -0.065997109 0.07361117 3.4079789e-39
0.57349956 -0.068497106 0.071111165 3.8682508e-39
0.57349956 -0.068497106 0.07361117 3.7760551e-39
0.57349956 -0.065997109 0.07361117 4.3281401e-39
0.57349956 -0.068497106 0.076111168 3.4069223e-39
0.57349956 -0.068497106 0.078611165 3.1306857e-39
0.57349956 -0.065997109 0.076111168 3.9607967e-39
0.57349956 -0.065997109 0.078611165 3.8682508e-39
0.56849957 -0.063497111 0.071111165 1.3811226e-39
0.57099956 -0.063497111 0.071111165 2.3027201e-39
0.57099956 -0.063497111 0.07361117 2.8519507e-39
0.57099956 -0.060997106 0.07361117 2.4835269e-39
0.57349956 -0.063497111 0.071111165 2.4835269e-39
0.57349956 -0.063497111 0.07361117 3.219294e-39
0.57349956 -0.060997106 0.071111165 2.4835269e-39
0.57349956 -0.060997106 0.07361117 3.1306857e-39
0.57349956 -0.063497111 0.076111168 4.3270611e-39
0.57349956 -0.063497111 0.078611165 5.434873e-39
0.57349956 -0.060997106 0.076111168 3.7767516e-39
0.57349956 -0.058497109 0.07361117 3.8682508e-39
0.57349956 -0.055997107 0.07361117 3.2246947e-39
0.57349956 -0.058497109 0.076111168 3.5923701e-39
0.57349956 -0.055997107 0.076111168 3.9600961e-39
0.57599956 -0.070997104 0.058611166 1.9361082e-39
0.57849956 -0.070997104 0.058611166 3.7760523e-39
0.57599956 -0.068497106 0.058611166 3.1296151e-39
0.57599956 -0.065997109 0.058611166 1.6566445e-39
0.57849956 -0.068497106 0.058611166 2.4878176e-39
0.57849956 -0.065997109 0.058611166 1.6577025e-39
0.58099955 -0.065997109 0.058611166 1.7495464e-39
0.57849956 -0.075997107 0.068611167 2.392748e-39
0.58099955 -0.078497104 0.068611167 1.9350516e-39
0.58099955 -0.075997107 0.068611167 9.5082305e-41
0.57599956 -0.078497104 0.071111165 1.0879049e-38
0.57599956 -0.078497104 0.07361117 6.0845612e-39
0.57599956 -0.075997107 0.071111165 1.8449664e-39
0.57599956 -0.075997107 0.07361117 1.3829344e-39
0.57849956 -0.078497104 0.071111165 1.1095944e-39
0.57849956 -0.078497104 0.07361117 5.5571433e-40
0.57849956 -0.075997107 0.071111165 2.8866748e-42
0.57849956 -0.075997107 0.07361117 2.155197e-42
0.58349955 -0.080997109 0.071111165 1.5012401e-38
0.58099955 -0.078497104 0.071111165 3.4973075e-39
0.58099955 -0.078497104 0.07361117 1.4765552e-39
0.58099955 -0.075997107 0.071111165 1.9357579e-39
0.58099955 -0.075997107 0.07361117 1.6609479e-39
0.58349955 -0.078497104 0.071111165 9.1835496e-41
0.58349955 -0.078497104 0.07361117 6.4284847e-40
0.58349955 -0.075997107 0.071111165 2.0283039e-39
0.58349955 -0.075997107 0.07361117 2.9495189e-39
0.58099955 -0.075997107 0.076111168 3.2250478e-39
0.57849956 -0.073497109 0.068611167 3.4990955e-39
0.57599956 -0.065997109 0.061111167 1.3811226e-39
0.58099955 -0.073497109 0.068611167 2.8569729e-39
0.57599956 -0.073497109 0.071111165 3.22251e-39
0.57599956 -0.073497109 0.07361117 3.5920226e-39
0.57599956 -0.070997104 0.07361117 3.8675473e-39
0.57849956 -0.073497109 0.071111165 3.7760551e-39
0.57849956 -0.073497109 0.07361117 3.8686011e-39
0.57849956 -0.070997104 0.07361117 3.4069223e-39
0.57849956 -0.070997104 0.076111168 2.9484371e-39
0.57599956 -0.068497106 0.07361117 3.037767e-39
0.57849956 -0.068497106 0.07361117 2.5789595e-39
0.57849956 -0.065997109 0.07361117 3.9604464e-39
0.57599956 -0.068497106 0.076111168 2.7615529e-39
0.57599956 -0.065997109 0.076111168 3.8679005e-39
0.57599956 -0.065997109 0.078611165 3.3136701e-39
0.57849956 -0.068497106 0.076111168 2.6711551e-39
0.57849956 -0.065997109 0.076111168 2.1176324e-39
0.57849956 -0.065997109 0.078611165 3.1289131e-39
0.58099955 -0.073497109 0.071111165 4.8809734e-39
0.58099955 -0.073497109 0.07361117 4.1458971e-39
0.58099955 -0.070997104 0.07361117 3.4069223e-39
0.58349955 -0.073497109 0.071111165 3.9604464e-39
0.58349955 -0.073497109 0.07361117 4.6029474e-39
0.58349955 -0.070997104 0.071111165 3.3140078e-39
0.58349955 -0.070997104 0.07361117 3.7760551e-39
0.58099955 -0.070997104 0.076111168 3.1321333e-39
0.58099955 -0.068497106 0.07361117 2.3016636e-39
0.58349955 -0.068497106 0.07361117 3.2218122e-39
0.58349955 -0.065997109 0.071111165 2.759755e-39
0.58349955 -0.065997109 0.07361117 5.0664436e-39
0.58099955 -0.068497106 0.076111168 2.5789595e-39
0.58099955 -0.065997109 0.076111168 2.7611633e-39
0.59099954 -0.080997109 0.068611167 4.2038954e-45
0.59099954 -0.078497104 0.068611167 1.3814869e-39
0.58599955 -0.080997109 0.07361117 3.5873241e-43
0.58849955 -0.080997109 0.076111168 0
0.58599955 -0.078497104 0.071111165 6.4357014e-40
0.58599955 -0.078497104 0.07361117 1.1967411e-39
0.58599955 -0.075997107 0.07361117 3.9604464e-39
0.58849955 -0.075997107 0.07361117 3.8679005e-39
0.58599955 -0.078497104 0.076111168 3.1303354e-39
0.58599955 -0.075997107 0.076111168 3.8682508e-39
0.58849955 -0.075997107 0.076111168 4.4199854e-39
0.59099954 -0.080997109 0.07361117 0
0.59099954 -0.078497104 0.071111165 3.5938317e-39
0.59099954 -0.078497104 0.07361117 4.052642e-39
0.59099954 -0.075997107 0.071111165 4.236683e-39
0.59099954 -0.075997107 0.07361117 3.7760551e-39
0.59349954 -0.078497104 0.071111165 3.3172448e-39
0.59349954 -0.078497104 0.07361117 3.6867364e-39
0.59349954 -0.075997107 0.07361117 3.3175783e-39
0.58599955 -0.073497109 0.071111165 4.1430258e-39
0.58599955 -0.073497109 0.07361117 4.1426895e-39
0.58599955 -0.070997104 0.071111165 2.9484623e-39
0.58599955 -0.070997104 0.07361117 3.130313e-39
0.58849955 -0.073497109 0.07361117 3.4991179e-39
0.58849955 -0.070997104 0.071111165 3.1274586e-39
0.58849955 -0.070997104 0.07361117 3.0381174e-39
0.58849955 -0.073497109 0.076111168 3.3143553e-39
0.58849955 -0.070997104 0.076111168 3.6824302e-39
0.58599955 -0.068497106 0.071111165 4.5125664e-39
0.58599955 -0.068497106 0.07361117 4.2348851e-39
0.58599955 -0.065997109 0.07361117 4.882058e-39
0.58849955 -0.068497106 0.071111165 4.0497736e-39
0.58849955 -0.068497106 0.07361117 4.5129167e-39
0.58849955 -0.065997109 0.07361117 4.0519386e-39
0.58599955 -0.065997109 0.076111168 4.9731592e-39
0.58849955 -0.068497106 0.076111168 2.8537485e-39
0.58849955 -0.065997109 0.076111168 3.4097908e-39
0.59099954 -0.073497109 0.071111165 3.9579283e-39
0.59099954 -0.073497109 0.07361117 3.4069223e-39
0.59099954 -0.070997104 0.071111165 2.7647773e-39
0.59099954 -0.070997104 0.07361117 2.8533758e-39
0.59349954 -0.073497109 0.07361117 3.0409914e-39
0.59349954 -0.070997104 0.07361117 3.7757048e-39
0.59099954 -0.070997104 0.076111168 3.5009326e-39
0.59349954 -0.070997104 0.076111168 3.6867364e-39
0.59099954 -0.068497106 0.07361117 2.7590488e-39
0.59099954 -0.065997109 0.07361117 3.5913136e-39
0.59349954 -0.068497106 0.07361117 5.3423271e-39
0.59349954 -0.065997109 0.07361117 3.9600961e-39
0.59099954 -0.068497106 0.076111168 4.6994758e-39
0.59099954 -0.065997109 0.076111168 4.0501239e-39
0.59349954 -0.068497106 0.076111168 4.9767718e-39
0.59349954 -0.065997109 0.076111168 5.2500894e-39
0.57599956 -0.063497111 0.058611166 1.7495464e-39
0.57599956 -0.058497109 0.058611166 1.472263e-39
0.57599956 -0.055997107 0.058611166 1.472263e-39
0.58099955 -0.063497111 0.058611166 1.7495464e-39
0.58349955 -0.063497111 0.058611166 1.7495464e-39
0.58349955 -0.055997107 0.058611166 7.5574885e-39
0.57599956 -0.053497106 0.058611166 1.011631e-39
0.57599956 -0.050997108 0.058611166 1.6570004e-39
0.57849956 -0.050997108 0.058611166 1.2896919e-38
0.58349955 -0.053497106 0.058611166 9.3095656e-39
0.58849955 -0.060997106 0.058611166 2.2994957e-39
0.58599955 -0.055997107 0.058611166 6.8195829e-39
0.58849955 -0.058497109 0.058611166 3.1296151e-39
0.58849955 -0.055997107 0.058611166 5.1593399e-39
0.58599955 -0.053497106 0.058611166 6.268214e-39
0.59099954 -0.053497106 0.058611166 3.9593926e-39
0.58099955 -0.058497109 0.068611167 3.8682508e-39
0.58099955 -0.055997107 0.068611167 2.9524336e-39
0.57599956 -0.060997106 0.07361117 3.5920226e-39
0.57849956 -0.060997106 0.07361117 4.4203357e-39
0.57599956 -0.063497111 0.076111168 5.341583e-39
0.57599956 -0.063497111 0.078611165 4.0504742e-39
0.57599956 -0.060997106 0.076111168 4.7887595e-39
0.57849956 -0.063497111 0.076111168 3.3139812e-39
0.57849956 -0.063497111 0.078611165 3.3133044e-39
0.57849956 -0.060997106 0.076111168 5.5266833e-39
0.57849956 -0.060997106 0.078611165 5.6199327e-39
0.57599956 -0.058497109 0.07361117 3.7764013e-39
0.57599956 -0.055997107 0.07361117 3.5913136e-39
0.57849956 -0.058497109 0.07361117 3.8679005e-39
0.57849956 -0.055997107 0.07361117 3.9600961e-39
0.57599956 -0.058497109 0.076111168 4.1455467e-39
0.57599956 -0.055997107 0.076111168 4.1444873e-39
0.57849956 -0.058497109 0.076111168 5.3419319e-39
0.57849956 -0.055997107 0.076111168 3.6867364e-39
0.58349955 -0.063497111 0.07361117 4.1419706e-39
0.58099955 -0.063497111 0.076111168 3.5938317e-39
0.58099955 -0.063497111 0.078611165 3.957578e-39
0.58099955 -0.060997106 0.076111168 5.3455487e-39
0.58099955 -0.060997106 0.078611165 5.2508349e-39
0.58349955 -0.063497111 0.076111168 4.8802545e-39
0.58349955 -0.060997106 0.076111168 5.8040087e-39
0.58099955 -0.058497109 0.07361117 4.0548098e-39
0.58099955 -0.055997107 0.071111165 3.869362e-39
0.58099955 -0.055997107 0.07361117 3.8704172e-39
0.58349955 -0.058497109 0.07361117 1.8439126e-39
0.58349955 -0.055997107 0.071111165 3.9637086e-39
0.58349955 -0.055997107 0.07361117 3.1346738e-39
0.58099955 -0.058497109 0.076111168 4.2406136e-39
0.58099955 -0.055997107 0.076111168 2.8569729e-39
0.58349955 -0.058497109 0.076111168 3.0392342e-39
0.58349955 -0.055997107 0.076111168 1.4740791e-39
0.58099955 -0.053497106 0.068611167 3.1364647e-39
0.58349955 -0.053497106 0.068611167 3.7793174e-39
0.58349955 -0.050997108 0.068611167 5.6145209e-39
0.57599956 -0.053497106 0.07361117 3.7753517e-39
0.57849956 -0.053497106 0.07361117 3.871513e-39
0.57849956 -0.053497106 0.076111168 1.1056385e-39
0.58099955 -0.053497106 0.071111165 3.7793174e-39
0.58099955 -0.053497106 0.07361117 3.871513e-39
0.58349955 -0.053497106 0.071111165 3.9615576e-39
0.58349955 -0.053497106 0.07361117 0
0.58349955 -0.050997108 0.071111165 3.2142424e-39
0.58849955 -0.055997107 0.061111167 4.3270863e-39
0.58599955 -0.063497111 0.07361117 4.6040166e-39
0.58599955 -0.060997106 0.07361117 6.263189e-39
0.58849955 -0.063497111 0.07361117 4.6965625e-39
0.58849955 -0.060997106 0.07361117 4.8827614e-39
0.58599955 -0.063497111 0.076111168 4.4214246e-39
0.58599955 -0.060997106 0.076111168 5.434873e-39
0.58849955 -0.063497111 0.076111168 3.6867364e-39
0.58849955 -0.060997106 0.076111168 4.7920218e-39
0.58599955 -0.058497109 0.07361117 2.7647773e-39
0.58599955 -0.055997107 0.07361117 1.3829344e-39
0.58849955 -0.058497109 0.07361117 3.7760551e-39
0.58849955 -0.055997107 0.071111165 1.1985432e-39
0.58849955 -0.055997107 0.07361117 0
0.58599955 -0.058497109 0.076111168 2.9481176e-39
0.58599955 -0.055997107 0.076111168 1.9285454e-39
0.58849955 -0.058497109 0.076111168 3.3136575e-39
0.58849955 -0.055997107 0.076111168 9.1835496e-41
0.59099954 -0.063497111 0.07361117 4.6076305e-39
0.59099954 -0.060997106 0.07361117 3.8700641e-39
0.59349954 -0.063497111 0.07361117 5.5274218e-39
0.59349954 -0.060997106 0.071111165 4.1470055e-39
0.59349954 -0.060997106 0.07361117 2.3963773e-39
0.59099954 -0.063497111 0.076111168 5.5274218e-39
0.59349954 -0.063497111 0.076111168 5.8933331e-39
0.59099954 -0.058497109 0.071111165 3.7760551e-39
0.59099954 -0.058497109 0.07361117 2.9484623e-39
0.59099954 -0.055997107 0.071111165 0
0.59099954 -0.055997107 0.07361117 0
0.59349954 -0.058497109 0.07361117 2.7640584e-39
0.59349954 -0.055997107 0.07361117 5.4182943e-39
0.58599955 -0.053497106 0.061111167 6.268214e-39
0.58599955 -0.053497106 0.071111165 0
0.58599955 -0.053497106 0.07361117 1.8367099e-39
0.58849955 -0.053497106 0.07361117 5.7931696e-39
0.59599954 -0.080997109 0.068611167 0
0.59849954 -0.083497107 0.068611167 0
0.59849954 -0.080997109 0.06611117 0
0.59849954 -0.080997109 0.068611167 0
0.59599954 -0.078497104 0.068611167 3.5920226e-39
0.59849954 -0.078497104 0.06611117 4.0508442e-39
0.59849954 -0.078497104 0.068611167 4.1448377e-39
0.60099953 -0.083497107 0.06611117 0
0.60099953 -0.080997109 0.06611117 0
0.60099953 -0.080997109 0.068611167 3.6863861e-39
0.60349953 -0.083497107 0.068611167 9.5082305e-41
0.60349953 -0.080997109 0.068611167 3.7760551e-39
0.59599954 -0.083497107 0.071111165 1.4349296e-42
0.59599954 -0.080997109 0.071111165 2.2108973e-39
0.59849954 -0.083497107 0.071111165 5.5677091e-40
0.59849954 -0.080997109 0.071111165 4.5139705e-39
0.59599954 -0.078497104 0.071111165 3.6867364e-39
0.59599954 -0.075997107 0.071111165 3.9611527e-39
0.59599954 -0.075997107 0.07361117 3.5919974e-39
0.59849954 -0.078497104 0.071111165 4.237392e-39
0.59849954 -0.075997107 0.071111165 3.7763887e-39
0.59849954 -0.075997107 0.07361117 3.6834868e-39
0.59849954 -0.075997107 0.076111168 4.237392e-39
0.60099953 -0.083497107 0.071111165 2.8562667e-39
0.60099953 -0.083497107 0.07361117 2.7608088e-39
0.60099953 -0.080997109 0.071111165 4.6962136e-39
0.60099953 -0.080997109 0.07361117 4.8806048e-39
0.60349953 -0.083497107 0.071111165 3.2221597e-39
0.60349953 -0.083497107 0.07361117 2.7604613e-39
0.60349953 -0.080997109 0.071111165 4.5139705e-39
0.60349953 -0.080997109 0.07361117 4.6054655e-39
0.60349953 -0.080997109 0.076111168 1.5630097e-39
0.60099953 -0.078497104 0.071111165 4.5136202e-39
0.60099953 -0.078497104 0.07361117 4.4210742e-39
0.60099953 -0.075997107 0.07361117 3.7764013e-39
0.60349953 -0.078497104 0.071111165 4.1444873e-39
0.60349953 -0.078497104 0.07361117 4.6050941e-39
0.60349953 -0.075997107 0.07361117 2.5800287e-39
0.60099953 -0.075997107 0.076111168 2.3959976e-39
0.60349953 -0.078497104 0.076111168 4.7887483e-39
0.60349953 -0.078497104 0.078611165 3.8679005e-39
0.60349953 -0.075997107 0.076111168 3.4094404e-39
0.60349953 -0.075997107 0.078611165 5.0664436e-39
0.59599954 -0.073497109 0.07361117 3.1299627e-39
0.59599954 -0.070997104 0.07361117 2.6708048e-39
0.59599954 -0.073497109 0.076111168 3.7757048e-39
0.59599954 -0.070997104 0.076111168 3.037767e-39
0.59849954 -0.073497109 0.076111168 4.6058158e-39
0.59849954 -0.070997104 0.076111168 4.6976611e-39
0.59599954 -0.065997109 0.07361117 6.0777257e-39
0.59849954 -0.065997109 0.07361117 5.7114543e-39
0.59599954 -0.068497106 0.076111168 3.6853295e-39
0.59599954 -0.065997109 0.076111168 5.342285e-39
0.59849954 -0.068497106 0.076111168 4.1444873e-39
0.59849954 -0.065997109 0.076111168 4.7895036e-39
0.60099953 -0.073497109 0.076111168 4.2387961e-39
0.60099953 -0.070997104 0.076111168 5.4355765e-39
0.60349953 -0.073497109 0.076111168 3.4079789e-39
0.60349953 -0.073497109 0.078611165 5.2490174e-39
0.60349953 -0.070997104 0.076111168 4.1455467e-39
0.60349953 -0.070997104 0.078611165 4.8813237e-39
0.60099953 -0.065997109 0.07361117 4.6969423e-39
0.60099953 -0.068497106 0.076111168 4.8827614e-39
0.60099953 -0.065997109 0.076111168 5.6171161e-39
0.60349953 -0.068497106 0.076111168 5.1593399e-39
0.60349953 -0.068497106 0.078611165 6.8174319e-39
0.60349953 -0.065997109 0.076111168 5.1582861e-39
0.60349953 -0.065997109 0.078611165 4.5136202e-39
0.60599953 -0.083497107 0.071111165 2.7604613e-39
0.60599953 -0.080997109 0.071111165 4.6058158e-39
0.60599953 -0.080997109 0.07361117 4.4210742e-39
0.60599953 -0.078497104 0.07361117 4.5143208e-39
0.60599953 -0.075997107 0.07361117 3.7760551e-39
0.60599953 -0.078497104 0.076111168 4.1448377e-39
0.60599953 -0.075997107 0.076111168 4.7923749e-39
0.60599953 -0.075997107 0.078611165 3.4097908e-39
0.60849953 -0.075997107 0.076111168 4.052642e-39
0.60849953 -0.075997107 0.078611165 0
0.60599953 -0.073497109 0.078611165 5.4362855e-39
0.60599953 -0.070997104 0.076111168 5.7114277e-39
0.60599953 -0.070997104 0.078611165 6.0805956e-39
0.60849953 -0.073497109 0.078611165 0
0.60849953 -0.070997104 0.076111168 6.8174319e-39
0.60849953 -0.070997104 0.078611165 5.4334087e-39
0.60599953 -0.068497106 0.076111168 7.0918762e-39
0.60599953 -0.068497106 0.078611165 7.1840719e-39
0.60599953 -0.065997109 0.076111168 4.971018e-39
0.60849953 -0.068497106 0.076111168 7.0004093e-39
0.60849953 -0.068497106 0.078611165 3.9615436e-39
0.60849953 -0.065997109 0.076111168 4.6954933e-39
0.61099952 -0.073497109 0.078611165 3.1224069e-39
0.61099952 -0.070997104 0.078611165 4.7865973e-39
0.61099952 -0.065997109 0.07361117 4.237392e-39
0.61349958 -0.065997109 0.07361117 3.4112383e-39
0.61099952 -0.068497106 0.076111168 1.6530684e-39
0.61099952 -0.068497106 0.078611165 4.4185785e-39
0.61099952 -0.065997109 0.076111168 3.869348e-39
0.61099952 -0.065997109 0.078611165 1.3800674e-39
0.61349958 -0.068497106 0.076111168 9.1835496e-41
0.61349958 -0.065997109 0.076111168 0
0.59849954 -0.058497109 0.068611167 2.4867639e-39
0.59849954 -0.055997107 0.068611167 5.4182943e-39
0.59599954 -0.063497111 0.07361117 5.2490356e-39
0.59599954 -0.060997106 0.071111165 2.5789595e-39
0.59599954 -0.060997106 0.07361117 3.4090873e-39
0.59849954 -0.063497111 0.07361117 4.4210742e-39
0.59849954 -0.060997106 0.071111165 2.6736733e-39
0.59849954 -0.060997106 0.07361117 3.0413642e-39
0.59599954 -0.063497111 0.076111168 4.7898568e-39
0.59849954 -0.063497111 0.076111168 3.0410167e-39
0.59599954 -0.058497109 0.071111165 1.8413945e-39
0.59599954 -0.058497109 0.07361117 1.1063476e-39
0.59599954 -0.055997107 0.071111165 0
0.59849954 -0.058497109 0.071111165 1.1985432e-39
0.59849954 -0.058497109 0.07361117 0
0.59849954 -0.055997107 0.071111165 6.9009353e-39
0.60099953 -0.063497111 0.07361117 3.8679005e-39
0.60099953 -0.060997106 0.07361117 3.5913136e-39
0.60349953 -0.063497111 0.07361117 4.2348851e-39
0.60349953 -0.060997106 0.07361117 2.3909725e-39
0.60099953 -0.063497111 0.076111168 4.0522917e-39
0.60099953 -0.060997106 0.076111168 1.7484898e-39
0.60349953 -0.063497111 0.076111168 4.603648e-39
0.60349953 -0.063497111 0.078611165 6.2448137e-39
0.60349953 -0.060997106 0.076111168 0
0.60349953 -0.060997106 0.078611165 0
0.60099953 -0.058497109 0.071111165 2.0203809e-39
0.60099953 -0.058497109 0.07361117 0
0.60349953 -0.058497109 0.071111165 1.7448744e-39
0.60349953 -0.058497109 0.07361117 8.3778366e-39
0.60099953 -0.058497109 0.076111168 8.008701e-39
0.60599953 -0.060997106 0.07361117 1.1938615e-39
0.60599953 -0.063497111 0.076111168 3.7764013e-39
0.60599953 -0.060997106 0.076111168 0
0.60849953 -0.063497111 0.076111168 3.9579283e-39
0.61099952 -0.063497111 0.07361117 3.7760551e-39
0.61349958 -0.063497111 0.07361117 2.0254368e-39
0.61099952 -0.063497111 0.076111168 2.026492e-39
0.61599958 -0.068497106 0.076111168 8.7625281e-39
0.61599958 -0.065997109 0.076111168 0
0.61599958 -0.063497111 0.071111165 7.3468397e-40
0.61599958 -0.063497111 0.07361117 0
0.61849958 -0.063497111 0.071111165 3.7688651e-39
0.61849958 -0.063497111 0.07361117 3.8610635e-39
0.61849958 -0.060997106 0.071111165 1.833578e-38
0.61599958 -0.063497111 0.076111168 0
0.62099957 -0.063497111 0.07361117 2.0459498e-38
0.62099957 -0.060997106 0.07361117 2.2025735e-38
0.57349956 -0.065997109 0.081111163 3.4958978e-39
0.57349956 -0.063497111 0.081111163 4.4174939e-39
0.57599956 -0.065997109 0.081111163 2.8530044e-39
0.57599956 -0.063497111 0.081111163 3.3136575e-39
0.60349953 -0.075997107 0.081111163 4.1455467e-39
0.60599953 -0.075997107 0.081111163 0
0.60599953 -0.073497109 0.081111163 1.8367099e-40
0.60849953 -0.070997104 0.081111163 4.6976065e-39
