# .PCD v0.7 - Point Cloud Data file format
VERSION 0.7
FIELDS x y z rgb
SIZE 4 4 4 4
TYPE F F F F
COUNT 1 1 1 1
WIDTH 455
HEIGHT 1
VIEWPOINT 0 0 0 1 0 0 0
POINTS 455
DATA ascii
0.58158928 0.053095564 0.060565785 1.4095094e-38
0.58158928 0.053095564 0.063065782 4.3198556e-39
0.58158928 0.053095564 0.065565787 3.7656141e-39
0.58158928 0.053095564 0.068065785 3.2142424e-39
0.58408928 0.053095564 0.065565787 3.2142424e-39
0.58408928 0.053095564 0.068065785 4.5917748e-39
0.58158928 0.053095564 0.070565782 4.2244328e-39
0.58408928 0.053095564 0.070565782 3.3060779e-39
0.58408928 0.053095564 0.073065788 2.9387359e-39
0.58658928 0.053095564 0.070565782 2.8469004e-39
0.58658928 0.053095564 0.073065788 3.3060779e-39
0.59158927 0.053095564 0.070565782 1.8510788e-38
0.59158927 0.053095564 0.073065788 1.8785936e-38
0.59408927 0.053095564 0.073065788 2.1272676e-38
0.57908928 0.068095565 0.058065783 8.279544e-40
0.57908928 0.07309556 0.058065783 7.3504691e-40
0.57908928 0.06559556 0.060565785 2.1179828e-39
0.57908928 0.068095565 0.060565785 2.0250809e-39
0.57908928 0.070595562 0.060565785 2.0254368e-39
0.57908928 0.07309556 0.060565785 1.3800674e-39
0.57908928 0.07309556 0.063065782 1.7491988e-39
0.57908928 0.075595565 0.058065783 7.361189e-40
0.57908928 0.078095563 0.058065783 2.0225361e-39
0.57908928 0.08059556 0.058065783 2.2072875e-39
0.57908928 0.083095565 0.058065783 1.4697267e-39
0.57908928 0.085595563 0.058065783 2.2072875e-39
0.57908928 0.088095561 0.058065783 2.2987769e-39
0.57658929 0.090595566 0.058065783 6.4396251e-40
0.57658929 0.093095563 0.058065783 1.2929038e-39
0.57908928 0.090595566 0.058065783 1.9361082e-39
0.57908928 0.093095563 0.058065783 3.6237578e-42
0.57908928 0.075595565 0.060565785 1.1963726e-39
0.57908928 0.075595565 0.063065782 1.8413945e-39
0.57908928 0.078095563 0.060565785 1.6562941e-39
0.57908928 0.08059556 0.060565785 1.6562941e-39
0.57908928 0.08059556 0.063065782 2.1176324e-39
0.57908928 0.083095565 0.060565785 1.6562941e-39
0.57908928 0.083095565 0.063065782 1.7495464e-39
0.57908928 0.08059556 0.065565787 1.2885682e-39
0.57908928 0.08059556 0.068065785 1.1031204e-39
0.57908928 0.083095565 0.065565787 1.0119841e-39
0.57908928 0.083095565 0.068065785 8.279544e-40
0.57658929 0.088095561 0.060565785 2.118689e-39
0.57658929 0.088095561 0.063065782 2.0257857e-39
0.57908928 0.085595563 0.060565785 2.2987769e-39
0.57908928 0.085595563 0.063065782 1.8413945e-39
0.57908928 0.088095561 0.060565785 1.6570004e-39
0.57908928 0.088095561 0.063065782 2.1179828e-39
0.57658929 0.088095561 0.065565787 1.7491988e-39
0.57908928 0.085595563 0.065565787 1.2878704e-39
0.57908928 0.085595563 0.068065785 1.011631e-39
0.57908928 0.088095561 0.065565787 1.6566445e-39
0.57908928 0.088095561 0.068065785 1.3800674e-39
0.57658929 0.090595566 0.060565785 2.4835269e-39
0.57658929 0.090595566 0.063065782 1.7491988e-39
0.57658929 0.093095563 0.060565785 1.9317768e-39
0.57658929 0.093095563 0.063065782 1.4751525e-39
0.57908928 0.090595566 0.060565785 2.759755e-39
0.57908928 0.090595566 0.063065782 2.0257829e-39
0.57908928 0.093095563 0.060565785 9.2484297e-40
0.57908928 0.093095563 0.063065782 1.749196e-39
0.57658929 0.090595566 0.065565787 1.8413945e-39
0.57658929 0.093095563 0.065565787 0
0.57908928 0.090595566 0.065565787 1.6566445e-39
0.57908928 0.090595566 0.068065785 1.7491988e-39
0.57908928 0.093095563 0.065565787 1.6570004e-39
0.57908928 0.093095563 0.068065785 0
0.58408928 0.055595562 0.058065783 2.8469004e-39
0.58408928 0.058095563 0.058065783 2.3906222e-39
0.58408928 0.060595565 0.058065783 3.037767e-39
0.58408928 0.063095562 0.058065783 2.3027201e-39
0.58158928 0.06559556 0.058065783 1.3811226e-39
0.58158928 0.068095565 0.058065783 1.1963726e-39
0.58408928 0.06559556 0.058065783 2.0257829e-39
0.58158928 0.070595562 0.058065783 1.7484898e-39
0.58158928 0.07309556 0.058065783 1.3793611e-39
0.58158928 0.055595562 0.060565785 3.4000658e-39
0.58158928 0.055595562 0.063065782 9.1848108e-41
0.58158928 0.058095563 0.060565785 2.1172821e-39
0.58158928 0.058095563 0.063065782 2.7590488e-39
0.58408928 0.055595562 0.060565785 4.5918589e-40
0.58408928 0.055595562 0.063065782 4.2276614e-39
0.58408928 0.058095563 0.060565785 2.3938592e-39
0.58408928 0.058095563 0.063065782 2.3935089e-39
0.58158928 0.055595562 0.065565787 9.8090893e-45
0.58158928 0.055595562 0.068065785 1.6530571e-39
0.58158928 0.058095563 0.065565787 2.0250865e-39
0.58158928 0.058095563 0.068065785 2.2072875e-39
0.58408928 0.055595562 0.065565787 8.2654609e-40
0.58408928 0.055595562 0.068065785 1.744894e-39
0.58408928 0.058095563 0.065565787 1.3793611e-39
0.58408928 0.058095563 0.068065785 2.2994831e-39
0.58158928 0.060595565 0.060565785 2.3945654e-39
0.58158928 0.060595565 0.063065782 2.3027201e-39
0.58158928 0.063095562 0.060565785 2.1179828e-39
0.58158928 0.063095562 0.063065782 2.1179828e-39
0.58408928 0.060595565 0.060565785 2.667558e-39
0.58408928 0.060595565 0.063065782 2.3020139e-39
0.58408928 0.063095562 0.060565785 2.3027201e-39
0.58408928 0.063095562 0.063065782 2.118689e-39
0.58158928 0.060595565 0.065565787 1.1077741e-39
0.58158928 0.060595565 0.068065785 2.2994831e-39
0.58158928 0.063095562 0.065565787 1.7495464e-39
0.58158928 0.063095562 0.068065785 1.2885682e-39
0.58408928 0.060595565 0.065565787 2.2987769e-39
0.58408928 0.060595565 0.068065785 2.6679055e-39
0.58408928 0.063095562 0.065565787 1.6573507e-39
0.58408928 0.063095562 0.068065785 1.7495464e-39
0.58158928 0.055595562 0.070565782 1.4693749e-39
0.58158928 0.058095563 0.070565782 2.7575844e-39
0.58408928 0.055595562 0.070565782 2.6665e-39
0.58408928 0.055595562 0.073065788 1.8392239e-39
0.58408928 0.058095563 0.070565782 2.4838744e-39
0.58408928 0.058095563 0.073065788 3.0352503e-39
0.58158928 0.060595565 0.070565782 2.667558e-39
0.58158928 0.063095562 0.070565782 2.6679055e-39
0.58408928 0.060595565 0.070565782 2.7604613e-39
0.58408928 0.060595565 0.073065788 2.6689859e-39
0.58408928 0.063095562 0.070565782 2.3916788e-39
0.58408928 0.063095562 0.073065788 2.6689859e-39
0.58658928 0.055595562 0.070565782 2.0229187e-39
0.58658928 0.055595562 0.073065788 1.5630097e-39
0.58658928 0.058095563 0.070565782 2.8533758e-39
0.58658928 0.058095563 0.073065788 3.8686011e-39
0.58908927 0.055595562 0.073065788 1.0105492e-39
0.58908927 0.058095563 0.073065788 4.0522917e-39
0.58908927 0.058095563 0.075565785 4.6043669e-39
0.58658928 0.060595565 0.070565782 3.037767e-39
0.58658928 0.060595565 0.073065788 4.0529924e-39
0.58658928 0.063095562 0.070565782 2.759755e-39
0.58658928 0.063095562 0.073065788 3.2218122e-39
0.58908927 0.060595565 0.073065788 4.603648e-39
0.58908927 0.063095562 0.073065788 4.1430398e-39
0.58908927 0.060595565 0.075565785 4.7880393e-39
0.58908927 0.063095562 0.075565785 3.8682508e-39
0.58158928 0.06559556 0.060565785 1.8413945e-39
0.58158928 0.06559556 0.063065782 1.8413945e-39
0.58158928 0.068095565 0.060565785 1.8413945e-39
0.58158928 0.068095565 0.063065782 1.8413945e-39
0.58408928 0.06559556 0.063065782 1.5673257e-39
0.58408928 0.068095565 0.063065782 1.7495464e-39
0.58158928 0.06559556 0.065565787 1.4726133e-39
0.58158928 0.06559556 0.068065785 1.3804163e-39
0.58158928 0.068095565 0.065565787 1.3804163e-39
0.58158928 0.068095565 0.068065785 1.1960251e-39
0.58408928 0.06559556 0.065565787 1.3804163e-39
0.58408928 0.06559556 0.068065785 1.7495464e-39
0.58408928 0.068095565 0.065565787 1.2885682e-39
0.58408928 0.068095565 0.068065785 1.7495464e-39
0.58158928 0.070595562 0.060565785 2.0254368e-39
0.58158928 0.070595562 0.063065782 1.7491988e-39
0.58158928 0.07309556 0.060565785 2.1179828e-39
0.58158928 0.07309556 0.063065782 1.7491988e-39
0.58408928 0.07309556 0.063065782 1.6566445e-39
0.58158928 0.070595562 0.065565787 1.3811226e-39
0.58158928 0.070595562 0.068065785 1.6534075e-39
0.58158928 0.07309556 0.065565787 1.2882179e-39
0.58158928 0.07309556 0.068065785 1.2882179e-39
0.58408928 0.070595562 0.065565787 1.1960251e-39
0.58408928 0.070595562 0.068065785 1.838505e-39
0.58408928 0.07309556 0.065565787 1.1963726e-39
0.58408928 0.07309556 0.068065785 2.1143856e-39
0.58658928 0.07309556 0.065565787 1.4726133e-39
0.58658928 0.07309556 0.068065785 2.1150919e-39
0.58158928 0.06559556 0.070565782 1.6573507e-39
0.58158928 0.068095565 0.070565782 1.7495464e-39
0.58408928 0.06559556 0.070565782 1.7491988e-39
0.58408928 0.06559556 0.073065788 2.8526569e-39
0.58408928 0.068095565 0.070565782 2.2072875e-39
0.58408928 0.068095565 0.073065788 2.7604613e-39
0.58158928 0.070595562 0.070565782 1.4733196e-39
0.58408928 0.070595562 0.070565782 2.1143856e-39
0.58408928 0.07309556 0.070565782 2.2065813e-39
0.58658928 0.06559556 0.070565782 3.1296151e-39
0.58658928 0.06559556 0.073065788 3.2214619e-39
0.58658928 0.068095565 0.070565782 3.037767e-39
0.58658928 0.068095565 0.073065788 3.4076286e-39
0.58908927 0.06559556 0.073065788 3.8679005e-39
0.58908927 0.068095565 0.073065788 5.1568218e-39
0.58908927 0.06559556 0.075565785 4.3270611e-39
0.58908927 0.068095565 0.075565785 4.9724305e-39
0.58658928 0.070595562 0.070565782 2.9459217e-39
0.58658928 0.070595562 0.073065788 3.22251e-39
0.58658928 0.07309556 0.070565782 2.667558e-39
0.58658928 0.07309556 0.073065788 3.3143553e-39
0.58908927 0.070595562 0.070565782 3.2221597e-39
0.58908927 0.070595562 0.073065788 3.4079789e-39
0.58908927 0.07309556 0.070565782 3.3143553e-39
0.58908927 0.07309556 0.073065788 3.5923701e-39
0.59158927 0.055595562 0.070565782 4.3162683e-39
0.59158927 0.055595562 0.073065788 9.1835496e-40
0.59158927 0.058095563 0.073065788 4.8806048e-39
0.59408927 0.055595562 0.073065788 6.7976204e-39
0.59408927 0.058095563 0.070565782 4.603648e-39
0.59408927 0.058095563 0.073065788 3.4973075e-39
0.59408927 0.055595562 0.075565785 8.0883396e-39
0.59408927 0.058095563 0.075565785 3.6816889e-39
0.59158927 0.060595565 0.073065788 4.603648e-39
0.59158927 0.063095562 0.073065788 4.0501239e-39
0.59408927 0.060595565 0.073065788 4.3270611e-39
0.59408927 0.063095562 0.073065788 3.3143553e-39
0.59158927 0.060595565 0.075565785 4.5136202e-39
0.59158927 0.063095562 0.075565785 3.5880541e-39
0.59158927 0.063095562 0.078065783 3.7731657e-39
0.59408927 0.060595565 0.075565785 2.7608088e-39
0.59408927 0.060595565 0.078065783 1.1024197e-39
0.59408927 0.063095562 0.075565785 3.037767e-39
0.59408927 0.063095562 0.078065783 2.3917362e-39
0.59658927 0.055595562 0.073065788 7.8160617e-39
0.59658927 0.058095563 0.073065788 2.7572369e-39
0.59908932 0.055595562 0.073065788 1.6530389e-39
0.59908932 0.058095563 0.073065788 1.3775324e-39
0.59658927 0.055595562 0.075565785 2.6700453e-39
0.59658927 0.058095563 0.075565785 7.3468397e-40
0.59658927 0.058095563 0.078065783 4.5917748e-40
0.59908932 0.055595562 0.075565785 2.7586858e-39
0.59908932 0.058095563 0.075565785 2.0211194e-39
0.59658927 0.060595565 0.073065788 2.2080064e-39
0.59658927 0.063095562 0.073065788 3.4962271e-39
0.59908932 0.060595565 0.073065788 7.0064923e-45
0.59658927 0.060595565 0.075565785 1.3825841e-39
0.59658927 0.060595565 0.078065783 3.2221597e-39
0.59658927 0.063095562 0.075565785 3.2218122e-39
0.59658927 0.063095562 0.078065783 3.2221597e-39
0.59908932 0.060595565 0.075565785 1.1978397e-39
0.59908932 0.063095562 0.075565785 0
0.59158927 0.06559556 0.073065788 3.7760551e-39
0.59158927 0.068095565 0.073065788 1.7491988e-39
0.59158927 0.06559556 0.075565785 3.0348804e-39
0.59158927 0.06559556 0.078065783 3.588773e-39
0.59158927 0.068095565 0.075565785 4.696194e-39
0.59408927 0.06559556 0.075565785 2.7608088e-39
0.59408927 0.06559556 0.078065783 2.3020139e-39
0.59408927 0.068095565 0.075565785 2.3906222e-39
0.59158927 0.070595562 0.073065788 1.6577025e-39
0.59158927 0.07309556 0.070565782 3.3150742e-39
0.59158927 0.07309556 0.073065788 2.9491713e-39
0.59408927 0.070595562 0.073065788 1.3778912e-39
0.59408927 0.07309556 0.073065788 3.1299627e-39
0.59158927 0.070595562 0.075565785 3.5927205e-39
0.59158927 0.07309556 0.075565785 3.3175951e-39
0.59408927 0.070595562 0.075565785 2.115445e-39
0.59408927 0.07309556 0.075565785 2.5789595e-39
0.59658927 0.07309556 0.075565785 3.4072726e-39
0.58158928 0.075595565 0.058065783 1.6562941e-39
0.58158928 0.078095563 0.058065783 1.6562941e-39
0.58158928 0.08059556 0.058065783 1.6562941e-39
0.58158928 0.083095565 0.058065783 2.1143856e-39
0.58408928 0.08059556 0.058065783 1.8410441e-39
0.58158928 0.085595563 0.058065783 1.8413945e-39
0.58158928 0.088095561 0.058065783 2.0257857e-39
0.58158928 0.075595565 0.060565785 1.8410441e-39
0.58158928 0.075595565 0.063065782 1.7491988e-39
0.58158928 0.078095563 0.060565785 1.8410441e-39
0.58158928 0.078095563 0.063065782 1.7491988e-39
0.58408928 0.075595565 0.063065782 1.6566445e-39
0.58408928 0.078095563 0.063065782 1.6566445e-39
0.58158928 0.075595565 0.065565787 1.1960251e-39
0.58158928 0.075595565 0.068065785 1.3811226e-39
0.58158928 0.078095563 0.065565787 1.1960251e-39
0.58158928 0.078095563 0.068065785 1.2885682e-39
0.58408928 0.075595565 0.065565787 1.2882179e-39
0.58408928 0.075595565 0.068065785 1.6566445e-39
0.58408928 0.078095563 0.065565787 1.1038294e-39
0.58408928 0.078095563 0.068065785 1.6566445e-39
0.58158928 0.08059556 0.060565785 1.841742e-39
0.58158928 0.08059556 0.063065782 1.472263e-39
0.58158928 0.083095565 0.063065782 1.7491988e-39
0.58408928 0.08059556 0.063065782 1.7491988e-39
0.58158928 0.08059556 0.065565787 1.1960251e-39
0.58158928 0.08059556 0.068065785 1.1960251e-39
0.58158928 0.083095565 0.065565787 1.1960251e-39
0.58158928 0.083095565 0.068065785 1.1960251e-39
0.58408928 0.08059556 0.068065785 1.6566445e-39
0.58408928 0.083095565 0.068065785 2.3916788e-39
0.58658928 0.075595565 0.068065785 2.759755e-39
0.58658928 0.078095563 0.068065785 2.5767903e-39
0.58408928 0.075595565 0.070565782 2.3909725e-39
0.58408928 0.078095563 0.070565782 2.2994831e-39
0.58158928 0.08059556 0.070565782 1.6566445e-39
0.58158928 0.083095565 0.070565782 1.7491988e-39
0.58408928 0.08059556 0.070565782 2.0257829e-39
0.58408928 0.08059556 0.073065788 2.8533758e-39
0.58408928 0.083095565 0.070565782 2.1179828e-39
0.58408928 0.083095565 0.073065788 3.0370608e-39
0.58658928 0.075595565 0.070565782 2.759755e-39
0.58658928 0.075595565 0.073065788 3.6824302e-39
0.58658928 0.078095563 0.070565782 2.759755e-39
0.58658928 0.078095563 0.073065788 3.4076286e-39
0.58908927 0.075595565 0.070565782 3.4991179e-39
0.58908927 0.075595565 0.073065788 4.1444873e-39
0.58908927 0.078095563 0.070565782 3.4076286e-39
0.58908927 0.078095563 0.073065788 4.1455439e-39
0.58908927 0.078095563 0.078065783 1.6562969e-39
0.58658928 0.08059556 0.070565782 3.2218122e-39
0.58658928 0.08059556 0.073065788 2.9484623e-39
0.58658928 0.083095565 0.070565782 2.9491685e-39
0.58658928 0.083095565 0.073065788 3.4065692e-39
0.58908927 0.08059556 0.070565782 2.9484623e-39
0.58908927 0.08059556 0.073065788 3.4069223e-39
0.58908927 0.083095565 0.073065788 3.5913136e-39
0.58908927 0.08059556 0.075565785 3.4076286e-39
0.58908927 0.08059556 0.078065783 1.7484898e-39
0.58908927 0.083095565 0.075565785 3.9582968e-39
0.58908927 0.083095565 0.078065783 1.2892843e-39
0.58158928 0.085595563 0.063065782 1.7491988e-39
0.58158928 0.088095561 0.063065782 1.7491988e-39
0.58158928 0.085595563 0.065565787 1.1960223e-39
0.58158928 0.085595563 0.068065785 1.2882179e-39
0.58158928 0.088095561 0.065565787 1.2882207e-39
0.58158928 0.088095561 0.068065785 1.6566445e-39
0.58408928 0.085595563 0.068065785 2.2072875e-39
0.58408928 0.088095561 0.068065785 1.8413917e-39
0.58158928 0.090595566 0.063065782 1.4726133e-39
0.58158928 0.093095563 0.063065782 1.7491988e-39
0.58158928 0.090595566 0.065565787 1.4726133e-39
0.58158928 0.090595566 0.068065785 1.6566445e-39
0.58158928 0.093095563 0.065565787 1.6573507e-39
0.58158928 0.093095563 0.068065785 1.841742e-39
0.58408928 0.090595566 0.068065785 2.667558e-39
0.58408928 0.093095563 0.068065785 2.7604613e-39
0.58158928 0.085595563 0.070565782 2.2987769e-39
0.58158928 0.088095561 0.070565782 2.3909725e-39
0.58408928 0.085595563 0.070565782 2.759755e-39
0.58408928 0.085595563 0.073065788 2.5789595e-39
0.58408928 0.088095561 0.070565782 3.037767e-39
0.58408928 0.088095561 0.073065788 3.2218122e-39
0.58158928 0.090595566 0.070565782 2.759755e-39
0.58158928 0.090595566 0.073065788 3.1324808e-39
0.58158928 0.093095563 0.070565782 2.6679055e-39
0.58158928 0.093095563 0.073065788 1.1020302e-39
0.58408928 0.090595566 0.070565782 2.3949158e-39
0.58408928 0.090595566 0.073065788 3.3140078e-39
0.58408928 0.093095563 0.070565782 3.1292438e-39
0.58408928 0.093095563 0.073065788 3.4980263e-39
0.58408928 0.093095563 0.075565785 1.469389e-39
0.58658928 0.085595563 0.070565782 3.4987452e-39
0.58658928 0.085595563 0.073065788 3.5920226e-39
0.58658928 0.088095561 0.070565782 3.2228786e-39
0.58658928 0.088095561 0.073065788 3.5920226e-39
0.58908927 0.085595563 0.073065788 3.9604464e-39
0.58908927 0.088095561 0.073065788 3.2250478e-39
0.58908927 0.085595563 0.075565785 4.6040166e-39
0.58908927 0.085595563 0.078065783 8.2654609e-40
0.58908927 0.088095561 0.075565785 2.8569729e-39
0.58908927 0.088095561 0.078065783 1.65306e-39
0.58658928 0.090595566 0.070565782 3.5001773e-39
0.58658928 0.090595566 0.073065788 4.1419706e-39
0.58658928 0.093095563 0.070565782 4.1441146e-39
0.58658928 0.093095563 0.073065788 4.6058158e-39
0.58658928 0.093095563 0.075565785 3.4094278e-39
0.58908927 0.090595566 0.075565785 3.317242e-39
0.58908927 0.090595566 0.078065783 1.3814785e-39
0.58908927 0.093095563 0.075565785 3.593459e-39
0.58908927 0.093095563 0.078065783 1.3811366e-39
0.59158927 0.075595565 0.070565782 3.5913136e-39
0.59158927 0.075595565 0.073065788 4.0508246e-39
0.59158927 0.078095563 0.070565782 4.3263521e-39
0.59158927 0.078095563 0.073065788 5.0660303e-39
0.59408927 0.075595565 0.073065788 1.3804135e-39
0.59158927 0.075595565 0.075565785 4.0522917e-39
0.59158927 0.075595565 0.078065783 2.7633522e-39
0.59158927 0.078095563 0.075565785 4.4206609e-39
0.59158927 0.078095563 0.078065783 2.0268395e-39
0.59408927 0.075595565 0.075565785 1.1027728e-39
0.59408927 0.078095563 0.075565785 1.838505e-39
0.59408927 0.078095563 0.078065783 1.0101905e-39
0.59158927 0.08059556 0.073065788 1.8388763e-39
0.59158927 0.08059556 0.075565785 3.1310333e-39
0.59158927 0.08059556 0.078065783 1.1063476e-39
0.59158927 0.083095565 0.075565785 8.279544e-40
0.59158927 0.083095565 0.078065783 4.5917748e-40
0.59408927 0.08059556 0.075565785 1.3800674e-39
0.59408927 0.08059556 0.078065783 2.4795584e-39
0.59408927 0.083095565 0.078065783 1.6530389e-39
0.59658927 0.075595565 0.073065788 1.0119841e-39
0.59908932 0.075595565 0.073065788 2.5800133e-39
0.59908932 0.078095563 0.073065788 1.7495464e-39
0.59658927 0.075595565 0.075565785 2.7633522e-39
0.59158927 0.085595563 0.075565785 1.1027728e-39
0.59158927 0.085595563 0.078065783 0
0.59158927 0.088095561 0.075565785 2.759755e-39
0.59158927 0.088095561 0.078065783 8.2651947e-40
0.59408927 0.085595563 0.078065783 1.1938615e-39
0.59408927 0.088095561 0.075565785 2.3016636e-39
0.59408927 0.088095561 0.078065783 2.4795584e-39
0.59158927 0.090595566 0.075565785 2.0257857e-39
0.59158927 0.090595566 0.078065783 1.2856969e-39
0.59158927 0.093095563 0.075565785 5.5534159e-40
0.59158927 0.093095563 0.078065783 0
0.59408927 0.090595566 0.075565785 2.2123448e-39
0.59408927 0.093095563 0.078065783 0
0.59658927 0.085595563 0.078065783 1.0101905e-39
0.59658927 0.088095561 0.078065783 9.1835496e-40
0.59908932 0.088095561 0.075565785 1.5612034e-39
0.59658927 0.090595566 0.075565785 0
0.59908932 0.090595566 0.075565785 1.4693679e-39
0.58908927 0.075595565 0.08056578 2.2072875e-39
0.58908927 0.075595565 0.083065785 1.0101905e-39
0.58908927 0.078095563 0.08056578 2.3916788e-39
0.58908927 0.078095563 0.083065785 8.2651947e-40
0.59158927 0.08059556 0.08056578 1.8367099e-39
0.59158927 0.083095565 0.08056578 1.3775324e-39
0.59158927 0.085595563 0.08056578 9.1835496e-40
0.59158927 0.090595566 0.08056578 2.0203809e-39
0.59158927 0.093095563 0.08056578 2.7550649e-40
0.57658929 0.095595561 0.058065783 3.7789642e-39
0.57908928 0.095595561 0.058065783 4.3317849e-39
0.57908928 0.098095566 0.058065783 1.1519049e-38
0.57658929 0.095595561 0.060565785 0
0.57658929 0.095595561 0.063065782 7.0987076e-39
0.57658929 0.098095566 0.060565785 1.1702709e-38
0.57658929 0.098095566 0.063065782 1.1150984e-38
0.57908928 0.095595561 0.060565785 0
0.57908928 0.095595561 0.063065782 0
0.57908928 0.098095566 0.060565785 1.1056989e-38
0.57908928 0.098095566 0.063065782 9.6740419e-39
0.57658929 0.095595561 0.065565787 7.0965454e-39
0.57658929 0.095595561 0.068065785 6.4504571e-39
0.57658929 0.098095566 0.065565787 1.0319411e-38
0.57908928 0.095595561 0.065565787 9.1835496e-41
0.57908928 0.095595561 0.068065785 5.6163874e-39
0.57908928 0.098095566 0.065565787 1.0040652e-38
0.57908928 0.098095566 0.068065785 1.0685666e-38
0.57908928 0.095595561 0.070565782 6.7209301e-39
0.57908928 0.095595561 0.073065788 5.9855287e-39
0.58158928 0.098095566 0.058065783 1.1610163e-38
0.58158928 0.095595561 0.065565787 1.8367099e-40
0.58158928 0.095595561 0.068065785 1.8367099e-40
0.58158928 0.098095566 0.068065785 1.0316159e-38
0.58158928 0.095595561 0.070565782 1.8367099e-40
0.58158928 0.095595561 0.073065788 4.6947899e-39
0.58158928 0.098095566 0.070565782 1.059707e-38
0.58158928 0.098095566 0.073065788 1.1425755e-38
0.58408928 0.095595561 0.073065788 9.1835776e-40
0.58408928 0.098095566 0.070565782 1.9170185e-38
0.58408928 0.098095566 0.073065788 1.1885292e-38
0.58408928 0.095595561 0.075565785 5.155768e-39
0.58408928 0.095595561 0.078065783 5.6163874e-39
0.58408928 0.098095566 0.075565785 1.2070405e-38
0.58408928 0.098095566 0.078065783 1.2531025e-38
0.58658928 0.095595561 0.070565782 7.3469098e-40
0.58658928 0.095595561 0.073065788 1.928921e-39
0.58658928 0.098095566 0.070565782 1.9721565e-38
0.58658928 0.098095566 0.073065788 1.1425755e-38
0.58658928 0.095595561 0.075565785 8.2651947e-40
0.58658928 0.098095566 0.075565785 1.2715775e-38
0.58908927 0.095595561 0.075565785 8.2652647e-40
0.58908927 0.095595561 0.078065783 0
0.58908927 0.098095566 0.075565785 1.3637371e-38
0.59158927 0.095595561 0.073065788 0
0.59158927 0.098095566 0.073065788 5.0643305e-39
0.59158927 0.095595561 0.075565785 1.5414283e-44
0.59158927 0.095595561 0.078065783 6.4284847e-40
0.59408927 0.095595561 0.075565785 0
