# .PCD v0.7 - Point Cloud Data file format
VERSION 0.7
FIELDS x y z rgb
SIZE 4 4 4 4
TYPE F F F F
COUNT 1 1 1 1
WIDTH 443
HEIGHT 1
VIEWPOINT 0 0 0 1 0 0 0
POINTS 443
DATA ascii
0.57978308 0.06544102 0.059197318 1.1041783e-39
0.57978308 0.06544102 0.061697319 1.8413945e-39
0.57978308 0.067941017 0.05669732 8.279544e-40
0.57978308 0.067941017 0.059197318 1.1041783e-39
0.57978308 0.070441015 0.05669732 1.5619209e-39
0.57978308 0.070441015 0.059197318 1.6559466e-39
0.57728308 0.07294102 0.05669732 5.4348212e-39
0.57728308 0.07294102 0.059197318 1.4697267e-39
0.57978308 0.07294102 0.05669732 7.361189e-40
0.57978308 0.07294102 0.059197318 1.6562941e-39
0.57978308 0.075441018 0.05669732 8.279544e-40
0.57978308 0.075441018 0.059197318 1.6544739e-39
0.57978308 0.077941015 0.05669732 8.279544e-40
0.57978308 0.077941015 0.059197318 1.4697267e-39
0.57978308 0.08044102 0.05669732 1.4700854e-39
0.57978308 0.08044102 0.059197318 1.5622796e-39
0.57728308 0.085441016 0.05669732 2.7637081e-39
0.57978308 0.082941018 0.05669732 1.6544739e-39
0.57978308 0.082941018 0.059197318 2.5731932e-39
0.57978308 0.085441016 0.05669732 2.5731932e-39
0.57978308 0.085441016 0.059197318 2.1143856e-39
0.57978308 0.067941017 0.061697319 1.841742e-39
0.57978308 0.070441015 0.061697319 2.0254368e-39
0.57978308 0.070441015 0.064197317 1.7495464e-39
0.57728308 0.07294102 0.061697319 1.4715568e-39
0.57978308 0.07294102 0.061697319 2.0254368e-39
0.57978308 0.07294102 0.064197317 1.7495464e-39
0.57978308 0.075441018 0.061697319 2.0257829e-39
0.57978308 0.077941015 0.061697319 2.0257829e-39
0.57978308 0.08044102 0.061697319 2.0257829e-39
0.57978308 0.08044102 0.064197317 1.6573507e-39
0.57978308 0.08044102 0.066697322 1.2882207e-39
0.57728308 0.082941018 0.064197317 1.841742e-39
0.57728308 0.085441016 0.061697319 2.2062309e-39
0.57728308 0.085441016 0.064197317 1.841742e-39
0.57978308 0.082941018 0.061697319 2.0257857e-39
0.57978308 0.082941018 0.064197317 1.7495464e-39
0.57978308 0.085441016 0.061697319 2.0257829e-39
0.57978308 0.085441016 0.064197317 1.6573507e-39
0.57978308 0.082941018 0.066697322 1.3804163e-39
0.57978308 0.085441016 0.066697322 1.1041783e-39
0.57978308 0.085441016 0.069197319 1.4733196e-39
0.58228308 0.055441018 0.059197318 1.8367099e-40
0.58478308 0.052941017 0.059197318 1.437132e-38
0.58478308 0.055441018 0.05669732 9.1835496e-41
0.58478308 0.055441018 0.059197318 9.1835496e-41
0.58228308 0.05794102 0.059197318 2.5767903e-39
0.58228308 0.060441017 0.059197318 3.037767e-39
0.58478308 0.05794102 0.05669732 2.8526695e-39
0.58478308 0.05794102 0.059197318 3.0370608e-39
0.58478308 0.060441017 0.05669732 2.6689859e-39
0.58478308 0.060441017 0.059197318 2.759755e-39
0.58228308 0.062941015 0.059197318 2.3949158e-39
0.58228308 0.06544102 0.05669732 1.1041783e-39
0.58228308 0.06544102 0.059197318 2.118689e-39
0.58478308 0.062941015 0.059197318 2.1179828e-39
0.58478308 0.06544102 0.059197318 2.0257829e-39
0.58228308 0.052941017 0.061697319 1.4095094e-38
0.58228308 0.055441018 0.061697319 4.2312487e-39
0.58228308 0.055441018 0.064197317 3.4000658e-39
0.58478308 0.055441018 0.061697319 4.781903e-39
0.58478308 0.055441018 0.064197317 7.0064923e-45
0.58228308 0.052941017 0.066697322 2.9387359e-39
0.58228308 0.055441018 0.066697322 1.4012985e-45
0.58228308 0.055441018 0.069197319 1.3775465e-39
0.58478308 0.055441018 0.066697322 1.2857096e-39
0.58478308 0.055441018 0.069197319 2.2984294e-39
0.58478308 0.055441018 0.071697317 1.7456031e-39
0.58728307 0.052941017 0.071697317 1.5658486e-38
0.58728307 0.055441018 0.071697317 3.1224069e-39
0.58728307 0.055441018 0.074197322 3.3979134e-39
0.58978307 0.052941017 0.071697317 1.7129656e-38
0.58978307 0.055441018 0.071697317 3.3060779e-39
0.58978307 0.055441018 0.074197322 3.7652553e-39
0.58228308 0.05794102 0.061697319 2.3949158e-39
0.58228308 0.05794102 0.064197317 2.6689859e-39
0.58228308 0.060441017 0.061697319 2.8519507e-39
0.58228308 0.060441017 0.064197317 2.6689859e-39
0.58478308 0.05794102 0.061697319 3.1296151e-39
0.58478308 0.05794102 0.064197317 2.0250865e-39
0.58478308 0.060441017 0.061697319 2.4871114e-39
0.58478308 0.060441017 0.064197317 2.118689e-39
0.58228308 0.05794102 0.066697322 1.1056385e-39
0.58228308 0.05794102 0.069197319 2.4817416e-39
0.58228308 0.060441017 0.066697322 1.5673257e-39
0.58228308 0.060441017 0.069197319 2.6679055e-39
0.58478308 0.05794102 0.066697322 2.2998335e-39
0.58478308 0.05794102 0.069197319 2.4828206e-39
0.58478308 0.060441017 0.066697322 1.6573507e-39
0.58478308 0.060441017 0.069197319 2.6679055e-39
0.58228308 0.062941015 0.061697319 2.3020139e-39
0.58228308 0.062941015 0.064197317 1.8413945e-39
0.58228308 0.06544102 0.061697319 1.7491988e-39
0.58228308 0.06544102 0.064197317 1.7495464e-39
0.58478308 0.062941015 0.061697319 2.118689e-39
0.58478308 0.062941015 0.064197317 2.026492e-39
0.58478308 0.06544102 0.061697319 2.026492e-39
0.58478308 0.06544102 0.064197317 1.7495464e-39
0.58228308 0.062941015 0.066697322 1.1077741e-39
0.58228308 0.062941015 0.069197319 1.7495464e-39
0.58228308 0.06544102 0.066697322 1.4733196e-39
0.58228308 0.06544102 0.069197319 2.1150919e-39
0.58478308 0.062941015 0.066697322 1.4733196e-39
0.58478308 0.062941015 0.069197319 2.026492e-39
0.58478308 0.06544102 0.066697322 1.4733196e-39
0.58478308 0.06544102 0.069197319 2.3916788e-39
0.58478308 0.05794102 0.071697317 2.4835269e-39
0.58478308 0.060441017 0.071697317 2.8533758e-39
0.58478308 0.062941015 0.071697317 2.6679055e-39
0.58478308 0.06544102 0.071697317 2.6689859e-39
0.58728307 0.05794102 0.071697317 4.0508442e-39
0.58728307 0.05794102 0.074197322 4.052642e-39
0.58728307 0.060441017 0.071697317 3.4051104e-39
0.58728307 0.060441017 0.074197322 3.8686011e-39
0.58978307 0.05794102 0.071697317 4.052642e-39
0.58978307 0.05794102 0.074197322 4.6058158e-39
0.58978307 0.060441017 0.071697317 4.3281401e-39
0.58978307 0.060441017 0.074197322 4.8806048e-39
0.58728307 0.062941015 0.071697317 2.8533758e-39
0.58728307 0.062941015 0.074197322 3.8686011e-39
0.58728307 0.06544102 0.071697317 2.8537233e-39
0.58728307 0.06544102 0.074197322 4.0501239e-39
0.58978307 0.062941015 0.071697317 4.4196043e-39
0.58978307 0.062941015 0.074197322 4.3277898e-39
0.58978307 0.06544102 0.071697317 3.5923701e-39
0.58978307 0.06544102 0.074197322 3.7764013e-39
0.59228307 0.052941017 0.071697317 1.8324959e-38
0.59228307 0.052941017 0.074197322 1.9611733e-38
0.59228307 0.055441018 0.071697317 4.3162683e-39
0.59228307 0.055441018 0.074197322 4.6836103e-39
0.59478307 0.052941017 0.074197322 2.2009866e-38
0.59478307 0.055441018 0.071697317 6.5203202e-39
0.59478307 0.055441018 0.074197322 7.6309558e-39
0.59728307 0.055441018 0.074197322 2.4795584e-39
0.59728307 0.055441018 0.07669732 2.5728428e-39
0.59228307 0.05794102 0.071697317 4.0522917e-39
0.59228307 0.05794102 0.074197322 4.1441342e-39
0.59228307 0.060441017 0.071697317 4.7884092e-39
0.59228307 0.060441017 0.074197322 4.6058158e-39
0.59478307 0.05794102 0.071697317 3.5923701e-39
0.59478307 0.05794102 0.074197322 3.4962271e-39
0.59478307 0.060441017 0.071697317 4.3317527e-39
0.59478307 0.060441017 0.074197322 3.5948911e-39
0.59478307 0.060441017 0.07669732 4.6026909e-40
0.59228307 0.062941015 0.074197322 3.8682508e-39
0.59228307 0.06544102 0.074197322 3.8682508e-39
0.59478307 0.062941015 0.074197322 2.7630018e-39
0.59228307 0.062941015 0.07669732 3.0399377e-39
0.59228307 0.062941015 0.079197317 3.6853043e-39
0.59228307 0.06544102 0.07669732 2.5789595e-39
0.59228307 0.06544102 0.079197317 2.0257829e-39
0.59478307 0.062941015 0.07669732 1.8435623e-39
0.59478307 0.06544102 0.07669732 1.6609479e-39
0.59728307 0.05794102 0.071697317 3.588773e-39
0.59728307 0.05794102 0.074197322 1.8370687e-39
0.59728307 0.060441017 0.071697317 3.2257484e-39
0.59728307 0.060441017 0.074197322 9.1835496e-41
0.59978312 0.05794102 0.074197322 2.6639819e-39
0.59978312 0.060441017 0.074197322 6.4320721e-40
0.59728307 0.05794102 0.07669732 1.102026e-39
0.59728307 0.060441017 0.07669732 1.4740791e-39
0.59978312 0.05794102 0.07669732 2.1122164e-39
0.59978312 0.060441017 0.07669732 8.2651947e-40
0.59728307 0.062941015 0.074197322 6.4501908e-40
0.59728307 0.062941015 0.07669732 1.6548718e-39
0.59978312 0.062941015 0.07669732 0
0.58228308 0.067941017 0.05669732 1.3811226e-39
0.58228308 0.067941017 0.059197318 2.026492e-39
0.58228308 0.070441015 0.05669732 1.2885682e-39
0.58228308 0.070441015 0.059197318 1.841742e-39
0.58228308 0.07294102 0.05669732 1.6559466e-39
0.58228308 0.07294102 0.059197318 2.1179828e-39
0.58228308 0.075441018 0.05669732 1.472263e-39
0.58228308 0.075441018 0.059197318 2.1176324e-39
0.58228308 0.077941015 0.05669732 1.3811226e-39
0.58228308 0.077941015 0.059197318 1.8413917e-39
0.58228308 0.08044102 0.05669732 1.7484898e-39
0.58228308 0.08044102 0.059197318 2.0257829e-39
0.58228308 0.067941017 0.061697319 1.8413945e-39
0.58228308 0.067941017 0.064197317 1.7495464e-39
0.58228308 0.070441015 0.061697319 1.8413945e-39
0.58228308 0.070441015 0.064197317 1.7495464e-39
0.58478308 0.067941017 0.064197317 1.6566445e-39
0.58228308 0.067941017 0.066697322 1.3811226e-39
0.58228308 0.067941017 0.069197319 2.1150919e-39
0.58228308 0.070441015 0.066697322 1.3814785e-39
0.58228308 0.070441015 0.069197319 1.3804163e-39
0.58478308 0.067941017 0.066697322 2.1150919e-39
0.58478308 0.067941017 0.069197319 2.2994831e-39
0.58478308 0.070441015 0.066697322 2.0232508e-39
0.58478308 0.070441015 0.069197319 2.2072875e-39
0.58228308 0.07294102 0.061697319 1.8413945e-39
0.58228308 0.07294102 0.064197317 1.7495464e-39
0.58228308 0.075441018 0.061697319 1.8410441e-39
0.58228308 0.075441018 0.064197317 1.7491988e-39
0.58478308 0.07294102 0.064197317 1.1038294e-39
0.58478308 0.075441018 0.064197317 1.3804163e-39
0.58228308 0.07294102 0.066697322 1.1967313e-39
0.58228308 0.07294102 0.069197319 1.6566445e-39
0.58228308 0.075441018 0.066697322 1.1963726e-39
0.58228308 0.075441018 0.069197319 2.0225361e-39
0.58478308 0.07294102 0.066697322 1.3811226e-39
0.58478308 0.07294102 0.069197319 2.2072875e-39
0.58478308 0.075441018 0.066697322 2.0225361e-39
0.58478308 0.075441018 0.069197319 1.7495464e-39
0.58728307 0.070441015 0.069197319 2.8533758e-39
0.58728307 0.07294102 0.066697322 2.2072875e-39
0.58728307 0.07294102 0.069197319 2.6679055e-39
0.58728307 0.075441018 0.066697322 2.2994831e-39
0.58728307 0.075441018 0.069197319 2.5767903e-39
0.58978307 0.075441018 0.069197319 3.4069223e-39
0.58478308 0.067941017 0.071697317 2.7608088e-39
0.58478308 0.070441015 0.071697317 2.6679055e-39
0.58478308 0.07294102 0.071697317 2.7604613e-39
0.58728307 0.067941017 0.071697317 2.8533758e-39
0.58728307 0.067941017 0.074197322 4.0501239e-39
0.58728307 0.070441015 0.071697317 3.22251e-39
0.58728307 0.070441015 0.074197322 3.9586345e-39
0.58978307 0.067941017 0.071697317 3.7764013e-39
0.58978307 0.067941017 0.074197322 4.1448377e-39
0.58978307 0.070441015 0.071697317 3.5001745e-39
0.58978307 0.070441015 0.074197322 3.3175951e-39
0.58728307 0.07294102 0.071697317 2.9491685e-39
0.58728307 0.075441018 0.071697317 3.4076286e-39
0.58978307 0.07294102 0.071697317 3.3183e-39
0.58978307 0.07294102 0.074197322 3.5913136e-39
0.58978307 0.075441018 0.071697317 3.7764055e-39
0.58978307 0.075441018 0.074197322 3.7757048e-39
0.58228308 0.077941015 0.061697319 1.8413945e-39
0.58228308 0.077941015 0.064197317 1.6573507e-39
0.58228308 0.08044102 0.061697319 1.8413945e-39
0.58228308 0.08044102 0.064197317 1.6573507e-39
0.58478308 0.077941015 0.064197317 1.4729693e-39
0.58228308 0.077941015 0.066697322 1.1960251e-39
0.58228308 0.077941015 0.069197319 2.0225361e-39
0.58228308 0.08044102 0.066697322 7.3756504e-40
0.58228308 0.08044102 0.069197319 1.4733196e-39
0.58478308 0.077941015 0.066697322 2.0221886e-39
0.58478308 0.077941015 0.069197319 1.7495464e-39
0.58478308 0.08044102 0.066697322 1.3811226e-39
0.58478308 0.08044102 0.069197319 2.3916788e-39
0.58228308 0.082941018 0.064197317 1.2882179e-39
0.58228308 0.085441016 0.064197317 1.2885682e-39
0.58228308 0.082941018 0.066697322 1.2882179e-39
0.58228308 0.082941018 0.069197319 1.4733196e-39
0.58228308 0.085441016 0.066697322 1.2885682e-39
0.58228308 0.085441016 0.069197319 1.4733196e-39
0.58478308 0.082941018 0.069197319 2.2987769e-39
0.58478308 0.085441016 0.069197319 2.4835269e-39
0.58728307 0.077941015 0.066697322 1.7495464e-39
0.58728307 0.077941015 0.069197319 2.6689859e-39
0.58728307 0.08044102 0.066697322 2.2994831e-39
0.58728307 0.08044102 0.069197319 2.6689859e-39
0.58978307 0.077941015 0.069197319 3.6831364e-39
0.58228308 0.08044102 0.071697317 1.8413945e-39
0.58478308 0.077941015 0.071697317 2.6689859e-39
0.58478308 0.08044102 0.071697317 2.8533758e-39
0.58228308 0.082941018 0.071697317 2.6679055e-39
0.58228308 0.085441016 0.071697317 2.667558e-39
0.58478308 0.082941018 0.071697317 2.8533758e-39
0.58478308 0.085441016 0.071697317 2.8533758e-39
0.58728307 0.077941015 0.071697317 3.3143553e-39
0.58728307 0.077941015 0.074197322 3.7760551e-39
0.58728307 0.08044102 0.071697317 3.2221597e-39
0.58728307 0.08044102 0.074197322 3.2253953e-39
0.58978307 0.077941015 0.071697317 3.8685983e-39
0.58978307 0.077941015 0.074197322 4.2352354e-39
0.58978307 0.08044102 0.071697317 2.9491685e-39
0.58978307 0.08044102 0.074197322 3.5920226e-39
0.58978307 0.08044102 0.07669732 1.7484898e-39
0.58978307 0.08044102 0.079197317 1.841742e-39
0.58728307 0.082941018 0.071697317 3.3143553e-39
0.58728307 0.082941018 0.074197322 3.3172448e-39
0.58728307 0.085441016 0.071697317 3.22251e-39
0.58728307 0.085441016 0.074197322 4.0529924e-39
0.58978307 0.082941018 0.074197322 3.5923701e-39
0.58978307 0.085441016 0.074197322 3.2253953e-39
0.58978307 0.082941018 0.07669732 3.3179455e-39
0.58978307 0.082941018 0.079197317 1.1960223e-39
0.58978307 0.085441016 0.07669732 4.2380675e-39
0.58978307 0.085441016 0.079197317 0
0.59228307 0.067941017 0.074197322 3.9600961e-39
0.59228307 0.070441015 0.071697317 3.7764013e-39
0.59228307 0.070441015 0.074197322 4.6983674e-39
0.59478307 0.070441015 0.074197322 2.4845806e-39
0.59228307 0.067941017 0.07669732 2.6711551e-39
0.59478307 0.067941017 0.07669732 1.7495464e-39
0.59228307 0.07294102 0.071697317 3.041367e-39
0.59228307 0.07294102 0.074197322 3.041367e-39
0.59228307 0.075441018 0.071697317 4.0522917e-39
0.59228307 0.075441018 0.074197322 2.0247305e-39
0.59478307 0.07294102 0.071697317 2.8569729e-39
0.59478307 0.07294102 0.074197322 2.9459217e-39
0.59478307 0.075441018 0.071697317 2.6718614e-39
0.59478307 0.075441018 0.074197322 1.8410441e-39
0.59478307 0.075441018 0.07669732 2.7633522e-39
0.59728307 0.07294102 0.071697317 3.037767e-39
0.59728307 0.075441018 0.071697317 1.8410441e-39
0.59728307 0.075441018 0.074197322 2.8537233e-39
0.59978312 0.075441018 0.071697317 3.0381048e-39
0.59228307 0.077941015 0.071697317 4.6980114e-39
0.59228307 0.077941015 0.074197322 4.5136202e-39
0.59228307 0.08044102 0.071697317 3.2228814e-39
0.59228307 0.08044102 0.074197322 3.3157833e-39
0.59478307 0.077941015 0.074197322 1.1041783e-39
0.59228307 0.077941015 0.07669732 2.115445e-39
0.59228307 0.08044102 0.07669732 1.6562941e-39
0.59228307 0.08044102 0.079197317 1.2856969e-39
0.59478307 0.077941015 0.07669732 2.118689e-39
0.59478307 0.08044102 0.07669732 1.7495464e-39
0.59228307 0.082941018 0.074197322 2.1190365e-39
0.59228307 0.085441016 0.074197322 1.4697267e-39
0.59228307 0.082941018 0.07669732 1.3793611e-39
0.59228307 0.082941018 0.079197317 3.0305714e-39
0.59228307 0.085441016 0.07669732 7.3576017e-40
0.59228307 0.085441016 0.079197317 2.2958874e-39
0.59478307 0.082941018 0.07669732 2.1122164e-39
0.59478307 0.085441016 0.07669732 2.2040519e-39
0.59728307 0.077941015 0.074197322 2.8562667e-39
0.57728308 0.090441018 0.05669732 1.568032e-39
0.57728308 0.090441018 0.059197318 2.5724729e-39
0.57978308 0.087941021 0.05669732 2.2994831e-39
0.57978308 0.087941021 0.059197318 2.3916788e-39
0.57978308 0.090441018 0.059197318 2.3913411e-39
0.57728308 0.092941016 0.05669732 4.3874655e-42
0.57728308 0.092941016 0.059197318 1.8385246e-39
0.57728308 0.095441021 0.059197318 0
0.57978308 0.092941016 0.059197318 1.7506282e-39
0.57978308 0.095441021 0.05669732 0
0.57978308 0.095441021 0.059197318 7.7458804e-39
0.57978308 0.097941019 0.05669732 7.6551282e-39
0.57978308 0.097941019 0.059197318 7.2834548e-39
0.57478309 0.092941016 0.064197317 7.3468397e-40
0.57478309 0.095441021 0.064197317 8.1996503e-39
0.57478309 0.092941016 0.066697322 0
0.57478309 0.095441021 0.066697322 7.188741e-39
0.57478309 0.095441021 0.069197319 7.2802051e-39
0.57728308 0.090441018 0.061697319 2.4817416e-39
0.57728308 0.090441018 0.064197317 2.759755e-39
0.57978308 0.087941021 0.061697319 2.0257857e-39
0.57978308 0.087941021 0.064197317 1.4726133e-39
0.57978308 0.090441018 0.061697319 2.759755e-39
0.57978308 0.090441018 0.064197317 1.4726133e-39
0.57728308 0.087941021 0.066697322 1.6566445e-39
0.57728308 0.090441018 0.066697322 1.6570004e-39
0.57978308 0.087941021 0.066697322 1.3804163e-39
0.57978308 0.087941021 0.069197319 1.6566445e-39
0.57978308 0.090441018 0.066697322 1.3804163e-39
0.57978308 0.090441018 0.069197319 1.6570004e-39
0.57728308 0.092941016 0.061697319 1.4751301e-39
0.57728308 0.092941016 0.064197317 2.118689e-39
0.57728308 0.095441021 0.061697319 0
0.57728308 0.095441021 0.064197317 4.5917748e-40
0.57978308 0.092941016 0.061697319 2.026492e-39
0.57978308 0.092941016 0.064197317 1.749196e-39
0.57978308 0.095441021 0.061697319 4.5917748e-40
0.57728308 0.092941016 0.066697322 9.1835496e-41
0.57728308 0.092941016 0.069197319 0
0.57728308 0.095441021 0.066697322 9.1835496e-41
0.57728308 0.095441021 0.069197319 6.8192298e-39
0.57978308 0.092941016 0.066697322 0
0.57978308 0.092941016 0.069197319 9.1835496e-41
0.57978308 0.095441021 0.066697322 0
0.57978308 0.095441021 0.069197319 3.6734198e-40
0.57978308 0.092941016 0.071697317 4.5917748e-40
0.57978308 0.095441021 0.071697317 5.8947554e-39
0.57978308 0.095441021 0.074197322 5.7968214e-39
0.57728308 0.097941019 0.061697319 1.161015e-38
0.57728308 0.097941019 0.064197317 1.0411251e-38
0.57728308 0.097941019 0.066697322 1.0408357e-38
0.57728308 0.097941019 0.069197319 1.7414505e-38
0.57978308 0.097941019 0.066697322 1.0041353e-38
0.57978308 0.097941019 0.069197319 1.0226843e-38
0.57978308 0.097941019 0.071697317 1.7600345e-38
0.57978308 0.097941019 0.074197322 1.9629368e-38
0.58228308 0.087941021 0.064197317 1.2882207e-39
0.58228308 0.090441018 0.064197317 1.1963726e-39
0.58228308 0.087941021 0.066697322 1.2882207e-39
0.58228308 0.087941021 0.069197319 1.6573507e-39
0.58228308 0.090441018 0.069197319 1.7495464e-39
0.58478308 0.087941021 0.069197319 2.3909725e-39
0.58478308 0.090441018 0.069197319 2.5767903e-39
0.58228308 0.092941016 0.069197319 1.749196e-39
0.58228308 0.095441021 0.069197319 5.5101298e-40
0.58228308 0.087941021 0.071697317 2.667558e-39
0.58228308 0.090441018 0.071697317 2.759755e-39
0.58228308 0.090441018 0.074197322 3.9597247e-39
0.58478308 0.087941021 0.071697317 2.8533758e-39
0.58478308 0.087941021 0.074197322 3.4079789e-39
0.58478308 0.090441018 0.071697317 3.2218122e-39
0.58478308 0.090441018 0.074197322 3.5001745e-39
0.58228308 0.092941016 0.071697317 2.3945682e-39
0.58228308 0.092941016 0.074197322 2.9459217e-39
0.58228308 0.095441021 0.071697317 1.8367099e-40
0.58228308 0.095441021 0.074197322 1.1938671e-39
0.58478308 0.092941016 0.071697317 3.9593772e-39
0.58478308 0.092941016 0.074197322 2.8526695e-39
0.58478308 0.095441021 0.071697317 1.928921e-39
0.58478308 0.095441021 0.074197322 1.3775437e-39
0.58478308 0.095441021 0.07669732 6.6330505e-39
0.58728307 0.087941021 0.071697317 3.3143553e-39
0.58728307 0.087941021 0.074197322 3.7764013e-39
0.58728307 0.090441018 0.071697317 3.315077e-39
0.58728307 0.090441018 0.074197322 3.959743e-39
0.58978307 0.087941021 0.074197322 3.041367e-39
0.58978307 0.090441018 0.074197322 3.3175951e-39
0.58978307 0.087941021 0.07669732 3.3143553e-39
0.58978307 0.090441018 0.07669732 3.410497e-39
0.58978307 0.090441018 0.079197317 4.5917748e-40
0.58728307 0.092941016 0.071697317 4.5139677e-39
0.58728307 0.092941016 0.074197322 3.8704172e-39
0.58728307 0.095441021 0.074197322 2.1140325e-39
0.58728307 0.095441021 0.07669732 8.2652647e-40
0.58728307 0.095441021 0.079197317 0
0.58978307 0.092941016 0.07669732 3.3172308e-39
0.58978307 0.092941016 0.079197317 9.1835496e-41
0.58978307 0.095441021 0.07669732 0
0.58978307 0.095441021 0.079197317 7.3468397e-40
0.58228308 0.097941019 0.071697317 1.2160797e-38
0.58228308 0.097941019 0.074197322 1.2622504e-38
0.58228308 0.10044102 0.071697317 1.9994913e-38
0.58228308 0.10044102 0.074197322 2.0364043e-38
0.58478308 0.097941019 0.071697317 1.9446779e-38
0.58478308 0.097941019 0.074197322 1.2253362e-38
0.58478308 0.10044102 0.074197322 2.0732826e-38
0.58478308 0.097941019 0.07669732 1.3176394e-38
0.58728307 0.097941019 0.074197322 1.280797e-38
0.58728307 0.097941019 0.07669732 1.3360788e-38
0.58978307 0.097941019 0.07669732 1.3544453e-38
0.59228307 0.087941021 0.074197322 1.8392239e-39
0.59228307 0.090441018 0.074197322 1.841742e-39
0.59228307 0.087941021 0.07669732 1.1960251e-39
0.59228307 0.090441018 0.07669732 2.1183387e-39
0.59228307 0.090441018 0.079197317 1.4693679e-39
0.59478307 0.087941021 0.07669732 2.5713939e-39
0.59228307 0.092941016 0.074197322 0
0.59228307 0.092941016 0.07669732 2.8025969e-45
0.59228307 0.092941016 0.079197317 3.6734198e-40
0.59228307 0.095441021 0.07669732 0
0.59228307 0.095441021 0.079197317 0
0.59728307 0.087941021 0.07669732 2.6632294e-39
0.59228307 0.097941019 0.074197322 1.3821766e-38
0.59228307 0.097941019 0.07669732 9.7669382e-39
