# .PCD v0.7 - Point Cloud Data file format
VERSION 0.7
FIELDS x y z rgb
SIZE 4 4 4 4
TYPE F F F F
COUNT 1 1 1 1
WIDTH 415
HEIGHT 1
VIEWPOINT 0 0 0 1 0 0 0
POINTS 415
DATA ascii
0.58445138 0.055985946 0.060067158 7.3469098e-40
0.58445138 0.058485948 0.057567161 2.8533758e-39
0.58445138 0.058485948 0.060067158 2.7590488e-39
0.58195138 0.060985949 0.057567161 2.8533758e-39
0.58195138 0.060985949 0.060067158 2.6679055e-39
0.58195138 0.06348595 0.057567161 2.3027201e-39
0.58195138 0.06348595 0.060067158 2.6689859e-39
0.58445138 0.060985949 0.057567161 2.8533758e-39
0.58445138 0.060985949 0.060067158 2.3020139e-39
0.58445138 0.053485949 0.072567157 2.8469004e-39
0.57945138 0.055985946 0.067567162 1.3793611e-39
0.57945138 0.058485948 0.067567162 1.7495464e-39
0.57945138 0.06348595 0.065067157 2.026492e-39
0.57945138 0.060985949 0.067567162 1.6573507e-39
0.57945138 0.060985949 0.07006716 1.4733196e-39
0.57945138 0.06348595 0.067567162 1.7502554e-39
0.57945138 0.06348595 0.07006716 1.1967313e-39
0.58195138 0.055985946 0.06256716 3.2218122e-39
0.58195138 0.055985946 0.065067157 2.759755e-39
0.58195138 0.058485948 0.06256716 2.8533758e-39
0.58195138 0.058485948 0.065067157 2.8533758e-39
0.58445138 0.055985946 0.06256716 2.0250865e-39
0.58445138 0.058485948 0.06256716 2.8533758e-39
0.58195138 0.055985946 0.067567162 2.2958874e-39
0.58195138 0.055985946 0.07006716 2.2072875e-39
0.58195138 0.058485948 0.067567162 2.1143856e-39
0.58195138 0.058485948 0.07006716 2.3916788e-39
0.58445138 0.055985946 0.067567162 2.4817416e-39
0.58445138 0.055985946 0.07006716 2.7590488e-39
0.58445138 0.058485948 0.07006716 2.8501388e-39
0.58195138 0.060985949 0.06256716 2.8533758e-39
0.58195138 0.060985949 0.065067157 2.3027201e-39
0.58195138 0.06348595 0.06256716 2.026492e-39
0.58195138 0.06348595 0.065067157 2.026492e-39
0.58445138 0.060985949 0.06256716 2.6689859e-39
0.58195138 0.060985949 0.067567162 1.4733196e-39
0.58195138 0.060985949 0.07006716 1.841742e-39
0.58195138 0.06348595 0.067567162 1.4733196e-39
0.58195138 0.06348595 0.07006716 1.7495464e-39
0.58445138 0.06348595 0.07006716 1.7495464e-39
0.58195138 0.055985946 0.072567157 1.8381575e-39
0.58195138 0.058485948 0.072567157 3.2185626e-39
0.58445138 0.055985946 0.072567157 2.023269e-39
0.58445138 0.058485948 0.072567157 3.4962271e-39
0.58445138 0.058485948 0.075067163 3.9586345e-39
0.58195138 0.060985949 0.072567157 1.841742e-39
0.58195138 0.06348595 0.072567157 2.7604613e-39
0.58445138 0.060985949 0.072567157 3.0370608e-39
0.58445138 0.060985949 0.075067163 3.4076286e-39
0.58445138 0.06348595 0.072567157 3.037767e-39
0.58445138 0.06348595 0.075067163 3.5909408e-39
0.57945138 0.065985948 0.060067158 2.3027201e-39
0.57945138 0.068485945 0.060067158 2.026492e-39
0.57945138 0.070985951 0.060067158 2.0250809e-39
0.57945138 0.073485948 0.057567161 8.279544e-40
0.57945138 0.073485948 0.060067158 1.8410441e-39
0.58195138 0.065985948 0.057567161 1.3811226e-39
0.58195138 0.065985948 0.060067158 2.7604613e-39
0.58195138 0.068485945 0.057567161 1.1960251e-39
0.58195138 0.070985951 0.057567161 1.7481423e-39
0.58195138 0.073485948 0.057567161 1.3800674e-39
0.57945138 0.075985946 0.057567161 1.1041783e-39
0.57945138 0.075985946 0.060067158 1.8410441e-39
0.57945138 0.078485951 0.057567161 1.1963726e-39
0.57945138 0.078485951 0.060067158 1.6566445e-39
0.57945138 0.080985948 0.057567161 1.0119841e-39
0.57945138 0.080985948 0.060067158 1.4726133e-39
0.57945138 0.083485946 0.057567161 1.838505e-39
0.57945138 0.083485946 0.060067158 2.2072875e-39
0.58195138 0.075985946 0.057567161 1.3800674e-39
0.58195138 0.075985946 0.060067158 1.8413945e-39
0.58195138 0.078485951 0.057567161 1.6562941e-39
0.58195138 0.078485951 0.060067158 1.6562941e-39
0.58195138 0.080985948 0.057567161 1.4715568e-39
0.58195138 0.080985948 0.060067158 1.7491988e-39
0.58195138 0.083485946 0.057567161 1.6562941e-39
0.58195138 0.083485946 0.060067158 1.8413945e-39
0.57945138 0.065985948 0.06256716 1.841742e-39
0.57945138 0.065985948 0.065067157 2.026492e-39
0.57945138 0.068485945 0.06256716 2.026492e-39
0.57945138 0.068485945 0.065067157 1.7495464e-39
0.57945138 0.065985948 0.067567162 1.4733196e-39
0.57945138 0.068485945 0.067567162 1.3811226e-39
0.57945138 0.070985951 0.06256716 2.0257857e-39
0.57945138 0.070985951 0.065067157 1.7491988e-39
0.57945138 0.073485948 0.06256716 1.8413945e-39
0.57945138 0.073485948 0.065067157 1.4733196e-39
0.57945138 0.070985951 0.067567162 1.6573507e-39
0.58195138 0.065985948 0.06256716 2.026492e-39
0.58195138 0.065985948 0.065067157 1.8424496e-39
0.58195138 0.068485945 0.06256716 2.3909725e-39
0.58195138 0.068485945 0.065067157 1.8424496e-39
0.58195138 0.065985948 0.067567162 1.1041783e-39
0.58195138 0.065985948 0.07006716 2.0225361e-39
0.58195138 0.068485945 0.067567162 1.0123429e-39
0.58195138 0.068485945 0.07006716 2.0225361e-39
0.58445138 0.065985948 0.07006716 2.6679055e-39
0.58445138 0.068485945 0.07006716 2.6679055e-39
0.58195138 0.070985951 0.06256716 1.7495464e-39
0.58195138 0.070985951 0.065067157 1.6573507e-39
0.58195138 0.073485948 0.06256716 1.6566445e-39
0.58195138 0.073485948 0.065067157 1.3811226e-39
0.58195138 0.070985951 0.067567162 1.0119841e-39
0.58195138 0.070985951 0.07006716 1.2885682e-39
0.58195138 0.073485948 0.067567162 1.1963726e-39
0.58445138 0.070985951 0.067567162 1.6573507e-39
0.58445138 0.070985951 0.07006716 1.7495464e-39
0.58445138 0.073485948 0.067567162 1.2885682e-39
0.58445138 0.073485948 0.07006716 2.2072875e-39
0.58195138 0.065985948 0.072567157 2.4835269e-39
0.58195138 0.068485945 0.072567157 2.6679055e-39
0.58445138 0.065985948 0.072567157 3.037767e-39
0.58445138 0.068485945 0.072567157 3.037767e-39
0.58445138 0.070985951 0.072567157 3.037767e-39
0.57945138 0.075985946 0.06256716 2.0254368e-39
0.57945138 0.075985946 0.065067157 1.6573507e-39
0.57945138 0.078485951 0.06256716 2.0257857e-39
0.57945138 0.078485951 0.065067157 1.4733196e-39
0.57945138 0.078485951 0.067567162 1.4726133e-39
0.57945138 0.080985948 0.06256716 1.8413945e-39
0.57945138 0.080985948 0.065067157 1.7495464e-39
0.57945138 0.083485946 0.06256716 1.841742e-39
0.57945138 0.083485946 0.065067157 1.7491988e-39
0.57945138 0.080985948 0.067567162 1.4726133e-39
0.57945138 0.083485946 0.067567162 1.4726133e-39
0.58195138 0.075985946 0.06256716 1.7491988e-39
0.58195138 0.075985946 0.065067157 1.4726133e-39
0.58195138 0.078485951 0.06256716 1.6566445e-39
0.58195138 0.078485951 0.065067157 1.3811226e-39
0.58195138 0.075985946 0.067567162 1.8388623e-39
0.58195138 0.078485951 0.067567162 1.5622796e-39
0.58195138 0.078485951 0.07006716 2.2065813e-39
0.58445138 0.075985946 0.067567162 1.7463094e-39
0.58445138 0.075985946 0.07006716 2.2994831e-39
0.58445138 0.078485951 0.067567162 2.1150919e-39
0.58445138 0.078485951 0.07006716 2.2072875e-39
0.58195138 0.080985948 0.065067157 1.3804163e-39
0.58195138 0.083485946 0.06256716 1.7495464e-39
0.58195138 0.083485946 0.065067157 1.3811226e-39
0.58195138 0.080985948 0.067567162 1.2885682e-39
0.58195138 0.080985948 0.07006716 2.2065813e-39
0.58195138 0.083485946 0.067567162 1.4726133e-39
0.58195138 0.083485946 0.07006716 1.7495464e-39
0.58445138 0.080985948 0.067567162 1.6573507e-39
0.58445138 0.080985948 0.07006716 2.759755e-39
0.58445138 0.083485946 0.067567162 1.6573507e-39
0.58445138 0.083485946 0.07006716 2.8526695e-39
0.58195138 0.078485951 0.072567157 2.6689859e-39
0.58445138 0.078485951 0.072567157 2.7647773e-39
0.58195138 0.080985948 0.072567157 2.6689859e-39
0.58195138 0.083485946 0.072567157 3.037767e-39
0.58445138 0.080985948 0.072567157 3.1299627e-39
0.58445138 0.083485946 0.072567157 3.3143553e-39
0.58695138 0.055985946 0.057567161 1.8367099e-40
0.58695138 0.058485948 0.057567161 2.7590488e-39
0.58945137 0.053485949 0.07006716 1.6759432e-38
0.58695138 0.053485949 0.072567157 3.6734198e-39
0.58945137 0.053485949 0.072567157 1.703746e-38
0.59195137 0.053485949 0.072567157 1.9061075e-38
0.59445143 0.053485949 0.072567157 2.0902455e-38
0.58695138 0.055985946 0.07006716 1.3775493e-39
0.59195137 0.055985946 0.07006716 3.8570908e-39
0.59445143 0.055985946 0.07006716 5.0509523e-39
0.58695138 0.055985946 0.072567157 2.1140157e-39
0.58695138 0.058485948 0.072567157 3.5001745e-39
0.58695138 0.058485948 0.075067163 4.6039983e-39
0.58945137 0.055985946 0.072567157 1.6562675e-39
0.58945137 0.058485948 0.072567157 4.1455467e-39
0.58695138 0.060985949 0.072567157 3.4998242e-39
0.58695138 0.060985949 0.075067163 3.8686011e-39
0.58695138 0.06348595 0.072567157 3.3143553e-39
0.58695138 0.06348595 0.075067163 3.5923701e-39
0.58945137 0.060985949 0.072567157 4.6962136e-39
0.58945137 0.06348595 0.072567157 4.1430398e-39
0.58945137 0.06348595 0.075067163 3.8682508e-39
0.59195137 0.055985946 0.072567157 4.0407618e-39
0.59195137 0.058485948 0.072567157 4.4199854e-39
0.59445143 0.055985946 0.072567157 6.5203202e-39
0.59445143 0.055985946 0.075067163 7.1703433e-39
0.59445143 0.058485948 0.072567157 4.0529924e-39
0.59445143 0.058485948 0.075067163 3.4973075e-39
0.59195137 0.060985949 0.072567157 4.6043669e-39
0.59195137 0.060985949 0.075067163 4.0533483e-39
0.59195137 0.06348595 0.072567157 3.7760551e-39
0.59195137 0.06348595 0.075067163 3.4079789e-39
0.59445143 0.060985949 0.072567157 4.5136202e-39
0.59445143 0.060985949 0.075067163 3.8686011e-39
0.59445143 0.06348595 0.075067163 2.8537233e-39
0.59195137 0.06348595 0.07756716 2.6711551e-39
0.59445143 0.060985949 0.07756716 2.300244e-39
0.59445143 0.06348595 0.07756716 2.2065813e-39
0.59695143 0.055985946 0.072567157 7.7184865e-39
0.59695143 0.055985946 0.075067163 1.8377861e-39
0.59695143 0.058485948 0.072567157 3.68097e-39
0.59695143 0.058485948 0.075067163 6.4284847e-40
0.59945142 0.055985946 0.075067163 3.0334749e-39
0.59945142 0.058485948 0.075067163 2.1122164e-39
0.59695143 0.058485948 0.07756716 2.2040519e-39
0.59695143 0.060985949 0.072567157 3.9607967e-39
0.59695143 0.060985949 0.075067163 2.0250865e-39
0.59695143 0.06348595 0.075067163 1.7491988e-39
0.59945142 0.060985949 0.075067163 1.8403379e-39
0.59695143 0.060985949 0.07756716 0
0.58695138 0.070985951 0.07006716 3.0381174e-39
0.58695138 0.073485948 0.07006716 3.0381174e-39
0.58945137 0.073485948 0.07006716 3.3143553e-39
0.58695138 0.065985948 0.072567157 3.773537e-39
0.58695138 0.065985948 0.075067163 3.9586471e-39
0.58695138 0.068485945 0.072567157 3.773537e-39
0.58695138 0.068485945 0.075067163 4.0508442e-39
0.58945137 0.065985948 0.072567157 3.7760551e-39
0.58945137 0.065985948 0.075067163 3.8682508e-39
0.58945137 0.068485945 0.072567157 4.3270807e-39
0.58945137 0.068485945 0.075067163 4.5129167e-39
0.58695138 0.070985951 0.072567157 3.22251e-39
0.58695138 0.073485948 0.072567157 2.7647773e-39
0.58945137 0.070985951 0.072567157 3.9586345e-39
0.58945137 0.073485948 0.072567157 3.4076286e-39
0.59195137 0.065985948 0.072567157 3.8682508e-39
0.59195137 0.065985948 0.075067163 3.3175951e-39
0.59195137 0.068485945 0.072567157 4.5132699e-39
0.59195137 0.068485945 0.075067163 3.7753517e-39
0.59445143 0.065985948 0.075067163 2.3945682e-39
0.59445143 0.068485945 0.075067163 2.6711551e-39
0.59195137 0.065985948 0.07756716 2.4867639e-39
0.59195137 0.068485945 0.07756716 2.6711551e-39
0.59445143 0.065985948 0.07756716 1.6570004e-39
0.59195137 0.070985951 0.072567157 3.5920226e-39
0.59195137 0.070985951 0.075067163 2.7586522e-39
0.59195137 0.073485948 0.072567157 3.7760551e-39
0.59195137 0.073485948 0.075067163 3.4998242e-39
0.59445143 0.070985951 0.072567157 2.2116035e-39
0.59445143 0.070985951 0.075067163 2.6689691e-39
0.59445143 0.073485948 0.072567157 2.9491685e-39
0.59445143 0.073485948 0.075067163 3.1299627e-39
0.58695138 0.075985946 0.067567162 2.6689859e-39
0.58695138 0.075985946 0.07006716 3.1299627e-39
0.58695138 0.078485951 0.07006716 3.1299627e-39
0.58945137 0.075985946 0.07006716 3.4987676e-39
0.58945137 0.078485951 0.07006716 3.3150742e-39
0.58695138 0.080985948 0.07006716 2.7647773e-39
0.58695138 0.083485946 0.07006716 2.8573232e-39
0.58695138 0.075985946 0.072567157 3.5920226e-39
0.58695138 0.078485951 0.072567157 3.3143553e-39
0.58695138 0.078485951 0.075067163 2.9491685e-39
0.58945137 0.075985946 0.072567157 4.1430398e-39
0.58945137 0.078485951 0.072567157 4.0501239e-39
0.58945137 0.078485951 0.075067163 2.9491713e-39
0.58945137 0.078485951 0.07756716 2.4845933e-39
0.58945137 0.078485951 0.080067158 1.8435623e-39
0.58695138 0.080985948 0.072567157 3.3143553e-39
0.58695138 0.080985948 0.075067163 3.2253953e-39
0.58695138 0.083485946 0.072567157 3.5913136e-39
0.58695138 0.083485946 0.075067163 4.4199854e-39
0.58945137 0.080985948 0.075067163 3.3175951e-39
0.58945137 0.083485946 0.075067163 3.9607967e-39
0.58695138 0.080985948 0.07756716 2.0221886e-39
0.58695138 0.080985948 0.080067158 1.4733196e-39
0.58695138 0.083485946 0.07756716 1.5612118e-39
0.58695138 0.083485946 0.080067158 1.0119841e-39
0.58945137 0.080985948 0.07756716 3.037767e-39
0.58945137 0.080985948 0.080067158 1.2903885e-39
0.58945137 0.083485946 0.07756716 8.2831313e-40
0.58945137 0.083485946 0.080067158 0
0.59195137 0.075985946 0.072567157 4.971018e-39
0.59195137 0.075985946 0.075067163 1.7491988e-39
0.59195137 0.078485951 0.072567157 4.9731592e-39
0.59195137 0.078485951 0.075067163 2.7604613e-39
0.59445143 0.075985946 0.072567157 1.6573507e-39
0.59445143 0.075985946 0.075067163 2.6686118e-39
0.59445143 0.078485951 0.075067163 2.667558e-39
0.59195137 0.075985946 0.07756716 1.6562941e-39
0.59195137 0.075985946 0.080067158 2.6686118e-39
0.59195137 0.078485951 0.07756716 1.8410441e-39
0.59195137 0.078485951 0.080067158 1.5687522e-39
0.59445143 0.075985946 0.07756716 2.8519507e-39
0.59445143 0.078485951 0.07756716 2.2987769e-39
0.59195137 0.080985948 0.07756716 2.4795584e-39
0.59195137 0.080985948 0.080067158 1.7495464e-39
0.59195137 0.083485946 0.07756716 2.5713939e-39
0.59195137 0.083485946 0.080067158 3.6734198e-40
0.59445143 0.080985948 0.07756716 1.6573507e-39
0.59695143 0.073485948 0.072567157 2.9455714e-39
0.59695143 0.075985946 0.072567157 2.4835045e-39
0.59695143 0.075985946 0.075067163 2.6689859e-39
0.59695143 0.078485951 0.075067163 2.667558e-39
0.59945142 0.075985946 0.072567157 2.9455714e-39
0.57695138 0.088485949 0.060067158 2.664335e-39
0.57945138 0.085985944 0.057567161 2.5731876e-39
0.57945138 0.085985944 0.060067158 1.838505e-39
0.57945138 0.088485949 0.057567161 2.5731932e-39
0.57945138 0.088485949 0.060067158 2.667558e-39
0.57695138 0.090985946 0.060067158 1.6562941e-39
0.57695138 0.093485944 0.060067158 0
0.57945138 0.090985946 0.057567161 2.2984294e-39
0.57945138 0.090985946 0.060067158 2.2984294e-39
0.57945138 0.093485944 0.057567161 1.9314237e-39
0.57945138 0.093485944 0.060067158 0
0.58195138 0.088485949 0.057567161 2.2987769e-39
0.58195138 0.093485944 0.057567161 0
0.57945138 0.095985949 0.057567161 0
0.57945138 0.095985949 0.060067158 2.7550649e-40
0.58195138 0.095985949 0.057567161 0
0.58195138 0.095985949 0.060067158 8.1996503e-39
0.58195138 0.098485947 0.057567161 1.1609794e-38
0.58195138 0.098485947 0.060067158 1.0503805e-38
0.57695138 0.088485949 0.06256716 1.9335873e-39
0.57945138 0.085985944 0.06256716 1.7495464e-39
0.57945138 0.085985944 0.065067157 1.7491988e-39
0.57945138 0.088485949 0.06256716 2.759755e-39
0.57945138 0.088485949 0.065067157 1.6566445e-39
0.57945138 0.085985944 0.067567162 1.3811226e-39
0.57945138 0.085985944 0.07006716 1.6566445e-39
0.57945138 0.088485949 0.067567162 1.3804163e-39
0.57945138 0.088485949 0.07006716 1.6573507e-39
0.57695138 0.090985946 0.06256716 2.4828206e-39
0.57695138 0.090985946 0.065067157 2.3027201e-39
0.57695138 0.093485944 0.06256716 7.3504691e-40
0.57695138 0.093485944 0.065067157 1.8367099e-40
0.57945138 0.090985946 0.06256716 2.1179828e-39
0.57945138 0.090985946 0.065067157 2.1179828e-39
0.57945138 0.093485944 0.06256716 8.279544e-40
0.57945138 0.093485944 0.065067157 1.8439126e-40
0.57695138 0.093485944 0.067567162 9.1835496e-41
0.57945138 0.090985946 0.067567162 1.4726133e-39
0.57945138 0.090985946 0.07006716 1.7491988e-39
0.57945138 0.093485944 0.067567162 0
0.57945138 0.093485944 0.07006716 6.4320721e-40
0.58195138 0.085985944 0.06256716 1.7495464e-39
0.58195138 0.085985944 0.065067157 1.3811226e-39
0.58195138 0.088485949 0.06256716 1.6566445e-39
0.58195138 0.088485949 0.065067157 1.3804163e-39
0.58195138 0.085985944 0.067567162 1.4733196e-39
0.58195138 0.085985944 0.07006716 1.6573507e-39
0.58195138 0.088485949 0.067567162 1.6566445e-39
0.58195138 0.088485949 0.07006716 1.7495464e-39
0.58445138 0.085985944 0.067567162 1.4733196e-39
0.58445138 0.085985944 0.07006716 2.3916788e-39
0.58445138 0.088485949 0.07006716 2.4835269e-39
0.58195138 0.090985946 0.07006716 2.4835269e-39
0.58195138 0.093485944 0.07006716 1.0101905e-39
0.58195138 0.085985944 0.072567157 2.6679055e-39
0.58195138 0.088485949 0.072567157 2.6679055e-39
0.58445138 0.085985944 0.072567157 3.4990955e-39
0.58445138 0.088485949 0.072567157 3.0417145e-39
0.58195138 0.090985946 0.072567157 2.759755e-39
0.58195138 0.093485944 0.072567157 1.3775324e-39
0.58445138 0.090985946 0.072567157 3.8686011e-39
0.58445138 0.090985946 0.075067163 4.5136202e-39
0.58445138 0.093485944 0.072567157 3.0381174e-39
0.58445138 0.093485944 0.075067163 3.3150742e-39
0.57695138 0.095985949 0.06256716 7.4649551e-39
0.57695138 0.095985949 0.065067157 7.2802108e-39
0.57945138 0.095985949 0.06256716 8.2652227e-40
0.57945138 0.095985949 0.065067157 7.2802108e-39
0.57695138 0.095985949 0.067567162 6.4504571e-39
0.57695138 0.095985949 0.07006716 7.1826271e-39
0.57695138 0.098485947 0.07006716 1.658582e-38
0.57945138 0.095985949 0.067567162 6.8185137e-39
0.57945138 0.095985949 0.07006716 6.3557433e-39
0.57945138 0.098485947 0.067567162 1.7138994e-38
0.57945138 0.098485947 0.07006716 1.7600695e-38
0.58195138 0.095985949 0.06256716 7.0025449e-39
0.58195138 0.095985949 0.07006716 6.3557433e-39
0.58195138 0.098485947 0.07006716 1.8431901e-38
0.57945138 0.095985949 0.072567157 6.9046109e-39
0.57945138 0.098485947 0.072567157 1.8339352e-38
0.58195138 0.095985949 0.072567157 5.6163874e-39
0.58195138 0.095985949 0.075067163 6.6276541e-39
0.58195138 0.098485947 0.072567157 1.9076195e-38
0.58445138 0.095985949 0.075067163 5.7103739e-39
0.58445138 0.098485947 0.072567157 1.9721571e-38
0.58445138 0.098485947 0.075067163 2.0090346e-38
0.58445138 0.095985949 0.07756716 6.5408549e-39
0.58445138 0.098485947 0.07756716 2.0368009e-38
0.58195138 0.10098594 0.072567157 1.9627557e-38
0.58445138 0.10098594 0.075067163 1.9627557e-38
0.58695138 0.085985944 0.072567157 3.5920226e-39
0.58695138 0.085985944 0.075067163 3.2253953e-39
0.58695138 0.088485949 0.072567157 3.2253953e-39
0.58695138 0.088485949 0.075067163 3.2253953e-39
0.58945137 0.085985944 0.075067163 3.5923701e-39
0.58945137 0.088485949 0.075067163 3.4076286e-39
0.58945137 0.085985944 0.07756716 1.6534075e-39
0.58945137 0.088485949 0.07756716 2.8533758e-39
0.58695138 0.090985946 0.072567157 4.237392e-39
0.58695138 0.090985946 0.075067163 4.0548098e-39
0.58695138 0.093485944 0.072567157 3.4973075e-39
0.58695138 0.093485944 0.075067163 2.8562667e-39
0.58945137 0.090985946 0.075067163 3.3179511e-39
0.58945137 0.093485944 0.075067163 3.1314242e-39
0.58695138 0.093485944 0.07756716 1.4693679e-39
0.58945137 0.090985946 0.07756716 2.1190393e-39
0.58945137 0.093485944 0.07756716 1.8511713e-40
0.59195137 0.085985944 0.075067163 2.1143856e-39
0.59195137 0.088485949 0.075067163 2.2976839e-39
0.59445143 0.088485949 0.075067163 2.1179828e-39
0.59195137 0.085985944 0.07756716 4.2038954e-45
0.59195137 0.085985944 0.080067158 7.1746481e-43
0.59195137 0.088485949 0.07756716 1.1038294e-39
0.59195137 0.090985946 0.075067163 2.0257829e-39
0.59195137 0.093485944 0.075067163 2.7658689e-40
0.59445143 0.090985946 0.075067163 2.579307e-39
0.59195137 0.090985946 0.07756716 2.1190393e-39
0.59195137 0.093485944 0.07756716 1.1956747e-39
0.59195137 0.093485944 0.080067158 0
0.58695138 0.095985949 0.075067163 8.2652087e-40
0.58695138 0.098485947 0.072567157 1.9631889e-38
0.58695138 0.098485947 0.075067163 2.0183261e-38
0.58945137 0.095985949 0.075067163 9.1838299e-41
0.58945137 0.098485947 0.075067163 1.3637374e-38
0.58695138 0.095985949 0.07756716 6.9063906e-39
0.58945137 0.095985949 0.07756716 0
0.58945137 0.098485947 0.07756716 1.3729571e-38
0.59195137 0.095985949 0.07756716 0
