# .PCD v0.7 - Point Cloud Data file format
VERSION 0.7
FIELDS x y z rgb
SIZE 4 4 4 4
TYPE F F F F
COUNT 1 1 1 1
WIDTH 382
HEIGHT 1
VIEWPOINT 0 0 0 1 0 0 0
POINTS 382
DATA ascii
0.58066881 0.063216284 0.059315637 2.8533758e-39
0.58066881 0.065716289 0.059315637 1.7495464e-39
0.58066881 0.065716289 0.061815634 1.8413945e-39
0.58066881 0.055716287 0.064315639 2.3016636e-39
0.58066881 0.055716287 0.066815637 2.1129605e-39
0.58066881 0.055716287 0.069315635 2.2055149e-39
0.58066881 0.058216289 0.064315639 2.3949158e-39
0.58066881 0.058216289 0.066815637 1.7495464e-39
0.58066881 0.060716286 0.064315639 2.026492e-39
0.58066881 0.060716286 0.066815637 1.1077741e-39
0.58066881 0.058216289 0.069315635 2.2072875e-39
0.58066881 0.060716286 0.069315635 1.3811226e-39
0.58066881 0.063216284 0.064315639 2.118689e-39
0.58066881 0.063216284 0.066815637 1.2885682e-39
0.58066881 0.065716289 0.064315639 1.841742e-39
0.58066881 0.065716289 0.066815637 1.6573507e-39
0.58066881 0.063216284 0.069315635 1.4736727e-39
0.58066881 0.065716289 0.069315635 1.3811226e-39
0.57816881 0.070716284 0.059315637 1.1041783e-39
0.57816881 0.070716284 0.061815634 1.841742e-39
0.58066881 0.068216287 0.059315637 1.3811226e-39
0.58066881 0.068216287 0.061815634 1.841742e-39
0.58066881 0.070716284 0.059315637 1.6534075e-39
0.58066881 0.070716284 0.061815634 1.841742e-39
0.58066881 0.075716287 0.056815635 8.279544e-40
0.57816881 0.073216289 0.059315637 1.4715568e-39
0.57816881 0.073216289 0.061815634 1.7495464e-39
0.58066881 0.073216289 0.059315637 1.0119841e-39
0.58066881 0.073216289 0.061815634 2.0257829e-39
0.58066881 0.075716287 0.059315637 1.472263e-39
0.58066881 0.075716287 0.061815634 2.0257829e-39
0.58066881 0.078216285 0.056815635 1.011631e-39
0.58066881 0.08071629 0.056815635 1.0112751e-39
0.57816881 0.078216285 0.059315637 1.6562941e-39
0.57816881 0.08071629 0.059315637 1.6562941e-39
0.58066881 0.078216285 0.059315637 1.6562941e-39
0.58066881 0.078216285 0.061815634 1.8413945e-39
0.58066881 0.08071629 0.059315637 1.3811226e-39
0.58066881 0.08071629 0.061815634 1.8413945e-39
0.57816881 0.085716285 0.056815635 3.3154119e-39
0.58066881 0.083216287 0.056815635 1.6541151e-39
0.58066881 0.085716285 0.056815635 2.6653888e-39
0.57816881 0.083216287 0.059315637 1.838505e-39
0.57816881 0.083216287 0.061815634 1.7495464e-39
0.57816881 0.085716285 0.059315637 2.1150919e-39
0.57816881 0.085716285 0.061815634 1.4765552e-39
0.58066881 0.083216287 0.059315637 1.7491988e-39
0.58066881 0.083216287 0.061815634 1.4765552e-39
0.58066881 0.085716285 0.059315637 1.7491988e-39
0.58066881 0.085716285 0.061815634 2.0257829e-39
0.58066881 0.068216287 0.064315639 1.7495464e-39
0.58066881 0.068216287 0.066815637 1.7495464e-39
0.58066881 0.070716284 0.064315639 1.7495464e-39
0.58066881 0.070716284 0.066815637 1.4726133e-39
0.58066881 0.068216287 0.069315635 1.3811226e-39
0.58066881 0.070716284 0.069315635 1.0119841e-39
0.58066881 0.073216289 0.064315639 1.7491988e-39
0.58066881 0.073216289 0.066815637 8.2976067e-40
0.58066881 0.075716287 0.064315639 1.6566445e-39
0.58066881 0.075716287 0.066815637 1.2882179e-39
0.57816881 0.078216285 0.064315639 1.6566445e-39
0.57816881 0.08071629 0.064315639 1.6566445e-39
0.58066881 0.078216285 0.064315639 1.7495464e-39
0.58066881 0.078216285 0.066815637 1.4726133e-39
0.58066881 0.08071629 0.064315639 1.6562941e-39
0.58066881 0.08071629 0.066815637 1.4726133e-39
0.58066881 0.078216285 0.069315635 1.2885682e-39
0.58066881 0.08071629 0.069315635 1.3811226e-39
0.57816881 0.083216287 0.064315639 2.026492e-39
0.57816881 0.083216287 0.066815637 1.2885682e-39
0.57816881 0.085716285 0.064315639 2.026492e-39
0.57816881 0.085716285 0.066815637 1.3811226e-39
0.58066881 0.083216287 0.064315639 1.6566445e-39
0.58066881 0.083216287 0.066815637 1.3804163e-39
0.58066881 0.085716285 0.066815637 1.3804163e-39
0.58066881 0.083216287 0.069315635 1.6573507e-39
0.58066881 0.085716285 0.069315635 1.6566445e-39
0.58066881 0.085716285 0.07181564 2.026492e-39
0.5831688 0.055716287 0.061815634 9.1836337e-40
0.5831688 0.058216289 0.056815635 2.8533758e-39
0.5831688 0.060716286 0.056815635 2.9459217e-39
0.5856688 0.058216289 0.056815635 2.9445148e-39
0.5831688 0.058216289 0.059315637 2.8533758e-39
0.5831688 0.058216289 0.061815634 2.8562667e-39
0.5831688 0.060716286 0.059315637 2.6689859e-39
0.5831688 0.060716286 0.061815634 2.3949158e-39
0.5856688 0.058216289 0.059315637 3.0367105e-39
0.5831688 0.065716289 0.056815635 1.6573507e-39
0.5831688 0.063216284 0.059315637 2.6689859e-39
0.5831688 0.063216284 0.061815634 2.4835269e-39
0.5831688 0.065716289 0.059315637 2.4835269e-39
0.5831688 0.065716289 0.061815634 1.8413945e-39
0.5831688 0.055716287 0.064315639 2.7590488e-39
0.5831688 0.055716287 0.066815637 1.7481423e-39
0.5831688 0.055716287 0.069315635 2.3906222e-39
0.5831688 0.055716287 0.07181564 2.7590488e-39
0.5856688 0.053216286 0.07181564 2.2958874e-39
0.5856688 0.055716287 0.07181564 2.759755e-39
0.5881688 0.053216286 0.07181564 1.5842161e-38
0.5881688 0.055716287 0.07181564 1.1942272e-39
0.5906688 0.053216286 0.07181564 1.8509351e-38
0.5906688 0.055716287 0.07181564 1.4693679e-39
0.5881688 0.053216286 0.074315637 3.1224069e-39
0.5881688 0.055716287 0.074315637 1.1945789e-39
0.5906688 0.055716287 0.074315637 3.9489263e-39
0.5831688 0.058216289 0.064315639 2.3949158e-39
0.5831688 0.060716286 0.064315639 2.3949158e-39
0.5831688 0.058216289 0.069315635 2.2994831e-39
0.5831688 0.058216289 0.07181564 2.4838744e-39
0.5831688 0.060716286 0.069315635 1.841742e-39
0.5831688 0.060716286 0.07181564 2.0257857e-39
0.5856688 0.058216289 0.07181564 2.5767903e-39
0.5856688 0.060716286 0.07181564 3.867878e-39
0.5831688 0.063216284 0.064315639 2.118689e-39
0.5831688 0.063216284 0.07181564 1.7491988e-39
0.5831688 0.065716289 0.069315635 1.7495464e-39
0.5831688 0.065716289 0.07181564 1.7495464e-39
0.5856688 0.063216284 0.07181564 3.4990955e-39
0.5856688 0.065716289 0.07181564 2.118689e-39
0.5881688 0.058216289 0.07181564 4.0522917e-39
0.5881688 0.060716286 0.07181564 4.5118027e-39
0.5906688 0.058216289 0.07181564 4.4217735e-39
0.5906688 0.060716286 0.07181564 4.4217735e-39
0.5881688 0.065716289 0.07181564 3.5923701e-39
0.5906688 0.063216284 0.07181564 4.052642e-39
0.5906688 0.065716289 0.07181564 3.7760551e-39
0.5856688 0.060716286 0.074315637 3.4990955e-39
0.5856688 0.063216284 0.074315637 3.4987452e-39
0.5856688 0.065716289 0.074315637 3.5923701e-39
0.5881688 0.058216289 0.074315637 4.6039983e-39
0.5881688 0.060716286 0.074315637 4.6039983e-39
0.5906688 0.058216289 0.074315637 4.6980114e-39
0.5906688 0.060716286 0.074315637 4.4217735e-39
0.5881688 0.063216284 0.074315637 3.7764013e-39
0.5881688 0.065716289 0.074315637 3.7764013e-39
0.5906688 0.063216284 0.074315637 3.8682508e-39
0.5906688 0.063216284 0.076815635 3.0399377e-39
0.5906688 0.065716289 0.074315637 3.9604464e-39
0.5906688 0.065716289 0.076815635 2.3020139e-39
0.5931688 0.053216286 0.07181564 1.9796124e-38
0.5931688 0.055716287 0.07181564 5.2346233e-39
0.59566879 0.055716287 0.07181564 5.5101298e-40
0.59816879 0.055716287 0.07181564 2.0218172e-39
0.5931688 0.053216286 0.074315637 2.1085416e-38
0.5931688 0.055716287 0.074315637 6.6121557e-39
0.59566879 0.055716287 0.074315637 2.5713939e-39
0.59816879 0.055716287 0.074315637 1.9285454e-39
0.59816879 0.055716287 0.076815635 2.9405716e-39
0.5931688 0.058216289 0.07181564 4.971018e-39
0.5931688 0.060716286 0.07181564 4.5139705e-39
0.59566879 0.058216289 0.07181564 3.9586471e-39
0.5931688 0.063216284 0.07181564 3.8679005e-39
0.5931688 0.065716289 0.07181564 3.8686011e-39
0.59816879 0.058216289 0.07181564 3.4051104e-39
0.5931688 0.058216289 0.074315637 4.1430398e-39
0.5931688 0.060716286 0.074315637 4.237392e-39
0.5931688 0.060716286 0.076815635 3.2369995e-42
0.59566879 0.058216289 0.074315637 3.1267397e-39
0.59566879 0.060716286 0.074315637 6.4501908e-40
0.59566879 0.060716286 0.076815635 2.7658689e-40
0.5931688 0.063216284 0.074315637 3.7757048e-39
0.5931688 0.063216284 0.076815635 1.6631171e-39
0.5931688 0.065716289 0.074315637 2.3945682e-39
0.5931688 0.065716289 0.076815635 1.2914451e-39
0.59566879 0.063216284 0.076815635 1.8425029e-39
0.5931688 0.063216284 0.079315633 3.4087216e-39
0.5931688 0.065716289 0.079315633 2.1179828e-39
0.59816879 0.058216289 0.074315637 1.4693679e-39
0.59816879 0.058216289 0.076815635 1.6530614e-39
0.59816879 0.060716286 0.074315637 1.2882179e-39
0.59816879 0.060716286 0.076815635 1.7503073e-39
0.5831688 0.068216287 0.056815635 1.1960251e-39
0.5831688 0.070716284 0.056815635 1.7481423e-39
0.5831688 0.068216287 0.061815634 2.1179828e-39
0.5831688 0.073216289 0.056815635 1.4733196e-39
0.5831688 0.075716287 0.061815634 2.0254368e-39
0.5831688 0.070716284 0.066815637 1.2882207e-39
0.5831688 0.068216287 0.07181564 1.7495464e-39
0.5831688 0.070716284 0.069315635 1.7495464e-39
0.5831688 0.070716284 0.07181564 1.6573507e-39
0.5856688 0.068216287 0.07181564 3.4998242e-39
0.5856688 0.070716284 0.069315635 2.6689859e-39
0.5856688 0.070716284 0.07181564 2.118689e-39
0.5831688 0.073216289 0.064315639 1.4726133e-39
0.5831688 0.073216289 0.066815637 1.1960251e-39
0.5831688 0.075716287 0.064315639 1.3804163e-39
0.5831688 0.075716287 0.066815637 1.1960251e-39
0.5831688 0.073216289 0.069315635 1.6573507e-39
0.5831688 0.075716287 0.069315635 1.3804163e-39
0.5856688 0.073216289 0.069315635 1.7495464e-39
0.5856688 0.073216289 0.07181564 2.3027201e-39
0.5856688 0.075716287 0.069315635 2.8533758e-39
0.5856688 0.075716287 0.07181564 3.2221597e-39
0.5881688 0.070716284 0.07181564 3.4076286e-39
0.5881688 0.073216289 0.069315635 3.037767e-39
0.5881688 0.073216289 0.07181564 3.4076286e-39
0.5881688 0.075716287 0.069315635 3.3150644e-39
0.5881688 0.075716287 0.07181564 3.7760551e-39
0.5906688 0.073216289 0.07181564 3.5920226e-39
0.5906688 0.075716287 0.07181564 4.1426895e-39
0.5856688 0.068216287 0.074315637 3.9607967e-39
0.5881688 0.068216287 0.074315637 3.9607967e-39
0.5881688 0.070716284 0.074315637 3.9586345e-39
0.5906688 0.068216287 0.074315637 4.6029474e-39
0.5906688 0.068216287 0.076815635 2.3016636e-39
0.5906688 0.070716284 0.074315637 4.1430258e-39
0.5906688 0.073216289 0.074315637 3.8679005e-39
0.5906688 0.075716287 0.074315637 4.5132699e-39
0.5906688 0.075716287 0.076815635 1.1056385e-39
0.5831688 0.078216285 0.064315639 1.4726133e-39
0.5831688 0.078216285 0.066815637 1.0119841e-39
0.5831688 0.078216285 0.069315635 1.4733196e-39
0.5831688 0.078216285 0.07181564 1.7495464e-39
0.5831688 0.08071629 0.07181564 1.841742e-39
0.5856688 0.078216285 0.069315635 2.6689859e-39
0.5856688 0.078216285 0.07181564 2.6689859e-39
0.5856688 0.08071629 0.07181564 2.7640584e-39
0.5831688 0.083216287 0.07181564 2.0257829e-39
0.5831688 0.085716285 0.07181564 1.8413945e-39
0.5856688 0.083216287 0.07181564 2.8526695e-39
0.5856688 0.085716285 0.07181564 3.3143553e-39
0.5881688 0.078216285 0.069315635 3.1299627e-39
0.5881688 0.078216285 0.07181564 3.4076286e-39
0.5906688 0.078216285 0.07181564 3.8685983e-39
0.5856688 0.078216285 0.074315637 3.4079789e-39
0.5856688 0.08071629 0.074315637 3.4079789e-39
0.5856688 0.083216287 0.074315637 4.1444873e-39
0.5881688 0.078216285 0.074315637 3.5913136e-39
0.5881688 0.078216285 0.076815635 3.4072726e-39
0.5881688 0.08071629 0.074315637 3.4991179e-39
0.5881688 0.08071629 0.076815635 3.7760551e-39
0.5906688 0.078216285 0.074315637 1.8424496e-39
0.5906688 0.078216285 0.076815635 2.4842457e-39
0.5906688 0.08071629 0.074315637 3.3147267e-39
0.5906688 0.08071629 0.076815635 3.1296151e-39
0.5906688 0.078216285 0.079315633 1.7484926e-39
0.5906688 0.08071629 0.079315633 2.0250809e-39
0.5881688 0.083216287 0.074315637 4.1441342e-39
0.5881688 0.083216287 0.076815635 3.9607967e-39
0.5881688 0.085716285 0.074315637 4.3277898e-39
0.5881688 0.085716285 0.076815635 4.5117999e-39
0.5906688 0.083216287 0.076815635 1.4697267e-39
0.5906688 0.085716285 0.074315637 1.838505e-39
0.5906688 0.085716285 0.076815635 1.4693749e-39
0.5906688 0.083216287 0.079315633 0
0.5906688 0.085716285 0.079315633 0
0.5931688 0.068216287 0.07181564 4.6980114e-39
0.5931688 0.070716284 0.07181564 3.5920226e-39
0.5931688 0.073216289 0.07181564 3.5920226e-39
0.5931688 0.075716287 0.07181564 3.7757048e-39
0.60066885 0.075716287 0.07181564 2.8533758e-39
0.5931688 0.068216287 0.074315637 3.499443e-39
0.5931688 0.068216287 0.076815635 2.026492e-39
0.5931688 0.070716284 0.074315637 3.1310192e-39
0.5931688 0.073216289 0.074315637 3.2221597e-39
0.5931688 0.075716287 0.074315637 2.1176324e-39
0.5931688 0.075716287 0.076815635 2.7608088e-39
0.59566879 0.073216289 0.074315637 2.8533758e-39
0.59566879 0.075716287 0.074315637 2.0257857e-39
0.59816879 0.075716287 0.074315637 3.1274459e-39
0.5931688 0.078216285 0.07181564 4.1448377e-39
0.5931688 0.078216285 0.074315637 1.8424496e-39
0.5931688 0.078216285 0.076815635 2.1158037e-39
0.5931688 0.08071629 0.076815635 2.1179828e-39
0.59566879 0.078216285 0.074315637 1.5619209e-39
0.59566879 0.078216285 0.076815635 2.6689691e-39
0.5931688 0.083216287 0.076815635 7.1746481e-43
0.5931688 0.085716285 0.076815635 0
0.59566879 0.085716285 0.076815635 2.7550649e-39
0.5931688 0.083216287 0.079315633 2.5713939e-39
0.5931688 0.085716285 0.079315633 2.5713939e-39
0.59816879 0.078216285 0.074315637 2.3927452e-39
0.57566881 0.08821629 0.061815634 2.389546e-39
0.57566881 0.090716287 0.061815634 2.2065813e-39
0.57566881 0.093216285 0.061815634 0
0.57566881 0.09571629 0.061815634 7.6522317e-39
0.58066881 0.08821629 0.056815635 2.2080064e-39
0.58066881 0.090716287 0.056815635 2.9441463e-39
0.57816881 0.08821629 0.059315637 1.7491988e-39
0.57816881 0.08821629 0.061815634 2.1179828e-39
0.57816881 0.090716287 0.059315637 2.2998335e-39
0.57816881 0.090716287 0.061815634 2.118689e-39
0.58066881 0.08821629 0.059315637 2.3909725e-39
0.58066881 0.08821629 0.061815634 2.1179828e-39
0.58066881 0.090716287 0.061815634 2.118689e-39
0.58066881 0.093216285 0.056815635 1.6584325e-39
0.58066881 0.09571629 0.056815635 0
0.57816881 0.093216285 0.059315637 1.2910891e-39
0.57816881 0.093216285 0.061815634 7.3576017e-40
0.57816881 0.09571629 0.059315637 0
0.57816881 0.09571629 0.061815634 7.3468397e-40
0.58066881 0.093216285 0.059315637 0
0.58066881 0.093216285 0.061815634 1.8367099e-40
0.58066881 0.09571629 0.059315637 0
0.58066881 0.09571629 0.061815634 4.5917748e-40
0.57816881 0.098216288 0.061815634 1.0503805e-38
0.58066881 0.098216288 0.059315637 1.1794904e-38
0.58066881 0.098216288 0.061815634 1.0136831e-38
0.57566881 0.090716287 0.064315639 2.1179828e-39
0.57566881 0.093216285 0.064315639 4.5917748e-40
0.57566881 0.09571629 0.064315639 7.556799e-39
0.57816881 0.08821629 0.064315639 1.6566445e-39
0.57816881 0.08821629 0.066815637 1.6566445e-39
0.57816881 0.090716287 0.064315639 2.026492e-39
0.57816881 0.090716287 0.066815637 1.6566445e-39
0.58066881 0.08821629 0.064315639 1.1985432e-39
0.58066881 0.08821629 0.066815637 1.3804163e-39
0.58066881 0.090716287 0.064315639 1.2907388e-39
0.58066881 0.090716287 0.066815637 1.4726133e-39
0.58066881 0.08821629 0.069315635 1.6573507e-39
0.58066881 0.08821629 0.07181564 2.0257829e-39
0.58066881 0.090716287 0.069315635 1.4733196e-39
0.58066881 0.090716287 0.07181564 2.8533758e-39
0.57816881 0.093216285 0.064315639 3.6734198e-40
0.57816881 0.093216285 0.066815637 0
0.57816881 0.09571629 0.064315639 7.3734868e-39
0.57816881 0.09571629 0.066815637 6.7281146e-39
0.58066881 0.093216285 0.064315639 1.1077741e-39
0.58066881 0.093216285 0.066815637 0
0.58066881 0.09571629 0.066815637 0
0.57816881 0.093216285 0.069315635 0
0.57816881 0.09571629 0.069315635 7.0907804e-39
0.57816881 0.09571629 0.07181564 6.3557433e-39
0.58066881 0.093216285 0.069315635 4.5917748e-40
0.58066881 0.093216285 0.07181564 1.5619209e-39
0.58066881 0.09571629 0.069315635 6.8174319e-39
0.58066881 0.09571629 0.07181564 6.4432698e-39
0.57816881 0.098216288 0.064315639 1.0226863e-38
0.57816881 0.098216288 0.066815637 1.5480193e-38
0.58066881 0.098216288 0.066815637 9.7658606e-39
0.58066881 0.098216288 0.069315635 1.6588339e-38
0.58066881 0.098216288 0.07181564 1.8892506e-38
0.5831688 0.098216288 0.056815635 7.3760035e-39
0.5831688 0.08821629 0.07181564 2.9448652e-39
0.5831688 0.090716287 0.07181564 3.1299627e-39
0.5856688 0.08821629 0.07181564 3.2228786e-39
0.5856688 0.090716287 0.07181564 3.407623e-39
0.5831688 0.093216285 0.07181564 2.6689859e-39
0.5831688 0.09571629 0.07181564 5.3401593e-39
0.5856688 0.093216285 0.07181564 4.6050941e-39
0.5856688 0.08821629 0.074315637 3.4980389e-39
0.5856688 0.090716287 0.074315637 3.8686011e-39
0.5831688 0.093216285 0.074315637 8.2652087e-40
0.5831688 0.09571629 0.074315637 5.4323563e-39
0.5831688 0.09571629 0.076815635 6.1709933e-39
0.5856688 0.093216285 0.074315637 3.3143553e-39
0.5856688 0.09571629 0.074315637 1.4693721e-39
0.5856688 0.09571629 0.076815635 7.3468397e-40
0.5881688 0.08821629 0.074315637 3.7749846e-39
0.5881688 0.08821629 0.076815635 3.3143553e-39
0.5881688 0.090716287 0.074315637 3.3175951e-39
0.5881688 0.090716287 0.076815635 3.7764013e-39
0.5906688 0.08821629 0.074315637 1.8388763e-39
0.5906688 0.08821629 0.076815635 2.2976839e-39
0.5906688 0.090716287 0.076815635 2.2998335e-39
0.5906688 0.08821629 0.079315633 0
0.5906688 0.090716287 0.079315633 8.2651947e-40
0.5881688 0.093216285 0.074315637 3.7778502e-39
0.5881688 0.093216285 0.076815635 3.3165245e-39
0.5881688 0.09571629 0.074315637 1.3775324e-39
0.5881688 0.09571629 0.076815635 2.7551069e-40
0.5906688 0.093216285 0.076815635 6.4321842e-40
0.5906688 0.09571629 0.076815635 0
0.5906688 0.093216285 0.079315633 9.1835496e-41
0.5831688 0.098216288 0.07181564 1.9814116e-38
0.5831688 0.10071629 0.07181564 2.0272574e-38
0.5856688 0.098216288 0.07181564 1.9814116e-38
0.5831688 0.098216288 0.074315637 1.9721568e-38
0.5831688 0.098216288 0.076815635 2.0182542e-38
0.5831688 0.10071629 0.074315637 2.0272927e-38
0.5831688 0.10071629 0.076815635 2.0549885e-38
0.5856688 0.098216288 0.074315637 1.9815554e-38
0.5856688 0.098216288 0.076815635 1.3176394e-38
0.5881688 0.098216288 0.074315637 2.0275093e-38
0.5881688 0.098216288 0.076815635 1.3453337e-38
0.5906688 0.098216288 0.074315637 1.345334e-38
0.5931688 0.08821629 0.076815635 0
0.5931688 0.090716287 0.076815635 4.5917748e-40
0.5931688 0.093216285 0.076815635 3.6734198e-40
0.5931688 0.09571629 0.076815635 1.102026e-39
0.5931688 0.093216285 0.079315633 2.7550649e-40
0.59816879 0.08821629 0.076815635 2.0203809e-39
