# .PCD v0.7 - Point Cloud Data file format
VERSION 0.7
FIELDS x y z rgb
SIZE 4 4 4 4
TYPE F F F F
COUNT 1 1 1 1
WIDTH 430
HEIGHT 1
VIEWPOINT 0 0 0 1 0 0 0
POINTS 430
DATA ascii
0.58445138 0.055352502 0.060067158 9.18397e-41
0.57945138 0.055352502 0.067567162 1.3800674e-39
0.58195138 0.055352502 0.06256716 9.1836477e-40
0.58195138 0.055352502 0.065067157 8.2653348e-40
0.58195138 0.055352502 0.067567162 2.2055149e-39
0.58195138 0.055352502 0.07006716 2.4817416e-39
0.58445138 0.055352502 0.07006716 2.0214837e-39
0.58195138 0.055352502 0.072567157 2.0221886e-39
0.58445138 0.055352502 0.072567157 2.2073001e-39
0.58695138 0.055352502 0.07006716 2.0229187e-39
0.58945137 0.0528525 0.07006716 1.6025827e-38
0.58945137 0.055352502 0.07006716 2.7550649e-39
0.59195137 0.055352502 0.07006716 4.2244328e-39
0.58695138 0.055352502 0.072567157 2.5713939e-39
0.58945137 0.0528525 0.072567157 1.7589192e-38
0.58945137 0.055352502 0.072567157 3.6734198e-39
0.59195137 0.0528525 0.072567157 1.9614252e-38
0.59195137 0.055352502 0.072567157 3.6734198e-39
0.59195137 0.055352502 0.075067163 6.5203202e-39
0.59445143 0.0528525 0.072567157 2.0902819e-38
0.59445143 0.055352502 0.072567157 6.3373667e-39
0.59445143 0.055352502 0.075067163 7.5384042e-39
0.57945138 0.065352499 0.060067158 2.026492e-39
0.58195138 0.057852503 0.060067158 2.6718614e-39
0.58195138 0.060352501 0.057567161 3.037767e-39
0.58195138 0.060352501 0.060067158 2.3020139e-39
0.58445138 0.057852503 0.057567161 2.8533758e-39
0.58445138 0.057852503 0.060067158 2.6668531e-39
0.58445138 0.060352501 0.057567161 2.8533758e-39
0.58445138 0.060352501 0.060067158 2.759755e-39
0.58195138 0.062852502 0.057567161 2.4871114e-39
0.58195138 0.062852502 0.060067158 2.3020139e-39
0.58195138 0.065352499 0.057567161 1.4733196e-39
0.58195138 0.065352499 0.060067158 2.7604613e-39
0.57945138 0.067852505 0.060067158 2.026492e-39
0.57945138 0.070352502 0.060067158 2.1179828e-39
0.57945138 0.0728525 0.057567161 1.1041783e-39
0.57945138 0.0728525 0.060067158 1.4715568e-39
0.57945138 0.075352505 0.057567161 1.1041783e-39
0.57945138 0.075352505 0.060067158 1.7495464e-39
0.58195138 0.067852505 0.057567161 1.2885682e-39
0.58195138 0.067852505 0.060067158 2.6679055e-39
0.58195138 0.070352502 0.057567161 1.7484898e-39
0.58195138 0.070352502 0.060067158 2.026492e-39
0.58195138 0.0728525 0.057567161 1.7481423e-39
0.58195138 0.075352505 0.057567161 1.3800674e-39
0.58195138 0.075352505 0.060067158 1.8410441e-39
0.58695138 0.057852503 0.057567161 2.9445148e-39
0.58695138 0.060352501 0.057567161 2.4867639e-39
0.57945138 0.060352501 0.065067157 2.7604613e-39
0.57945138 0.057852503 0.067567162 1.7495464e-39
0.57945138 0.060352501 0.067567162 2.026492e-39
0.57945138 0.060352501 0.07006716 1.6566445e-39
0.57945138 0.062852502 0.06256716 2.4835269e-39
0.57945138 0.062852502 0.065067157 2.3027201e-39
0.57945138 0.065352499 0.06256716 2.1179828e-39
0.57945138 0.065352499 0.065067157 2.026492e-39
0.57945138 0.062852502 0.067567162 1.751717e-39
0.57945138 0.062852502 0.07006716 1.4726133e-39
0.57945138 0.065352499 0.067567162 2.026492e-39
0.58195138 0.057852503 0.06256716 2.947033e-39
0.58195138 0.057852503 0.065067157 2.3013132e-39
0.58195138 0.060352501 0.06256716 2.3027201e-39
0.58195138 0.060352501 0.065067157 2.3949158e-39
0.58445138 0.057852503 0.06256716 2.0250865e-39
0.58195138 0.057852503 0.067567162 2.2994831e-39
0.58195138 0.057852503 0.07006716 2.2994831e-39
0.58195138 0.060352501 0.067567162 2.2072875e-39
0.58195138 0.060352501 0.07006716 2.3916788e-39
0.58445138 0.057852503 0.07006716 2.6668531e-39
0.58445138 0.060352501 0.07006716 2.8533758e-39
0.58195138 0.062852502 0.06256716 2.118689e-39
0.58195138 0.062852502 0.065067157 2.026492e-39
0.58195138 0.065352499 0.06256716 2.026492e-39
0.58195138 0.065352499 0.065067157 1.7495464e-39
0.58195138 0.062852502 0.07006716 1.6573507e-39
0.58195138 0.065352499 0.067567162 1.1038294e-39
0.58195138 0.065352499 0.07006716 1.7495464e-39
0.58445138 0.065352499 0.07006716 2.6679055e-39
0.58195138 0.057852503 0.072567157 2.9430533e-39
0.58195138 0.060352501 0.072567157 3.0352503e-39
0.58445138 0.057852503 0.072567157 3.2218122e-39
0.58445138 0.060352501 0.072567157 3.037767e-39
0.58445138 0.060352501 0.075067163 3.2253953e-39
0.58195138 0.062852502 0.072567157 2.7604613e-39
0.58195138 0.065352499 0.072567157 2.118689e-39
0.58445138 0.062852502 0.072567157 3.037767e-39
0.58445138 0.062852502 0.075067163 2.9491685e-39
0.58445138 0.065352499 0.072567157 2.8533758e-39
0.58445138 0.065352499 0.075067163 2.7647773e-39
0.57945138 0.067852505 0.06256716 1.7491988e-39
0.57945138 0.067852505 0.065067157 1.7495464e-39
0.57945138 0.070352502 0.06256716 1.8413945e-39
0.57945138 0.070352502 0.065067157 1.7495464e-39
0.57945138 0.067852505 0.067567162 1.841742e-39
0.57945138 0.070352502 0.067567162 1.4726133e-39
0.57945138 0.0728525 0.06256716 1.841742e-39
0.57945138 0.0728525 0.065067157 1.6566445e-39
0.57945138 0.075352505 0.06256716 2.0257829e-39
0.57945138 0.075352505 0.065067157 1.7491988e-39
0.58195138 0.067852505 0.06256716 1.8413945e-39
0.58195138 0.067852505 0.065067157 1.7495464e-39
0.58195138 0.070352502 0.06256716 1.7491988e-39
0.58195138 0.070352502 0.065067157 1.4726133e-39
0.58195138 0.067852505 0.067567162 1.2882179e-39
0.58195138 0.067852505 0.07006716 1.6573507e-39
0.58195138 0.070352502 0.067567162 1.1960251e-39
0.58195138 0.070352502 0.07006716 1.4733196e-39
0.58445138 0.067852505 0.07006716 2.6679055e-39
0.58445138 0.070352502 0.067567162 1.3811226e-39
0.58445138 0.070352502 0.07006716 1.7495464e-39
0.58195138 0.0728525 0.06256716 1.4733196e-39
0.58195138 0.0728525 0.065067157 1.3804163e-39
0.58195138 0.075352505 0.06256716 1.7491988e-39
0.58195138 0.075352505 0.065067157 1.4726133e-39
0.58195138 0.0728525 0.067567162 1.1960251e-39
0.58195138 0.075352505 0.067567162 1.6541151e-39
0.58445138 0.0728525 0.067567162 1.6573507e-39
0.58445138 0.0728525 0.07006716 1.7495464e-39
0.58445138 0.075352505 0.067567162 1.1960251e-39
0.58445138 0.075352505 0.07006716 2.2994831e-39
0.58195138 0.067852505 0.072567157 2.118689e-39
0.58195138 0.070352502 0.072567157 2.6679055e-39
0.58445138 0.067852505 0.072567157 2.6718614e-39
0.58445138 0.067852505 0.075067163 3.7760551e-39
0.58445138 0.070352502 0.072567157 2.8530044e-39
0.58695138 0.057852503 0.072567157 3.4991179e-39
0.58695138 0.060352501 0.072567157 3.7760551e-39
0.58695138 0.060352501 0.075067163 4.0529924e-39
0.58945137 0.057852503 0.072567157 4.052642e-39
0.58945137 0.060352501 0.072567157 4.5136202e-39
0.58695138 0.062852502 0.072567157 3.8686011e-39
0.58695138 0.062852502 0.075067163 3.8682508e-39
0.58695138 0.065352499 0.072567157 3.4990955e-39
0.58695138 0.065352499 0.075067163 3.7760551e-39
0.58945137 0.062852502 0.072567157 3.8682508e-39
0.58945137 0.062852502 0.075067163 3.7757048e-39
0.58945137 0.065352499 0.072567157 4.1430258e-39
0.58945137 0.065352499 0.075067163 3.8682508e-39
0.58945137 0.062852502 0.07756716 3.0399377e-39
0.58945137 0.065352499 0.07756716 2.4867639e-39
0.59195137 0.057852503 0.072567157 4.0522917e-39
0.59195137 0.060352501 0.072567157 4.2392011e-39
0.59195137 0.060352501 0.075067163 3.8704172e-39
0.59445143 0.057852503 0.072567157 3.7760551e-39
0.59445143 0.057852503 0.075067163 3.588773e-39
0.59445143 0.060352501 0.072567157 3.9626142e-39
0.59445143 0.060352501 0.075067163 2.5796784e-39
0.59445143 0.057852503 0.07756716 1.5619209e-39
0.59445143 0.060352501 0.07756716 2.2987769e-39
0.59195137 0.062852502 0.072567157 3.7757048e-39
0.59195137 0.062852502 0.075067163 3.3172448e-39
0.59195137 0.065352499 0.072567157 3.8682508e-39
0.59195137 0.065352499 0.075067163 3.2253981e-39
0.59445143 0.062852502 0.075067163 2.9491685e-39
0.59445143 0.065352499 0.075067163 2.5789595e-39
0.59195137 0.062852502 0.07756716 2.8562667e-39
0.59195137 0.062852502 0.080067158 2.9480895e-39
0.59195137 0.065352499 0.07756716 2.5789595e-39
0.59195137 0.065352499 0.080067158 2.026492e-39
0.59445143 0.062852502 0.07756716 2.9473833e-39
0.59445143 0.065352499 0.07756716 2.4867639e-39
0.58695138 0.070352502 0.07006716 2.5771406e-39
0.58695138 0.0728525 0.07006716 3.0381174e-39
0.58695138 0.075352505 0.067567162 2.7604613e-39
0.58695138 0.075352505 0.07006716 3.22251e-39
0.58945137 0.0728525 0.07006716 3.22251e-39
0.58945137 0.075352505 0.07006716 3.2253981e-39
0.58695138 0.067852505 0.072567157 4.2341424e-39
0.58695138 0.067852505 0.075067163 4.1430258e-39
0.58695138 0.070352502 0.072567157 3.4965774e-39
0.58695138 0.070352502 0.075067163 3.9586345e-39
0.58945137 0.067852505 0.072567157 4.6954933e-39
0.58945137 0.067852505 0.075067163 4.1441342e-39
0.58945137 0.070352502 0.072567157 4.0501239e-39
0.58695138 0.0728525 0.072567157 3.4072726e-39
0.58695138 0.075352505 0.072567157 3.5920226e-39
0.58945137 0.0728525 0.072567157 3.4076286e-39
0.58945137 0.075352505 0.072567157 3.5927233e-39
0.58945137 0.075352505 0.07756716 1.472263e-39
0.58945137 0.075352505 0.080067158 2.3923864e-39
0.59195137 0.067852505 0.072567157 4.2348851e-39
0.59195137 0.067852505 0.075067163 3.5920226e-39
0.59195137 0.070352502 0.072567157 4.052642e-39
0.59195137 0.070352502 0.075067163 3.5909408e-39
0.59445143 0.067852505 0.075067163 2.395622e-39
0.59445143 0.070352502 0.072567157 2.8530044e-39
0.59445143 0.070352502 0.075067163 2.6689859e-39
0.59195137 0.067852505 0.07756716 2.3030677e-39
0.59445143 0.067852505 0.07756716 1.7495464e-39
0.59195137 0.0728525 0.072567157 3.7760551e-39
0.59195137 0.0728525 0.075067163 3.3143553e-39
0.59195137 0.075352505 0.072567157 3.8679005e-39
0.59195137 0.075352505 0.075067163 2.1176324e-39
0.59445143 0.0728525 0.072567157 3.3143553e-39
0.59445143 0.0728525 0.075067163 3.037767e-39
0.59445143 0.075352505 0.072567157 2.3938592e-39
0.59445143 0.075352505 0.075067163 2.667558e-39
0.59195137 0.075352505 0.080067158 2.6689859e-39
0.59445143 0.075352505 0.07756716 2.8526695e-39
0.57945138 0.077852502 0.057567161 1.6544739e-39
0.57945138 0.077852502 0.060067158 1.7491988e-39
0.57945138 0.0803525 0.057567161 1.0119841e-39
0.57945138 0.0803525 0.060067158 1.7484898e-39
0.57945138 0.082852505 0.057567161 1.4697267e-39
0.57945138 0.082852505 0.060067158 1.8413917e-39
0.57945138 0.085352503 0.057567161 2.5731876e-39
0.57945138 0.085352503 0.060067158 1.841742e-39
0.58195138 0.077852502 0.057567161 1.472263e-39
0.58195138 0.077852502 0.060067158 1.7491988e-39
0.58195138 0.0803525 0.057567161 1.6562941e-39
0.58195138 0.082852505 0.057567161 1.6566445e-39
0.58195138 0.082852505 0.060067158 2.0257857e-39
0.58195138 0.085352503 0.057567161 2.2072875e-39
0.57695138 0.090352505 0.060067158 2.5731932e-39
0.57945138 0.0878525 0.057567161 2.6653888e-39
0.57945138 0.0878525 0.060067158 2.3020139e-39
0.57945138 0.090352505 0.057567161 2.5731932e-39
0.57945138 0.090352505 0.060067158 2.3909725e-39
0.57695138 0.092852503 0.057567161 5.437038e-42
0.57695138 0.092852503 0.060067158 2.0229159e-39
0.57945138 0.092852503 0.057567161 9.1835496e-41
0.57945138 0.092852503 0.060067158 0
0.57945138 0.095352501 0.057567161 0
0.57945138 0.095352501 0.060067158 2.7550649e-40
0.58195138 0.0878525 0.057567161 1.7491988e-39
0.58195138 0.0878525 0.060067158 2.1179828e-39
0.58195138 0.095352501 0.057567161 0
0.57945138 0.077852502 0.06256716 1.7491988e-39
0.57945138 0.077852502 0.065067157 1.7491988e-39
0.57945138 0.0803525 0.06256716 1.7484898e-39
0.57945138 0.0803525 0.065067157 1.7491988e-39
0.57945138 0.077852502 0.067567162 1.4726133e-39
0.57945138 0.0803525 0.067567162 8.2976067e-40
0.57945138 0.082852505 0.06256716 1.7491988e-39
0.57945138 0.082852505 0.065067157 1.6573507e-39
0.57945138 0.085352503 0.06256716 1.7491988e-39
0.57945138 0.085352503 0.065067157 1.7495464e-39
0.57945138 0.082852505 0.067567162 1.1960251e-39
0.57945138 0.085352503 0.067567162 1.1960251e-39
0.58195138 0.077852502 0.06256716 1.6566445e-39
0.58195138 0.077852502 0.065067157 1.3811226e-39
0.58195138 0.0803525 0.06256716 1.6566445e-39
0.58195138 0.0803525 0.065067157 1.4726133e-39
0.58195138 0.077852502 0.067567162 1.5619209e-39
0.58195138 0.077852502 0.07006716 2.1150919e-39
0.58195138 0.0803525 0.067567162 1.4733196e-39
0.58195138 0.0803525 0.07006716 1.7495464e-39
0.58445138 0.077852502 0.067567162 1.1960251e-39
0.58445138 0.077852502 0.07006716 2.8533758e-39
0.58445138 0.0803525 0.067567162 1.4726133e-39
0.58445138 0.0803525 0.07006716 2.3916788e-39
0.58195138 0.082852505 0.06256716 1.7495464e-39
0.58195138 0.082852505 0.065067157 8.2976067e-40
0.58195138 0.085352503 0.06256716 1.7495464e-39
0.58195138 0.085352503 0.065067157 1.4733196e-39
0.58195138 0.082852505 0.067567162 1.3811226e-39
0.58195138 0.082852505 0.07006716 1.6573507e-39
0.58195138 0.085352503 0.067567162 1.3804163e-39
0.58195138 0.085352503 0.07006716 1.7495464e-39
0.58445138 0.082852505 0.067567162 1.4733196e-39
0.58445138 0.082852505 0.07006716 1.841742e-39
0.58445138 0.085352503 0.067567162 1.6573507e-39
0.58445138 0.085352503 0.07006716 1.841742e-39
0.58195138 0.077852502 0.072567157 2.6689859e-39
0.58195138 0.0803525 0.072567157 2.8533758e-39
0.58445138 0.077852502 0.072567157 2.7647773e-39
0.58445138 0.0803525 0.072567157 3.0409914e-39
0.58195138 0.082852505 0.072567157 2.8533758e-39
0.58195138 0.085352503 0.072567157 2.1179828e-39
0.58445138 0.082852505 0.072567157 2.7647773e-39
0.58445138 0.085352503 0.072567157 2.7647773e-39
0.57695138 0.090352505 0.06256716 2.4835269e-39
0.57945138 0.0878525 0.06256716 1.8413945e-39
0.57945138 0.0878525 0.065067157 1.4726133e-39
0.57945138 0.090352505 0.06256716 2.118689e-39
0.57945138 0.090352505 0.065067157 1.1985432e-39
0.57945138 0.0878525 0.067567162 1.1960251e-39
0.57945138 0.0878525 0.07006716 1.6566445e-39
0.57945138 0.090352505 0.067567162 1.6566445e-39
0.57945138 0.090352505 0.07006716 1.7495464e-39
0.57695138 0.092852503 0.06256716 1.5680348e-39
0.57695138 0.095352501 0.06256716 7.923062e-39
0.57695138 0.095352501 0.065067157 7.1890941e-39
0.57945138 0.092852503 0.06256716 2.4871114e-39
0.57945138 0.092852503 0.065067157 7.3504691e-40
0.57945138 0.095352501 0.06256716 5.5101298e-40
0.57945138 0.095352501 0.065067157 0
0.57695138 0.095352501 0.07006716 7.2751759e-39
0.57945138 0.092852503 0.067567162 1.6570004e-39
0.57945138 0.092852503 0.07006716 4.5917748e-40
0.57945138 0.095352501 0.067567162 0
0.57945138 0.095352501 0.07006716 9.1835496e-41
0.58195138 0.0878525 0.06256716 1.1063476e-39
0.58195138 0.0878525 0.065067157 1.3804163e-39
0.58195138 0.090352505 0.06256716 9.219563e-40
0.58195138 0.090352505 0.065067157 1.3804163e-39
0.58195138 0.0878525 0.067567162 1.7495464e-39
0.58195138 0.0878525 0.07006716 1.7495464e-39
0.58195138 0.090352505 0.067567162 1.7491988e-39
0.58195138 0.090352505 0.07006716 1.7491988e-39
0.58445138 0.0878525 0.067567162 1.6573507e-39
0.58445138 0.0878525 0.07006716 2.0257829e-39
0.58445138 0.090352505 0.07006716 2.9491685e-39
0.58195138 0.092852503 0.067567162 1.841742e-39
0.58195138 0.092852503 0.07006716 1.6573507e-39
0.58195138 0.095352501 0.07006716 2.7550649e-40
0.58445138 0.092852503 0.07006716 3.3175783e-39
0.57945138 0.095352501 0.072567157 6.7209301e-39
0.58195138 0.0878525 0.072567157 2.3945682e-39
0.58195138 0.090352505 0.072567157 3.2250478e-39
0.58445138 0.0878525 0.072567157 2.7651276e-39
0.58445138 0.090352505 0.072567157 3.5923729e-39
0.58445138 0.090352505 0.075067163 4.236683e-39
0.58195138 0.092852503 0.072567157 1.1038294e-39
0.58195138 0.095352501 0.072567157 9.18397e-41
0.58445138 0.092852503 0.072567157 3.6863608e-39
0.58445138 0.092852503 0.075067163 4.6058032e-39
0.58445138 0.095352501 0.072567157 9.1835496e-40
0.58445138 0.095352501 0.075067163 1.7448828e-39
0.58445138 0.095352501 0.07756716 7.3670212e-39
0.58695138 0.077852502 0.067567162 2.759755e-39
0.58695138 0.077852502 0.07006716 2.6725817e-39
0.58695138 0.0803525 0.07006716 3.037767e-39
0.58945137 0.077852502 0.07006716 3.3179511e-39
0.58695138 0.082852505 0.07006716 3.3150644e-39
0.58695138 0.085352503 0.07006716 3.3150644e-39
0.58695138 0.077852502 0.072567157 2.9491685e-39
0.58695138 0.077852502 0.075067163 4.1430398e-39
0.58695138 0.0803525 0.072567157 2.9491685e-39
0.58695138 0.0803525 0.075067163 3.5920226e-39
0.58945137 0.077852502 0.072567157 4.052642e-39
0.58945137 0.077852502 0.075067163 3.7767516e-39
0.58945137 0.0803525 0.072567157 3.2228814e-39
0.58945137 0.0803525 0.075067163 3.4072726e-39
0.58695138 0.077852502 0.080067158 2.0254368e-39
0.58695138 0.0803525 0.07756716 2.4867639e-39
0.58695138 0.0803525 0.080067158 2.0254368e-39
0.58945137 0.077852502 0.07756716 1.3814785e-39
0.58945137 0.077852502 0.080067158 1.1066951e-39
0.58945137 0.0803525 0.07756716 2.4845933e-39
0.58945137 0.0803525 0.080067158 1.3836407e-39
0.58695138 0.082852505 0.072567157 3.4987648e-39
0.58695138 0.082852505 0.075067163 3.9586471e-39
0.58695138 0.085352503 0.072567157 3.7760551e-39
0.58695138 0.085352503 0.075067163 4.6961996e-39
0.58945137 0.082852505 0.075067163 4.0508442e-39
0.58945137 0.085352503 0.075067163 4.5117999e-39
0.58945137 0.082852505 0.07756716 2.3909725e-39
0.58945137 0.082852505 0.080067158 4.627648e-40
0.58945137 0.085352503 0.07756716 2.1122164e-39
0.58945137 0.085352503 0.080067158 9.1835496e-41
0.59195137 0.077852502 0.072567157 5.0653548e-39
0.59195137 0.077852502 0.075067163 1.7502554e-39
0.59445143 0.077852502 0.075067163 1.7502554e-39
0.59195137 0.077852502 0.07756716 1.841742e-39
0.59195137 0.077852502 0.080067158 2.115445e-39
0.59195137 0.0803525 0.080067158 1.2856969e-39
0.59445143 0.077852502 0.07756716 2.7608088e-39
0.59195137 0.082852505 0.07756716 2.4795584e-39
0.59195137 0.082852505 0.080067158 3.7021184e-40
0.59195137 0.085352503 0.07756716 2.4795584e-39
0.59195137 0.085352503 0.080067158 0
0.59445143 0.082852505 0.07756716 2.3877229e-39
0.59445143 0.085352503 0.07756716 2.4795584e-39
0.58695138 0.0878525 0.07006716 3.2232289e-39
0.58695138 0.0878525 0.072567157 3.2253953e-39
0.58695138 0.0878525 0.075067163 3.7760523e-39
0.58695138 0.090352505 0.072567157 4.0522917e-39
0.58695138 0.090352505 0.075067163 4.0522917e-39
0.58945137 0.0878525 0.075067163 3.3140078e-39
0.58945137 0.090352505 0.075067163 3.2261044e-39
0.58945137 0.0878525 0.07756716 2.2976839e-39
0.58945137 0.090352505 0.07756716 2.6679055e-39
0.58695138 0.092852503 0.072567157 4.5132474e-39
0.58695138 0.092852503 0.075067163 4.0555161e-39
0.58695138 0.095352501 0.075067163 5.5101858e-40
0.58945137 0.092852503 0.075067163 3.4094278e-39
0.58695138 0.095352501 0.07756716 1.6530445e-39
0.58945137 0.092852503 0.07756716 2.7658689e-40
0.58945137 0.095352501 0.07756716 0
0.59195137 0.0878525 0.075067163 1.1038266e-39
0.59195137 0.0878525 0.07756716 8.2724394e-40
0.59195137 0.0878525 0.080067158 9.1835496e-41
0.59195137 0.090352505 0.07756716 2.026492e-39
0.59195137 0.090352505 0.080067158 4.5917748e-40
0.59445143 0.0878525 0.07756716 2.5713939e-39
0.59195137 0.092852503 0.07756716 8.2760968e-40
0.59195137 0.092852503 0.080067158 5.5101298e-40
0.59195137 0.095352501 0.07756716 0
0.59195137 0.095352501 0.080067158 6.4284847e-40
0.59695143 0.055352502 0.072567157 7.5387615e-39
0.59695143 0.055352502 0.075067163 1.7448744e-39
0.59695143 0.057852503 0.072567157 3.588773e-39
0.59695143 0.057852503 0.075067163 9.1835496e-40
0.59695143 0.060352501 0.072567157 3.5001773e-39
0.59695143 0.060352501 0.075067163 5.5101298e-40
0.59945142 0.057852503 0.075067163 1.5612217e-39
0.59945142 0.060352501 0.075067163 5.5101298e-40
0.59695143 0.057852503 0.07756716 3.1224069e-39
0.59695143 0.060352501 0.07756716 8.2651947e-40
0.59695143 0.062852502 0.075067163 7.3721471e-40
0.59695143 0.0728525 0.072567157 3.037767e-39
0.59695143 0.075352505 0.072567157 2.667558e-39
0.59695143 0.075352505 0.075067163 2.759755e-39
0.59695143 0.077852502 0.075067163 1.7506141e-39
0.58195138 0.097852498 0.057567161 7.8366131e-39
0.58195138 0.097852498 0.060067158 7.7418994e-39
0.57695138 0.097852498 0.06256716 1.0135016e-38
0.57695138 0.097852498 0.065067157 1.0042799e-38
0.57945138 0.097852498 0.06256716 1.0042446e-38
0.57945138 0.097852498 0.065067157 1.0319777e-38
0.57945138 0.097852498 0.067567162 9.8584079e-39
0.57945138 0.097852498 0.07006716 1.0685313e-38
0.58195138 0.097852498 0.07006716 1.1148443e-38
0.58195138 0.097852498 0.072567157 1.1978191e-38
0.58195138 0.1003525 0.072567157 1.9995627e-38
0.58445138 0.097852498 0.072567157 1.9721921e-38
0.58445138 0.097852498 0.075067163 1.2255514e-38
0.58445138 0.097852498 0.07756716 1.3268227e-38
0.58695138 0.097852498 0.072567157 1.9631167e-38
0.58695138 0.097852498 0.075067163 1.3729571e-38
0.58945137 0.097852498 0.075067163 1.3822119e-38
0.58695138 0.097852498 0.07756716 1.3084198e-38
0.58945137 0.097852498 0.07756716 1.4097274e-38
0.59195137 0.097852498 0.075067163 1.391324e-38
0.59195137 0.097852498 0.07756716 9.1219401e-39
0.58945137 0.075352505 0.082567155 1.102026e-39
0.58945137 0.077852502 0.082567155 8.2651947e-40
0.58945137 0.0803525 0.082567155 1.7448744e-39
