# .PCD v0.7 - Point Cloud Data file format
VERSION 0.7
FIELDS x y z rgb
SIZE 4 4 4 4
TYPE F F F F
COUNT 1 1 1 1
WIDTH 998
HEIGHT 1
VIEWPOINT 0 0 0 1 0 0 0
POINTS 998
DATA ascii
0.88449013 -0.15974165 0.070237905 3.7876411e-39
0.88949013 -0.17724165 0.0677379 2.5901671e-39
0.88949013 -0.17474166 0.0677379 2.6827215e-39
0.88949013 -0.17224166 0.0677379 3.2355547e-39
0.88949013 -0.16974166 0.0677379 3.6954455e-39
0.88699013 -0.17724165 0.070237905 3.3277517e-39
0.88699013 -0.17474166 0.070237905 3.1433591e-39
0.88699013 -0.17724165 0.0752379 3.6979762e-39
0.88699013 -0.17474166 0.0752379 3.9734743e-39
0.88699013 -0.17224166 0.070237905 3.8809213e-39
0.88699013 -0.16974166 0.070237905 3.8809213e-39
0.88699013 -0.17224166 0.0752379 4.0656699e-39
0.88699013 -0.16974166 0.0752379 4.0653168e-39
0.88949013 -0.16724166 0.0677379 3.7876411e-39
0.88949013 -0.16474165 0.0677379 3.6032498e-39
0.88949013 -0.16224165 0.0677379 3.6918315e-39
0.88949013 -0.15974165 0.0677379 3.8762214e-39
0.89199013 -0.16474165 0.0677379 4.0627987e-39
0.89199013 -0.16224165 0.0677379 3.970603e-39
0.88699013 -0.16724166 0.070237905 3.8809213e-39
0.88699013 -0.16474165 0.070237905 3.8809213e-39
0.88949013 -0.16474165 0.070237905 3.9734771e-39
0.88699013 -0.16224165 0.070237905 3.6032498e-39
0.88699013 -0.15974165 0.070237905 3.8784074e-39
0.87949014 -0.17724165 0.080237903 3.3324391e-39
0.87949014 -0.17724165 0.0827379 4.6228122e-39
0.87949014 -0.17474166 0.080237903 3.6072281e-39
0.87949014 -0.17474166 0.0827379 4.8072034e-39
0.87699014 -0.17724165 0.085237898 4.43986e-39
0.87699014 -0.17724165 0.087737903 2.4126506e-39
0.87699014 -0.17474166 0.085237898 4.4398628e-39
0.87699014 -0.17474166 0.087737903 3.3317328e-39
0.87949014 -0.17724165 0.085237898 4.6228122e-39
0.87949014 -0.17724165 0.087737903 3.1487737e-39
0.87949014 -0.17474166 0.085237898 4.8979669e-39
0.87949014 -0.17474166 0.087737903 2.9643824e-39
0.87949014 -0.17224166 0.080237903 4.0674832e-39
0.87949014 -0.17224166 0.0827379 4.7153707e-39
0.87949014 -0.16974166 0.080237903 4.2522318e-39
0.87949014 -0.16974166 0.0827379 5.5397266e-39
0.87699014 -0.17224166 0.085237898 5.2653103e-39
0.87699014 -0.17224166 0.087737903 5.0823484e-39
0.87699014 -0.16974166 0.085237898 4.8983229e-39
0.87699014 -0.16974166 0.087737903 4.7132057e-39
0.87949014 -0.17224166 0.085237898 4.3444274e-39
0.87949014 -0.16974166 0.085237898 3.8845409e-39
0.88199013 -0.17724165 0.080237903 3.3310014e-39
0.88199013 -0.17474166 0.080237903 3.6987049e-39
0.88199013 -0.17224166 0.080237903 3.9752904e-39
0.88199013 -0.16974166 0.080237903 4.4351811e-39
0.87699014 -0.17724165 0.090237901 3.5154108e-39
0.87699014 -0.17724165 0.092737898 2.5974146e-39
0.87699014 -0.17474166 0.090237901 3.6076065e-39
0.87699014 -0.17474166 0.092737898 2.3219067e-39
0.87949014 -0.17724165 0.090237901 4.4351965e-39
0.87949014 -0.17724165 0.092737898 2.5977705e-39
0.87949014 -0.17474166 0.090237901 4.4344875e-39
0.87949014 -0.17474166 0.092737898 2.8729127e-39
0.87949014 -0.17724165 0.095237903 6.1905204e-39
0.87949014 -0.17724165 0.097737901 8.035868e-39
0.87949014 -0.17474166 0.095237903 5.8235428e-39
0.87949014 -0.17474166 0.097737901 8.219553e-39
0.87699014 -0.17224166 0.090237901 3.6076065e-39
0.87699014 -0.17224166 0.092737898 2.5970517e-39
0.87699014 -0.16974166 0.090237901 3.5154108e-39
0.87699014 -0.16974166 0.092737898 2.9654741e-39
0.87949014 -0.17224166 0.090237901 3.8838346e-39
0.87949014 -0.16974166 0.090237901 3.6076065e-39
0.87699014 -0.16974166 0.097737901 7.1121138e-39
0.87949014 -0.17224166 0.095237903 6.4667444e-39
0.87949014 -0.17224166 0.097737901 7.5741836e-39
0.88199013 -0.17724165 0.090237901 4.4344875e-39
0.88199013 -0.17474166 0.090237901 4.5273921e-39
0.88199013 -0.17724165 0.095237903 5.8228127e-39
0.88199013 -0.17724165 0.097737901 7.392665e-39
0.88199013 -0.17474166 0.095237903 5.7320632e-39
0.88199013 -0.17474166 0.097737901 7.6689029e-39
0.88199013 -0.17224166 0.097737901 7.5752583e-39
0.88199013 -0.16974166 0.097737901 8.0358778e-39
0.87699014 -0.16724166 0.0827379 4.252229e-39
0.87699014 -0.16474165 0.080237903 3.8823703e-39
0.87699014 -0.16474165 0.0827379 4.5270208e-39
0.87949014 -0.16724166 0.080237903 3.8823703e-39
0.87949014 -0.16474165 0.080237903 3.697979e-39
0.87699014 -0.16724166 0.085237898 4.6202912e-39
0.87699014 -0.16724166 0.087737903 3.8845409e-39
0.87699014 -0.16474165 0.087737903 4.2518787e-39
0.87699014 -0.16224165 0.080237903 3.5153828e-39
0.87699014 -0.16224165 0.0827379 4.251136e-39
0.87699014 -0.15974165 0.080237903 3.5153828e-39
0.87699014 -0.15974165 0.0827379 5.0808966e-39
0.87699014 -0.16224165 0.087737903 4.3451491e-39
0.87699014 -0.15974165 0.087737903 4.2526003e-39
0.87699014 -0.16724166 0.090237901 3.3328174e-39
0.87699014 -0.16724166 0.092737898 3.4250145e-39
0.87699014 -0.16474165 0.090237901 3.6093959e-39
0.87699014 -0.16474165 0.092737898 3.3331678e-39
0.87699014 -0.16724166 0.097737901 7.2025116e-39
0.87699014 -0.16474165 0.097737901 7.1124669e-39
0.87949014 -0.16474165 0.097737901 8.5876124e-39
0.87699014 -0.16224165 0.090237901 3.4253634e-39
0.87699014 -0.16224165 0.092737898 3.7923438e-39
0.87699014 -0.15974165 0.090237901 3.1494926e-39
0.87699014 -0.15974165 0.092737898 2.9651083e-39
0.87699014 -0.16224165 0.097737901 7.5734451e-39
0.87699014 -0.15974165 0.097737901 7.3886965e-39
0.87949014 -0.16224165 0.095237903 7.4826914e-39
0.87949014 -0.16224165 0.097737901 8.2206278e-39
0.88199013 -0.16224165 0.095237903 8.1284321e-39
0.87699014 -0.16974166 0.1002379 7.8532872e-39
0.87699014 -0.16724166 0.1002379 7.5767017e-39
0.93199015 -0.23724166 0.090237901 3.2399128e-39
0.93199015 -0.23724166 0.092737898 3.1487891e-39
0.94699013 -0.23724166 0.0752379 2.9629601e-39
0.94699013 -0.23724166 0.077737898 3.2381149e-39
0.94949013 -0.23724166 0.0752379 2.8704044e-39
0.94949013 -0.23474166 0.0752379 2.8707575e-39
0.94949013 -0.23474166 0.077737898 2.7782087e-39
0.95199013 -0.23724166 0.070237905 2.8707575e-39
0.95199013 -0.23724166 0.072737902 2.7774955e-39
0.95199013 -0.23474166 0.072737902 2.7782087e-39
0.95449013 -0.23724166 0.070237905 2.9626042e-39
0.95449013 -0.23724166 0.072737902 2.7782087e-39
0.95449013 -0.23474166 0.070237905 2.6860131e-39
0.95449013 -0.23474166 0.072737902 2.5952468e-39
0.95199013 -0.23724166 0.0752379 2.9629545e-39
0.95199013 -0.23474166 0.0752379 2.8707575e-39
0.95199013 -0.23474166 0.077737898 2.7782087e-39
0.95449013 -0.23724166 0.0752379 2.6860159e-39
0.95449013 -0.23474166 0.0752379 2.3183096e-39
0.95199013 -0.23224166 0.077737898 2.5019792e-39
0.93949014 -0.23724166 0.0827379 2.7800108e-39
0.93949014 -0.23474166 0.0827379 2.8704072e-39
0.93699014 -0.23724166 0.085237898 3.3313797e-39
0.93699014 -0.23724166 0.087737903 2.8722064e-39
0.93699014 -0.23474166 0.085237898 3.1473486e-39
0.93699014 -0.23474166 0.087737903 2.5956181e-39
0.93949014 -0.23724166 0.085237898 3.2409875e-39
0.93949014 -0.23474166 0.085237898 2.9629601e-39
0.94199014 -0.23724166 0.0827379 3.1473486e-39
0.94199014 -0.23474166 0.0827379 2.9629601e-39
0.94449013 -0.23724166 0.080237903 3.1459165e-39
0.94449013 -0.23724166 0.0827379 3.0533663e-39
0.94449013 -0.23474166 0.080237903 2.7782087e-39
0.94449013 -0.23474166 0.0827379 2.7782087e-39
0.94199014 -0.23724166 0.085237898 3.2384708e-39
0.94199014 -0.23724166 0.087737903 3.3335377e-39
0.94199014 -0.23474166 0.085237898 2.7778556e-39
0.94199014 -0.23474166 0.087737903 2.5052162e-39
0.94449013 -0.23474166 0.085237898 2.9629545e-39
0.94449013 -0.23474166 0.087737903 2.8704072e-39
0.94199014 -0.23224166 0.0827379 2.5019848e-39
0.94199014 -0.23224166 0.085237898 2.4094304e-39
0.94449013 -0.23224166 0.085237898 1.9524011e-39
0.94449013 -0.23224166 0.087737903 2.4094304e-39
0.93699014 -0.23724166 0.090237901 2.9647552e-39
0.93699014 -0.23724166 0.092737898 3.3317328e-39
0.93949014 -0.23724166 0.090237901 2.7814359e-39
0.93949014 -0.23724166 0.092737898 2.5981335e-39
0.93949014 -0.23474166 0.090237901 2.8725596e-39
0.93949014 -0.23474166 0.092737898 3.238468e-39
0.93699014 -0.23724166 0.097737901 3.1473486e-39
0.93949014 -0.23724166 0.095237903 3.0537194e-39
0.93949014 -0.23724166 0.097737901 3.1473514e-39
0.94199014 -0.23724166 0.090237901 2.6878152e-39
0.94199014 -0.23724166 0.092737898 3.1477017e-39
0.94199014 -0.23474166 0.090237901 2.7782115e-39
0.94199014 -0.23474166 0.092737898 3.1477017e-39
0.94449013 -0.23724166 0.092737898 3.0537194e-39
0.94199014 -0.23474166 0.095237903 2.8704044e-39
0.94449013 -0.23724166 0.095237903 2.5048504e-39
0.94449013 -0.23474166 0.097737901 2.7782087e-39
0.94949013 -0.23474166 0.080237903 2.7782087e-39
0.94949013 -0.23474166 0.0827379 2.6860159e-39
0.94699013 -0.23474166 0.085237898 2.7782087e-39
0.94699013 -0.23474166 0.087737903 2.5019848e-39
0.94949013 -0.23474166 0.087737903 2.5016288e-39
0.94949013 -0.23224166 0.080237903 2.6849313e-39
0.94949013 -0.23224166 0.0827379 2.1342757e-39
0.94699013 -0.23224166 0.085237898 2.318304e-39
0.94699013 -0.23224166 0.087737903 2.1339197e-39
0.94949013 -0.23224166 0.087737903 2.3183096e-39
0.95449013 -0.23474166 0.080237903 2.3183096e-39
0.95199013 -0.23474166 0.085237898 2.5019848e-39
0.95199013 -0.23474166 0.087737903 2.5019848e-39
0.95199013 -0.23224166 0.080237903 2.4105024e-39
0.95199013 -0.23224166 0.0827379 2.4108583e-39
0.95449013 -0.23224166 0.0827379 1.8569783e-39
0.95199013 -0.23224166 0.085237898 2.1339197e-39
0.95199013 -0.23224166 0.087737903 2.1349945e-39
0.95449013 -0.23224166 0.085237898 1.8573314e-39
0.94699013 -0.23724166 0.090237901 2.7782087e-39
0.94699013 -0.23474166 0.090237901 2.7782115e-39
0.94699013 -0.23474166 0.092737898 2.5948937e-39
0.94949013 -0.23474166 0.090237901 2.5019848e-39
0.94699013 -0.23724166 0.095237903 2.4094332e-39
0.94699013 -0.23724166 0.097737901 2.4097835e-39
0.94949013 -0.23474166 0.095237903 2.3179565e-39
0.94699013 -0.23224166 0.090237901 2.6860159e-39
0.94699013 -0.23224166 0.092737898 2.5019848e-39
0.94949013 -0.23224166 0.095237903 2.5019792e-39
0.95199013 -0.23474166 0.092737898 2.5019792e-39
0.95449013 -0.23474166 0.090237901 2.4094304e-39
0.95199013 -0.23474166 0.095237903 2.5016288e-39
0.95449013 -0.23224166 0.090237901 2.042443e-39
0.95199013 -0.23224166 0.095237903 2.1324764e-39
0.95449013 -0.23224166 0.095237903 1.3056038e-39
0.91949016 -0.23724166 0.1077379 3.1459165e-39
0.92449015 -0.23724166 0.1052379 3.1476989e-39
0.92449015 -0.23724166 0.1077379 3.3288644e-39
0.92449015 -0.23474166 0.1077379 3.1459052e-39
0.91699016 -0.23724166 0.1102379 2.9629601e-39
0.91699016 -0.23724166 0.1127379 2.7785619e-39
0.91949016 -0.23724166 0.1102379 2.8704044e-39
0.91949016 -0.23724166 0.1127379 2.5019848e-39
0.91949016 -0.23474166 0.1102379 2.8707575e-39
0.91949016 -0.23474166 0.1127379 2.6849285e-39
0.91699016 -0.23724166 0.1152379 2.4108555e-39
0.91699016 -0.23724166 0.1177379 1.3059569e-39
0.91949016 -0.23724166 0.1152379 2.2246692e-39
0.91949016 -0.23724166 0.1177379 1.1215643e-39
0.92199016 -0.23724166 0.1102379 3.1477045e-39
0.92199016 -0.23474166 0.1102379 2.5019848e-39
0.92449015 -0.23724166 0.1102379 3.0533509e-39
0.92449015 -0.23724166 0.1127379 2.6849257e-39
0.92449015 -0.23474166 0.1102379 2.8707575e-39
0.92449015 -0.23474166 0.1127379 2.8689568e-39
0.92199016 -0.23724166 0.1152379 2.3172376e-39
0.92199016 -0.23724166 0.1177379 7.5350201e-40
0.92199016 -0.23474166 0.1152379 2.5001827e-39
0.92199016 -0.23474166 0.1177379 2.5909308e-39
0.92449015 -0.23724166 0.1152379 2.4079815e-39
0.92449015 -0.23724166 0.1177379 4.7656199e-40
0.92449015 -0.23474166 0.1177379 2.1324736e-39
0.92449015 -0.23224166 0.1102379 2.5016288e-39
0.92949015 -0.23724166 0.1027379 3.0555033e-39
0.92949015 -0.23474166 0.1027379 2.7782115e-39
0.92699015 -0.23474166 0.1077379 2.7782115e-39
0.93199015 -0.23724166 0.1027379 2.8707575e-39
0.93199015 -0.23474166 0.1027379 2.7782115e-39
0.93449014 -0.23724166 0.1002379 3.1473486e-39
0.93449014 -0.23474166 0.1002379 3.0551558e-39
0.93199015 -0.23474166 0.1077379 2.5009002e-39
0.93449014 -0.23474166 0.1077379 2.224672e-39
0.93199015 -0.23224166 0.1052379 1.9524011e-39
0.93449014 -0.23224166 0.1052379 2.3172376e-39
0.93449014 -0.23224166 0.1077379 1.8580475e-39
0.92699015 -0.23724166 0.1102379 2.9611553e-39
0.92699015 -0.23724166 0.1127379 2.6849285e-39
0.92699015 -0.23474166 0.1102379 2.9615112e-39
0.92699015 -0.23474166 0.1127379 2.5927329e-39
0.92949015 -0.23474166 0.1102379 2.0417227e-39
0.92699015 -0.23724166 0.1152379 2.500533e-39
0.92699015 -0.23724166 0.1177379 2.224672e-39
0.92699015 -0.23474166 0.1152379 2.775678e-39
0.92949015 -0.23724166 0.1152379 2.5909308e-39
0.92949015 -0.23724166 0.1177379 2.6834824e-39
0.92949015 -0.23474166 0.1152379 2.224672e-39
0.92949015 -0.23474166 0.1177379 2.2250251e-39
0.92699015 -0.23224166 0.1102379 1.8580503e-39
0.92699015 -0.23224166 0.1127379 2.2243189e-39
0.93199015 -0.23724166 0.1102379 2.5927301e-39
0.93199015 -0.23724166 0.1127379 2.6831292e-39
0.93199015 -0.23474166 0.1102379 2.0402906e-39
0.93449014 -0.23724166 0.1127379 2.4090535e-39
0.93449014 -0.23474166 0.1127379 1.6722213e-39
0.93199015 -0.23724166 0.1177379 1.3956274e-39
0.93199015 -0.23474166 0.1152379 1.674738e-39
0.93199015 -0.23474166 0.1177379 1.5796655e-39
0.93449014 -0.23724166 0.1152379 2.1324736e-39
0.93449014 -0.23474166 0.1152379 1.8566098e-39
0.93449014 -0.23474166 0.1177379 1.7644169e-39
0.91699016 -0.23724166 0.1202379 2.4123031e-39
0.91699016 -0.23724166 0.1227379 3.4271753e-39
0.91949016 -0.23724166 0.1227379 3.4275438e-39
0.92199016 -0.23724166 0.1202379 3.8436216e-40
0.92449015 -0.23724166 0.1202379 1.7736235e-41
0.92449015 -0.23474166 0.1202379 1.9484354e-39
0.92199016 -0.23724166 0.1252379 7.0235335e-39
0.92699015 -0.23724166 0.1202379 1.1190475e-39
0.92699015 -0.23724166 0.1227379 7.5638868e-40
0.92949015 -0.23724166 0.1202379 1.1190475e-39
0.92949015 -0.23724166 0.1227379 1.1219314e-39
0.92699015 -0.23724166 0.1252379 1.7708979e-39
0.93199015 -0.23724166 0.1202379 9.37173e-40
0.93199015 -0.23724166 0.1227379 1.0311651e-39
0.93199015 -0.23474166 0.1202379 1.4874699e-39
0.93199015 -0.23474166 0.1227379 3.8436496e-40
0.93449014 -0.23724166 0.1227379 1.0300875e-39
0.93449014 -0.23474166 0.1202379 1.3938366e-39
0.93449014 -0.23474166 0.1227379 1.0885427e-40
0.93199015 -0.23724166 0.1252379 9.3861634e-40
0.93199015 -0.23724166 0.12773789 6.8362458e-39
0.93449014 -0.23724166 0.1252379 4.4431251e-39
0.93449014 -0.23474166 0.1252379 1.0885427e-40
0.93449014 -0.23224166 0.1227379 1.9459271e-39
0.93449014 -0.23224166 0.1252379 1.2112404e-39
0.93449014 -0.23724166 0.13023791 8.4911036e-39
0.93699014 -0.23724166 0.1002379 3.0555061e-39
0.93699014 -0.23724166 0.1027379 2.8707575e-39
0.94199014 -0.23724166 0.1002379 2.7785647e-39
0.94449013 -0.23474166 0.1002379 2.4998296e-39
0.94199014 -0.23724166 0.1077379 2.5927301e-39
0.94199014 -0.23474166 0.1077379 2.1303226e-39
0.94449013 -0.23474166 0.1052379 1.5796655e-39
0.94199014 -0.23224166 0.1077379 1.5800215e-39
0.94449013 -0.23224166 0.1052379 1.6722213e-39
0.93699014 -0.23724166 0.1127379 2.5909336e-39
0.93699014 -0.23474166 0.1102379 2.040278e-39
0.93699014 -0.23474166 0.1127379 1.8566126e-39
0.93949014 -0.23474166 0.1102379 1.7644169e-39
0.93699014 -0.23724166 0.1152379 2.1328267e-39
0.93949014 -0.23724166 0.1152379 1.3970595e-39
0.93949014 -0.23474166 0.1152379 1.3963561e-39
0.94199014 -0.23474166 0.1102379 1.4874699e-39
0.94449013 -0.23724166 0.1127379 1.9480823e-39
0.94449013 -0.23474166 0.1102379 1.5800215e-39
0.94449013 -0.23474166 0.1127379 1.4878258e-39
0.94199014 -0.23224166 0.1102379 1.7622617e-39
0.94449013 -0.23224166 0.1102379 1.3967064e-39
0.94699013 -0.23474166 0.1027379 2.5927329e-39
0.94949013 -0.23724166 0.1002379 1.5818207e-39
0.94699013 -0.23224166 0.1077379 1.3041605e-39
0.95199013 -0.23724166 0.1002379 1.4874755e-39
0.94699013 -0.23474166 0.1102379 1.5796655e-39
0.94699013 -0.23224166 0.1102379 1.5796711e-39
0.93699014 -0.23474166 0.1227379 1.5942573e-41
0.93699014 -0.23724166 0.12773789 5.0913657e-39
0.93699014 -0.23474166 0.12773789 1.8805425e-41
0.93949014 -0.23724166 0.12773789 7.4808795e-39
0.93949014 -0.23474166 0.1252379 3.8399642e-40
0.93949014 -0.23474166 0.12773789 1.6308312e-41
0.93699014 -0.23224166 0.1227379 2.0381228e-39
0.93699014 -0.23224166 0.12773789 1.3418834e-41
0.94199014 -0.23474166 0.1202379 1.1190447e-39
0.94449013 -0.23474166 0.1227379 8.4245643e-40
0.94199014 -0.23724166 0.12773789 7.2053842e-39
0.94449013 -0.23724166 0.1252379 1.770521e-39
0.94449013 -0.23474166 0.1252379 1.0561727e-40
0.93699014 -0.23724166 0.13023791 6.0118801e-39
0.93699014 -0.23474166 0.13023791 1.4939383e-39
0.93949014 -0.23724166 0.13023791 7.9408011e-39
0.93949014 -0.23474166 0.13023791 4.8969104e-39
0.93699014 -0.23224166 0.13023791 3.8363348e-40
0.94199014 -0.23724166 0.13023791 7.1985613e-39
0.94199014 -0.23474166 0.13023791 5.2649544e-39
0.94449013 -0.23724166 0.13023791 7.2003494e-39
0.94699013 -0.23724166 0.12773789 4.8061497e-39
0.94949013 -0.23724166 0.1252379 5.173465e-39
0.94949013 -0.23724166 0.12773789 7.3833113e-39
0.94949013 -0.23474166 0.1252379 2.907316e-40
0.94949013 -0.23474166 0.12773789 7.4918601e-40
0.94699013 -0.23224166 0.12773789 1.3945428e-39
0.94699013 -0.22974166 0.12773789 1.6707696e-39
0.94949013 -0.23224166 0.1252379 1.6704164e-39
0.94949013 -0.23224166 0.12773789 1.9462803e-39
0.94949013 -0.22974166 0.1252379 1.7626121e-39
0.94949013 -0.22974166 0.12773789 2.0384759e-39
0.95199013 -0.23724166 0.1227379 9.350164e-40
0.95449013 -0.23724166 0.1227379 7.5098387e-40
0.95199013 -0.23724166 0.1252379 1.5818362e-39
0.95449013 -0.23724166 0.12773789 5.2689397e-39
0.95199013 -0.23724166 0.13023791 8.3953122e-39
0.95449013 -0.23724166 0.13023791 8.8591602e-39
0.94699013 -0.22724165 0.12773789 1.3941925e-39
0.94699013 -0.22474165 0.12773789 1.3027129e-39
0.94949013 -0.22724165 0.12773789 1.3045136e-39
0.88449013 -0.15724166 0.0677379 3.4192047e-39
0.88449013 -0.15474166 0.0677379 5.5339112e-39
0.88449013 -0.15224166 0.0677379 5.1662175e-39
0.88449013 -0.14974165 0.0677379 5.1662203e-39
0.87949014 -0.15724166 0.072737902 3.7876411e-39
0.87699014 -0.15724166 0.077737898 3.9734771e-39
0.87699014 -0.15474166 0.077737898 4.0656699e-39
0.87949014 -0.15724166 0.0752379 4.0656727e-39
0.87949014 -0.15474166 0.0752379 4.0656727e-39
0.87949014 -0.14974165 0.072737902 3.6972405e-39
0.87699014 -0.15224166 0.077737898 4.0656727e-39
0.87699014 -0.14974165 0.077737898 3.9734771e-39
0.87949014 -0.15224166 0.0752379 4.0656699e-39
0.87949014 -0.14974165 0.0752379 4.2500612e-39
0.88199013 -0.15724166 0.070237905 4.0606112e-39
0.88199013 -0.15724166 0.072737902 3.7876411e-39
0.88199013 -0.15474166 0.070237905 3.8762214e-39
0.88199013 -0.15474166 0.072737902 3.7876411e-39
0.88199013 -0.15224166 0.070237905 3.5117534e-39
0.88199013 -0.15224166 0.072737902 3.9720281e-39
0.88199013 -0.14974165 0.070237905 3.4220731e-39
0.88199013 -0.14974165 0.072737902 4.3408121e-39
0.88449013 -0.14724165 0.0677379 3.6068231e-39
0.88449013 -0.14474165 0.0677379 3.6990188e-39
0.88449013 -0.14224166 0.0677379 4.7981707e-39
0.88449013 -0.13974166 0.0677379 5.0751205e-39
0.87949014 -0.14724165 0.072737902 3.9738274e-39
0.87699014 -0.14724165 0.077737898 4.5255747e-39
0.87699014 -0.14474165 0.077737898 3.974919e-39
0.87949014 -0.14724165 0.0752379 4.2500612e-39
0.87949014 -0.14474165 0.0752379 4.0656699e-39
0.87949014 -0.14474165 0.077737898 3.7905278e-39
0.87949014 -0.14224166 0.0752379 4.4337322e-39
0.87949014 -0.14224166 0.077737898 3.9749246e-39
0.87949014 -0.13974166 0.0752379 4.4337322e-39
0.87949014 -0.13974166 0.077737898 3.8823703e-39
0.88199013 -0.14724165 0.070237905 3.6068231e-39
0.88199013 -0.14724165 0.072737902 4.2486164e-39
0.88199013 -0.14474165 0.072737902 3.9738274e-39
0.88449013 -0.14474165 0.070237905 4.1553502e-39
0.88199013 -0.14224166 0.070237905 3.9727316e-39
0.88199013 -0.14224166 0.072737902 4.341168e-39
0.88199013 -0.13974166 0.070237905 3.7883473e-39
0.88199013 -0.13974166 0.072737902 4.341168e-39
0.88449013 -0.13974166 0.070237905 4.523774e-39
0.87699014 -0.15724166 0.080237903 3.5117927e-39
0.87699014 -0.15474166 0.080237903 3.9749218e-39
0.87699014 -0.15724166 0.087737903 4.2526003e-39
0.87699014 -0.15474166 0.087737903 4.7146519e-39
0.87699014 -0.15224166 0.080237903 4.3408275e-39
0.87699014 -0.14974165 0.080237903 4.4330231e-39
0.87699014 -0.15724166 0.090237901 3.7005224e-39
0.87699014 -0.15724166 0.092737898 3.1505744e-39
0.87699014 -0.15474166 0.090237901 4.7143015e-39
0.87699014 -0.15474166 0.092737898 2.41914e-39
0.87699014 -0.15724166 0.097737901 7.9411486e-39
0.87699014 -0.15474166 0.097737901 8.9545929e-39
0.87949014 -0.15724166 0.095237903 8.6787136e-39
0.87949014 -0.15724166 0.097737901 8.4957853e-39
0.87949014 -0.15474166 0.095237903 8.7709247e-39
0.87949014 -0.15474166 0.097737901 8.5872789e-39
0.87699014 -0.15224166 0.097737901 8.8634804e-39
0.87699014 -0.14974165 0.097737901 1.1167645e-38
0.87949014 -0.15224166 0.097737901 9.3244782e-39
0.87699014 -0.14724165 0.080237903 4.2504297e-39
0.87699014 -0.14474165 0.080237903 4.4351811e-39
0.87699014 -0.14224166 0.080237903 4.4351811e-39
0.87699014 -0.14224166 0.0827379 4.7103205e-39
0.87699014 -0.13974166 0.080237903 4.7110421e-39
0.87699014 -0.13974166 0.0827379 5.2634928e-39
0.87949014 -0.14224166 0.080237903 4.0671175e-39
0.87949014 -0.13974166 0.080237903 3.9749218e-39
0.87699014 -0.14724165 0.097737901 1.1075097e-38
0.87699014 -0.14474165 0.097737901 9.6021147e-39
0.87949014 -0.14724165 0.097737901 1.17201e-38
0.87949014 -0.14474165 0.097737901 1.1903764e-38
0.87699014 -0.14224166 0.097737901 9.6021147e-39
0.87699014 -0.13974166 0.097737901 9.3258879e-39
0.88199013 -0.14724165 0.097737901 7.5741892e-39
0.88199013 -0.14474165 0.097737901 7.5741892e-39
0.88449013 -0.14724165 0.097737901 6.6525804e-39
0.88449013 -0.14474165 0.097737901 6.376718e-39
0.88199013 -0.14224166 0.097737901 7.4816348e-39
0.88199013 -0.13974166 0.097737901 7.206843e-39
0.88449013 -0.14224166 0.097737901 6.376718e-39
0.88449013 -0.13724166 0.0677379 5.3499123e-39
0.88449013 -0.13474165 0.0677379 5.5353503e-39
0.88449013 -0.13224165 0.0677379 5.9012658e-39
0.88449013 -0.12974165 0.0677379 5.6268397e-39
0.87699014 -0.13724166 0.077737898 4.5255747e-39
0.87949014 -0.13724166 0.0752379 4.5259278e-39
0.87949014 -0.13724166 0.077737898 3.9749218e-39
0.87949014 -0.13474165 0.077737898 4.159669e-39
0.87949014 -0.12974165 0.070237905 5.1673161e-39
0.87949014 -0.12974165 0.072737902 5.5343162e-39
0.87699014 -0.13224165 0.077737898 4.8007168e-39
0.87699014 -0.12974165 0.077737898 4.8007168e-39
0.87949014 -0.13224165 0.0752379 4.6181234e-39
0.87949014 -0.13224165 0.077737898 4.0671146e-39
0.88199013 -0.13724166 0.070237905 5.1673161e-39
0.88199013 -0.13724166 0.072737902 4.341168e-39
0.88199013 -0.13474165 0.070237905 5.2595089e-39
0.88199013 -0.13474165 0.072737902 4.7088715e-39
0.88449013 -0.13724166 0.070237905 4.523774e-39
0.88449013 -0.13474165 0.070237905 4.7088715e-39
0.88199013 -0.13224165 0.070237905 5.6264894e-39
0.88199013 -0.13224165 0.072737902 5.5343162e-39
0.88199013 -0.12974165 0.070237905 5.718685e-39
0.88199013 -0.12974165 0.072737902 4.8936215e-39
0.88449013 -0.12724166 0.0677379 4.7077631e-39
0.88449013 -0.12474166 0.0677379 4.4250749e-39
0.88449013 -0.12224165 0.0677379 5.6243244e-39
0.87949014 -0.12724166 0.070237905 5.7183319e-39
0.87949014 -0.12724166 0.072737902 5.6265118e-39
0.87949014 -0.12474166 0.072737902 5.1666099e-39
0.87699014 -0.12724166 0.077737898 4.8003637e-39
0.87699014 -0.12474166 0.077737898 6.0907298e-39
0.87949014 -0.12224165 0.072737902 4.0599022e-39
0.87699014 -0.12224165 0.077737898 6.552068e-39
0.87699014 -0.11974166 0.077737898 8.0279198e-39
0.87949014 -0.12224165 0.0752379 6.6424588e-39
0.87949014 -0.11974166 0.0752379 8.3966939e-39
0.87949014 -0.11974166 0.077737898 8.1208161e-39
0.88199013 -0.12724166 0.070237905 6.177145e-39
0.88199013 -0.12724166 0.072737902 4.7088715e-39
0.88199013 -0.12474166 0.070237905 5.7158138e-39
0.88199013 -0.12224165 0.070237905 3.508864e-39
0.88199013 -0.12224165 0.072737902 4.7992721e-39
0.88449013 -0.11974166 0.070237905 8.302706e-39
0.88949013 -0.12224165 0.0677379 6.0835117e-39
0.88699013 -0.11974166 0.070237905 8.1201154e-39
0.87699014 -0.13724166 0.080237903 4.4351755e-39
0.87699014 -0.13474165 0.0827379 4.8961551e-39
0.87949014 -0.13474165 0.080237903 4.3436987e-39
0.87699014 -0.13224165 0.080237903 5.4486072e-39
0.87699014 -0.12974165 0.080237903 5.4486072e-39
0.87949014 -0.13224165 0.080237903 4.5284487e-39
0.87699014 -0.13724166 0.097737901 1.0061648e-38
0.87699014 -0.13474165 0.097737901 1.0430433e-38
0.87699014 -0.12724166 0.080237903 5.7237619e-39
0.87699014 -0.12474166 0.080237903 6.0007089e-39
0.87699014 -0.12474166 0.0827379 6.4602578e-39
0.87699014 -0.12474166 0.087737903 6.0911235e-39
0.87699014 -0.12224165 0.080237903 6.8293906e-39
0.87699014 -0.12224165 0.0827379 6.8293906e-39
0.87699014 -0.11974166 0.080237903 7.1978004e-39
0.87699014 -0.11974166 0.0827379 7.3818413e-39
0.87949014 -0.11974166 0.080237903 8.5796418e-39
0.87949014 -0.11974166 0.0827379 8.5810852e-39
0.87699014 -0.12224165 0.085237898 6.5542457e-39
0.87699014 -0.12224165 0.087737903 6.3677118e-39
0.87699014 -0.11974166 0.085237898 8.1208343e-39
0.87699014 -0.11974166 0.087737903 7.4732985e-39
0.87949014 -0.11974166 0.085237898 8.7640373e-39
0.87949014 -0.11974166 0.087737903 9.2250112e-39
0.87699014 -0.12724166 0.090237901 5.4486254e-39
0.87699014 -0.12474166 0.090237901 5.9989251e-39
0.87699014 -0.12474166 0.092737898 6.091471e-39
0.87949014 -0.12474166 0.090237901 5.8163317e-39
0.87699014 -0.12724166 0.097737901 6.8297592e-39
0.87699014 -0.12474166 0.097737901 4.9905185e-39
0.87949014 -0.12474166 0.095237903 5.8163317e-39
0.87949014 -0.12474166 0.097737901 5.3567997e-39
0.87699014 -0.12224165 0.090237901 6.4602634e-39
0.87699014 -0.12224165 0.092737898 6.6446476e-39
0.87699014 -0.11974166 0.090237901 7.5658444e-39
0.87699014 -0.11974166 0.092737898 6.829371e-39
0.87949014 -0.12224165 0.090237901 6.7368405e-39
0.87949014 -0.12224165 0.092737898 6.7368405e-39
0.87949014 -0.11974166 0.090237901 7.1070341e-39
0.87949014 -0.11974166 0.092737898 8.6732836e-39
0.87949014 -0.12224165 0.095237903 6.644642e-39
0.87949014 -0.12224165 0.097737901 6.0007244e-39
0.87949014 -0.11974166 0.095237903 7.0141378e-39
0.87949014 -0.11974166 0.097737901 7.3811028e-39
0.88199013 -0.12474166 0.097737901 7.7527903e-39
0.88199013 -0.11974166 0.090237901 7.4729425e-39
0.88199013 -0.11974166 0.092737898 8.9484257e-39
0.88449013 -0.11974166 0.092737898 8.3055927e-39
0.88199013 -0.12224165 0.095237903 6.0947179e-39
0.88199013 -0.12224165 0.097737901 6.5542485e-39
0.88199013 -0.11974166 0.095237903 8.3048766e-39
0.88199013 -0.11974166 0.097737901 7.2892828e-39
0.88449013 -0.11974166 0.097737901 9.3172111e-39
0.87699014 -0.14224166 0.1002379 6.9295386e-39
0.87699014 -0.13974166 0.1002379 7.0224545e-39
0.87699014 -0.13474165 0.1027379 6.9273722e-39
0.87699014 -0.13224165 0.1027379 7.1117635e-39
0.87699014 -0.12974165 0.1027379 7.8475068e-39
0.87699014 -0.12974165 0.1052379 6.8351696e-39
0.87699014 -0.12974165 0.1077379 6.2827189e-39
0.87949014 -0.12974165 0.1077379 6.6507783e-39
0.87699014 -0.12974165 0.1102379 6.4674661e-39
0.87699014 -0.12974165 0.1127379 5.3622045e-39
0.87949014 -0.12974165 0.1127379 5.3622073e-39
0.87699014 -0.12974165 0.1152379 5.0859735e-39
0.87699014 -0.12974165 0.1177379 5.3600423e-39
0.87949014 -0.12974165 0.1152379 5.1785293e-39
0.87949014 -0.12974165 0.1177379 5.0845316e-39
0.88199013 -0.12974165 0.1152379 5.5437119e-39
0.88199013 -0.12974165 0.1177379 4.9919772e-39
0.87699014 -0.12724166 0.1002379 9.137524e-39
0.87699014 -0.12724166 0.1027379 8.3084864e-39
0.87699014 -0.12474166 0.1002379 8.0311764e-39
0.87949014 -0.12724166 0.1002379 8.1237476e-39
0.87949014 -0.12724166 0.1027379 7.2057472e-39
0.87949014 -0.12474166 0.1002379 8.49217e-39
0.87949014 -0.12474166 0.1027379 7.6652848e-39
0.87699014 -0.12724166 0.1052379 7.2961477e-39
0.87699014 -0.12724166 0.1077379 6.1905232e-39
0.87949014 -0.12724166 0.1077379 6.7429739e-39
0.87949014 -0.12474166 0.1077379 6.4678192e-39
0.88199013 -0.12474166 0.1002379 7.9393465e-39
0.88449013 -0.12474166 0.1027379 6.5621798e-39
0.88199013 -0.12724166 0.1052379 7.3886937e-39
0.88199013 -0.12474166 0.1052379 7.2979302e-39
0.88199013 -0.12474166 0.1077379 6.8337276e-39
0.88449013 -0.12474166 0.1052379 6.6522076e-39
0.88449013 -0.12474166 0.1077379 5.5437175e-39
0.88199013 -0.12224165 0.1002379 6.2801853e-39
0.88199013 -0.11974166 0.1002379 7.2885471e-39
0.88449013 -0.12224165 0.1027379 5.3636366e-39
0.88449013 -0.11974166 0.1002379 9.5945196e-39
0.88449013 -0.11974166 0.1027379 7.0137553e-39
0.88199013 -0.12224165 0.1077379 6.2834251e-39
0.88199013 -0.11974166 0.1077379 6.8322479e-39
0.88449013 -0.12224165 0.1052379 6.1908708e-39
0.88449013 -0.12224165 0.1077379 5.5422798e-39
0.88449013 -0.11974166 0.1052379 7.1070495e-39
0.88449013 -0.11974166 0.1077379 5.5415217e-39
0.87699014 -0.12724166 0.1102379 6.3752704e-39
0.87699014 -0.12724166 0.1127379 5.3622045e-39
0.87949014 -0.12724166 0.1127379 5.1781762e-39
0.87949014 -0.12474166 0.1127379 5.0831065e-39
0.87699014 -0.12724166 0.1152379 5.0859735e-39
0.87699014 -0.12724166 0.1177379 5.3600423e-39
0.87949014 -0.12724166 0.1152379 5.1785293e-39
0.87949014 -0.12724166 0.1177379 4.9919772e-39
0.87949014 -0.12474166 0.1152379 4.7154002e-39
0.88199013 -0.12724166 0.1102379 5.72775e-39
0.88199013 -0.12724166 0.1127379 5.7270298e-39
0.88199013 -0.12474166 0.1102379 5.4511659e-39
0.88199013 -0.12474166 0.1127379 5.4500841e-39
0.88199013 -0.12724166 0.1152379 5.5437119e-39
0.88199013 -0.12724166 0.1177379 4.9919772e-39
0.88199013 -0.12474166 0.1177379 4.4380902e-39
0.88449013 -0.12724166 0.1152379 4.9927059e-39
0.88449013 -0.12724166 0.1177379 5.1749238e-39
0.88449013 -0.12474166 0.1152379 4.439172e-39
0.88449013 -0.12474166 0.1177379 4.0700308e-39
0.88199013 -0.12224165 0.1102379 5.5440818e-39
0.88199013 -0.12224165 0.1127379 4.8987124e-39
0.88449013 -0.11974166 0.1102379 6.0918116e-39
0.88199013 -0.12224165 0.1177379 3.1538324e-39
0.88449013 -0.12224165 0.1152379 4.8065182e-39
0.88449013 -0.12224165 0.1177379 4.0700308e-39
0.88449013 -0.11974166 0.1152379 4.803235e-39
0.88449013 -0.11974166 0.1177379 5.3527948e-39
0.88699013 -0.11974166 0.1077379 5.9085119e-39
0.88699013 -0.11974166 0.1127379 5.7212438e-39
0.88699013 -0.12224165 0.1177379 3.9785512e-39
0.88699013 -0.11974166 0.1152379 5.3542563e-39
0.88699013 -0.11974166 0.1177379 5.2602488e-39
0.87949014 -0.12974165 0.1227379 4.0700279e-39
0.88199013 -0.12974165 0.1202379 4.4398811e-39
0.87949014 -0.12724166 0.1227379 4.6221185e-39
0.88199013 -0.12724166 0.1202379 4.5320767e-39
0.88199013 -0.12724166 0.1227379 4.4384405e-39
0.88199013 -0.12474166 0.1202379 3.7030419e-39
0.88199013 -0.12474166 0.1227379 3.9781868e-39
0.88449013 -0.12724166 0.1202379 4.7157491e-39
0.88449013 -0.12724166 0.1227379 4.2529759e-39
0.88449013 -0.12474166 0.1202379 4.0703839e-39
0.88449013 -0.12474166 0.1227379 4.4373601e-39
0.88199013 -0.12724166 0.1252379 3.9781868e-39
0.88449013 -0.12224165 0.1202379 3.978554e-39
0.88449013 -0.12224165 0.1227379 3.5186506e-39
0.88699013 -0.12724166 0.1252379 3.7930739e-39
0.88699013 -0.12724166 0.12773789 4.5295431e-39
0.88699013 -0.12474166 0.1252379 3.7930739e-39
0.88699013 -0.12474166 0.12773789 4.2525975e-39
0.88949013 -0.12724166 0.1252379 4.1622026e-39
0.88949013 -0.12474166 0.1252379 3.9774526e-39
0.88699013 -0.12224165 0.1202379 3.9781981e-39
0.88699013 -0.12224165 0.1227379 3.3349796e-39
0.88699013 -0.11974166 0.1202379 5.075859e-39
0.88699013 -0.11974166 0.1227379 4.8911146e-39
0.88949013 -0.12224165 0.1227379 3.4257333e-39
0.88949013 -0.11974166 0.1227379 4.798919e-39
0.88699013 -0.12224165 0.1252379 3.1505856e-39
0.88699013 -0.11974166 0.1252379 4.7989161e-39
0.88949013 -0.12224165 0.1252379 3.7015916e-39
0.88949013 -0.11974166 0.1252379 3.8830891e-39
0.89199013 -0.12724166 0.12773789 1.8580503e-39
0.89199013 -0.12474166 0.12773789 1.8573314e-39
0.89199013 -0.12224165 0.12773789 3.3303007e-39
0.89199013 -0.11974166 0.12773789 6.9233897e-39
0.89449012 -0.11974166 0.1252379 6.9241086e-39
0.89449012 -0.11974166 0.12773789 8.5843502e-39
0.89449012 -0.12224165 0.13023791 7.5063495e-40
0.89949012 -0.12224165 0.12773789 4.0747125e-39
0.89949012 -0.11974166 0.12773789 7.2983001e-39
0.90199012 -0.12224165 0.12773789 2.5967112e-39
0.90199012 -0.11974166 0.12773789 6.5560589e-39
0.90449011 -0.11974166 0.12773789 5.2653229e-39
0.89699012 -0.12224165 0.13023791 3.9821665e-39
0.89699012 -0.11974166 0.13023791 6.837322e-39
0.89949012 -0.12224165 0.13023791 3.0562642e-39
0.89949012 -0.11974166 0.13023791 6.2823503e-39
0.90199012 -0.12224165 0.13023791 2.5923923e-39
0.90199012 -0.11974166 0.13023791 5.0838099e-39
0.90449011 -0.12224165 0.13023791 1.8474719e-41
0.90449011 -0.11974166 0.13023791 5.9085259e-39
0.90449011 -0.11974166 0.1327379 3.3313853e-39
0.90449011 -0.11974166 0.1352379 3.3273818e-39
0.90699011 -0.12224165 0.13023791 1.4890197e-41
0.90699011 -0.11974166 0.13023791 5.3560738e-39
0.90699011 -0.11974166 0.1327379 3.0515586e-39
0.90949017 -0.11974166 0.1352379 2.3122013e-39
0.87949014 -0.11724166 0.077737898 8.302706e-39
0.88199013 -0.11724166 0.072737902 8.8522799e-39
0.88449013 -0.11724166 0.072737902 8.668955e-39
0.88199013 -0.11724166 0.0752379 8.3037962e-39
0.88199013 -0.11724166 0.077737898 8.3037934e-39
0.88449013 -0.11724166 0.077737898 8.1197595e-39
0.87949014 -0.11724166 0.080237903 8.5789384e-39
0.87949014 -0.11724166 0.0827379 9.042792e-39
0.87699014 -0.11724166 0.085237898 7.9378864e-39
0.87699014 -0.11724166 0.087737903 9.4087004e-39
0.87949014 -0.11724166 0.085237898 9.3186684e-39
0.87949014 -0.11724166 0.087737903 9.5930917e-39
0.88199013 -0.11724166 0.080237903 8.5814593e-39
0.88199013 -0.11724166 0.085237898 9.2268259e-39
0.87699014 -0.11724166 0.090237901 9.2257567e-39
0.87949014 -0.11724166 0.090237901 8.6754542e-39
0.87949014 -0.11724166 0.092737898 9.0438794e-39
0.87949014 -0.11724166 0.095237903 9.2261197e-39
0.87949014 -0.11724166 0.097737901 9.4101508e-39
0.87949014 -0.11474165 0.095237903 7.2900114e-39
0.87949014 -0.11474165 0.097737901 7.3818469e-39
0.88199013 -0.11724166 0.090237901 9.5026967e-39
0.88199013 -0.11724166 0.092737898 9.5026967e-39
0.88199013 -0.11474165 0.090237901 7.5673116e-39
0.88449013 -0.11724166 0.092737898 9.8693213e-39
0.88449013 -0.11474165 0.092737898 7.4743901e-39
0.88199013 -0.11724166 0.095237903 9.0413627e-39
0.88199013 -0.11724166 0.097737901 9.410148e-39
0.88199013 -0.11474165 0.095237903 7.4736866e-39
0.88199013 -0.11474165 0.097737901 7.2896485e-39
0.88449013 -0.11724166 0.097737901 9.6863789e-39
0.88449013 -0.11474165 0.097737901 7.3818469e-39
0.88199013 -0.11724166 0.1002379 9.6867321e-39
0.88199013 -0.11474165 0.1002379 6.5545988e-39
0.88449013 -0.11724166 0.1002379 9.7785746e-39
0.88449013 -0.11724166 0.1027379 1.0055517e-38
0.88449013 -0.11474165 0.1002379 7.1049013e-39
0.88449013 -0.11474165 0.1027379 7.1048985e-39
0.88199013 -0.11724166 0.1077379 8.2151823e-39
0.88449013 -0.11724166 0.1052379 9.410148e-39
0.88449013 -0.11724166 0.1077379 7.7542182e-39
0.88449013 -0.11474165 0.1052379 7.0116197e-39
0.88199013 -0.11224166 0.1002379 6.3684125e-39
0.88449013 -0.11224166 0.1027379 6.4620514e-39
0.88449013 -0.11224166 0.1052379 6.1858219e-39
0.88449013 -0.11724166 0.1102379 8.3963436e-39
0.88199013 -0.11724166 0.1177379 8.4874462e-39
0.88449013 -0.11724166 0.1152379 8.2126754e-39
0.88449013 -0.11724166 0.1177379 8.4874462e-39
0.88449013 -0.11474165 0.1177379 8.3019801e-39
0.88699013 -0.11474165 0.1027379 6.6442791e-39
0.88699013 -0.11724166 0.1077379 9.8693241e-39
0.88699013 -0.11474165 0.1052379 6.8283172e-39
0.88699013 -0.11474165 0.1077379 7.0116197e-39
0.88949013 -0.11474165 0.1077379 7.1970969e-39
0.89199013 -0.11474165 0.1077379 5.2660264e-39
0.88699013 -0.11724166 0.1102379 1.005552e-38
0.88699013 -0.11724166 0.1127379 8.8558952e-39
0.88699013 -0.11474165 0.1102379 6.8286732e-39
0.88949013 -0.11474165 0.1102379 7.3818469e-39
0.88949013 -0.11474165 0.1127379 7.3789715e-39
0.88699013 -0.11724166 0.1152379 8.3970723e-39
0.88699013 -0.11724166 0.1177379 8.5792915e-39
0.88699013 -0.11474165 0.1152379 7.3800435e-39
0.88699013 -0.11474165 0.1177379 8.3023333e-39
0.88949013 -0.11474165 0.1177379 8.7618821e-39
0.88949013 -0.11224166 0.1177379 6.0911025e-39
0.89199013 -0.11474165 0.1127379 6.1836569e-39
0.89449012 -0.11474165 0.1102379 6.184024e-39
0.87699014 -0.11474165 0.1252379 1.1344792e-38
0.87949014 -0.11474165 0.12773789 1.1892941e-38
0.87699014 -0.11224166 0.1252379 9.5938162e-39
0.87699014 -0.10974166 0.1252379 6.0900235e-39
0.87949014 -0.11224166 0.12773789 1.0238111e-38
0.87949014 -0.10974166 0.12773789 6.5502842e-39
0.88449013 -0.11724166 0.1202379 8.3966939e-39
0.88449013 -0.11724166 0.1227379 1.1250798e-38
0.88449013 -0.11474165 0.1202379 1.0236621e-38
0.88449013 -0.11474165 0.1227379 1.106713e-38
0.88199013 -0.11474165 0.1252379 1.1250442e-38
0.88199013 -0.11474165 0.12773789 1.1709981e-38
0.88449013 -0.11474165 0.1252379 1.1893659e-38
0.88449013 -0.11474165 0.12773789 9.2268231e-39
0.88449013 -0.11224166 0.1227379 9.8693241e-39
0.88199013 -0.11224166 0.1252379 9.7764068e-39
0.88199013 -0.11224166 0.12773789 9.8725485e-39
0.88199013 -0.10974166 0.12773789 5.6322725e-39
0.88449013 -0.11224166 0.1252379 9.8721953e-39
0.87949014 -0.11474165 0.13023791 9.5019709e-39
0.87949014 -0.11224166 0.13023791 9.5005457e-39
0.87949014 -0.10974166 0.13023791 6.5502842e-39
0.88199013 -0.11224166 0.1327379 6.3669691e-39
0.88199013 -0.10974166 0.1327379 5.5386378e-39
0.88449013 -0.10974166 0.13023791 5.6326453e-39
0.88699013 -0.11724166 0.1202379 8.4867371e-39
0.88699013 -0.11724166 0.1227379 8.3023529e-39
0.88699013 -0.11474165 0.1202379 1.0511766e-38
0.88699013 -0.11474165 0.1227379 1.134336e-38
0.88949013 -0.11724166 0.1227379 8.1179616e-39
0.88949013 -0.11474165 0.1227379 1.1893662e-38
0.88699013 -0.11724166 0.1252379 8.4867399e-39
0.88699013 -0.11474165 0.1252379 1.1800745e-38
0.88949013 -0.11724166 0.1252379 5.6351662e-39
0.88949013 -0.11474165 0.1252379 7.380377e-39
0.88699013 -0.11224166 0.1202379 6.8297423e-39
0.88699013 -0.11224166 0.1227379 9.2261071e-39
0.88949013 -0.11224166 0.1227379 1.0056233e-38
0.88699013 -0.11224166 0.1252379 1.0514693e-38
0.88699013 -0.11224166 0.12773789 6.0911053e-39
0.88949013 -0.11224166 0.1252379 7.1070523e-39
0.89199013 -0.11724166 0.12773789 6.4624046e-39
0.89449012 -0.11724166 0.1252379 7.0123231e-39
0.89449012 -0.11724166 0.12773789 8.2155677e-39
0.89449012 -0.11474165 0.1252379 5.8145128e-39
0.89199013 -0.11224166 0.12773789 5.7241179e-39
0.89449012 -0.11224166 0.1252379 5.9999817e-39
0.89949012 -0.11474165 0.1227379 5.7233962e-39
0.89699012 -0.11724166 0.1252379 6.5567526e-39
0.89699012 -0.11474165 0.1252379 4.5284487e-39
0.89949012 -0.11724166 0.12773789 7.0195258e-39
0.89949012 -0.11474165 0.1252379 5.7233962e-39
0.89949012 -0.11474165 0.12773789 4.2536569e-39
0.89949012 -0.11224166 0.1227379 5.8155918e-39
0.89699012 -0.11224166 0.1252379 5.6319222e-39
0.89949012 -0.11224166 0.1252379 5.8155918e-39
0.89949012 -0.11224166 0.12773789 6.6424588e-39
0.89949012 -0.10974166 0.1252379 6.3665978e-39
0.89949012 -0.10974166 0.12773789 7.1934648e-39
0.90199012 -0.11724166 0.12773789 7.5712506e-39
0.90199012 -0.11474165 0.12773789 4.6209919e-39
0.90449011 -0.11724166 0.12773789 9.5055708e-39
0.90449011 -0.11474165 0.12773789 4.8064607e-39
0.90199012 -0.11224166 0.12773789 6.4584179e-39
0.90199012 -0.10974166 0.12773789 6.7342509e-39
0.89699012 -0.11724166 0.13023791 7.3904957e-39
0.89949012 -0.11724166 0.13023791 7.2042674e-39
0.89949012 -0.11474165 0.13023791 4.2540072e-39
0.90199012 -0.11724166 0.13023791 8.9531131e-39
0.90199012 -0.11474165 0.13023791 4.988701e-39
0.90199012 -0.11474165 0.1327379 5.8170295e-39
0.90449011 -0.11724166 0.1327379 9.3204677e-39
0.90449011 -0.11474165 0.13023791 6.2743797e-39
0.90449011 -0.11474165 0.1327379 6.73899e-39
0.90449011 -0.11724166 0.1352379 9.9640378e-39
0.90449011 -0.11474165 0.1352379 7.1019726e-39
0.90199012 -0.11224166 0.13023791 6.5509666e-39
0.90199012 -0.11224166 0.1327379 6.4587682e-39
0.90199012 -0.10974166 0.1327379 7.1930612e-39
0.90449011 -0.11224166 0.13023791 6.458771e-39
0.90449011 -0.11224166 0.1327379 6.6410015e-39
0.90449011 -0.11224166 0.1352379 6.4566032e-39
0.90449011 -0.10974166 0.1352379 7.1920018e-39
0.90699011 -0.11724166 0.13023791 1.0517199e-38
0.90699011 -0.11724166 0.1327379 1.0055868e-38
0.90699011 -0.11474165 0.13023791 6.4602325e-39
0.90699011 -0.11474165 0.1327379 7.2899988e-39
0.90699011 -0.11474165 0.1352379 7.747342e-39
0.90949017 -0.11724166 0.1352379 8.5796811e-39
0.90949017 -0.11474165 0.1352379 8.3030914e-39
0.90699011 -0.11224166 0.1352379 6.3644076e-39
0.90699011 -0.11224166 0.1377379 5.3556632e-39
0.95699012 -0.23724166 0.0677379 2.8707575e-39
0.95699012 -0.23474166 0.0677379 2.6877956e-39
0.95949012 -0.23474166 0.0677379 2.5030512e-39
0.96449012 -0.23474166 0.0677379 2.5952468e-39
0.96449012 -0.23224166 0.0677379 3.0537068e-39
0.95699012 -0.23724166 0.070237905 2.6860159e-39
0.95699012 -0.23474166 0.070237905 2.5956027e-39
0.95949012 -0.23724166 0.072737902 2.5016288e-39
0.95949012 -0.23474166 0.072737902 2.686369e-39
0.95699012 -0.23724166 0.0752379 3.2381149e-39
0.95699012 -0.23474166 0.0752379 2.686369e-39
0.95699012 -0.23474166 0.077737898 2.5016288e-39
0.95949012 -0.23724166 0.0752379 2.7782087e-39
0.95949012 -0.23474166 0.0752379 2.686369e-39
0.96199012 -0.23724166 0.072737902 2.7785619e-39
0.96199012 -0.23474166 0.070237905 2.4108555e-39
0.96199012 -0.23474166 0.072737902 2.4097835e-39
0.96449012 -0.23724166 0.070237905 2.5019848e-39
0.96449012 -0.23724166 0.072737902 2.7774955e-39
0.96449012 -0.23474166 0.070237905 2.0417227e-39
0.96449012 -0.23474166 0.072737902 2.318304e-39
0.96449012 -0.23474166 0.0752379 1.8573314e-39
0.96449012 -0.23224166 0.070237905 2.9615112e-39
0.96449012 -0.23224166 0.072737902 2.5030512e-39
0.96199012 -0.23224166 0.0752379 2.1342757e-39
0.96199012 -0.23224166 0.077737898 2.1342728e-39
0.96449012 -0.23224166 0.0752379 2.3186599e-39
0.96449012 -0.23224166 0.077737898 1.9502431e-39
0.96699011 -0.23474166 0.0677379 2.1342757e-39
0.96699011 -0.23224166 0.0677379 2.4097835e-39
0.97199017 -0.23224166 0.0677379 2.4108555e-39
0.96699011 -0.23474166 0.072737902 2.0413696e-39
0.96949011 -0.23724166 0.072737902 2.3179565e-39
0.96949011 -0.23474166 0.072737902 2.0413696e-39
0.96699011 -0.23474166 0.0752379 2.3172376e-39
0.96949011 -0.23474166 0.077737898 2.3150824e-39
0.96699011 -0.23224166 0.072737902 2.5927301e-39
0.96949011 -0.23224166 0.070237905 2.9615112e-39
0.96949011 -0.23224166 0.072737902 2.6849257e-39
0.96699011 -0.23224166 0.0752379 2.224672e-39
0.96949011 -0.23224166 0.077737898 2.224672e-39
0.97199017 -0.23724166 0.072737902 2.3183068e-39
0.97199017 -0.23474166 0.070237905 2.0417227e-39
0.97199017 -0.23474166 0.072737902 2.0417227e-39
0.97449017 -0.23724166 0.072737902 2.042443e-39
0.97449017 -0.23474166 0.072737902 1.489272e-39
0.97199017 -0.23224166 0.070237905 2.4108555e-39
0.97199017 -0.23224166 0.072737902 2.4079843e-39
0.97449017 -0.23224166 0.072737902 1.8573314e-39
0.97199017 -0.23224166 0.0752379 2.4079871e-39
0.97449017 -0.23224166 0.077737898 1.3059569e-39
0.95699012 -0.23474166 0.0827379 2.4105052e-39
0.95949012 -0.23474166 0.080237903 2.4101521e-39
0.95949012 -0.23474166 0.085237898 2.0424458e-39
0.95949012 -0.23474166 0.087737903 2.0427989e-39
0.95699012 -0.23224166 0.0827379 1.6722311e-39
0.95949012 -0.23224166 0.080237903 1.8573314e-39
0.95949012 -0.23224166 0.0827379 1.9495271e-39
0.95699012 -0.23224166 0.087737903 2.042443e-39
0.95949012 -0.23224166 0.085237898 1.0290155e-39
0.95949012 -0.23224166 0.087737903 2.224672e-39
0.96199012 -0.23224166 0.080237903 1.9495271e-39
0.96449012 -0.23224166 0.080237903 1.8580475e-39
0.96449012 -0.23224166 0.0827379 1.3063128e-39
0.96199012 -0.23224166 0.085237898 1.5818235e-39
0.95699012 -0.23474166 0.092737898 1.6751038e-39
0.95949012 -0.23724166 0.092737898 1.9502431e-39
0.95949012 -0.23474166 0.092737898 1.8580475e-39
0.95699012 -0.23724166 0.095237903 1.9495271e-39
0.95949012 -0.23724166 0.095237903 1.8580475e-39
0.95949012 -0.23724166 0.097737901 1.7644141e-39
0.95949012 -0.23474166 0.095237903 1.6740164e-39
0.95699012 -0.23224166 0.090237901 1.8580475e-39
0.95699012 -0.23224166 0.092737898 2.1324764e-39
0.95699012 -0.22974166 0.090237901 1.4874727e-39
0.95949012 -0.23224166 0.092737898 2.1324764e-39
0.95949012 -0.22974166 0.092737898 1.5800215e-39
0.95949012 -0.23224166 0.095237903 1.7644169e-39
0.96199012 -0.23474166 0.092737898 1.489988e-39
0.96449012 -0.23474166 0.092737898 2.224672e-39
0.96199012 -0.23724166 0.095237903 1.7629806e-39
0.96449012 -0.23474166 0.095237903 1.7629806e-39
0.96199012 -0.23224166 0.092737898 1.3059569e-39
0.96449012 -0.23224166 0.092737898 1.5796655e-39
0.96199012 -0.23224166 0.095237903 1.3041577e-39
0.96699011 -0.23474166 0.080237903 1.489272e-39
0.96949011 -0.23474166 0.0827379 2.4079871e-39
0.96949011 -0.23474166 0.085237898 2.0399248e-39
0.96699011 -0.23224166 0.080237903 2.1324736e-39
0.96949011 -0.23224166 0.080237903 1.6729346e-39
0.96949011 -0.23224166 0.0827379 1.8566098e-39
0.96699011 -0.23224166 0.085237898 1.3063128e-39
0.96949011 -0.23224166 0.085237898 1.0300875e-39
0.97199017 -0.23224166 0.080237903 1.6722213e-39
0.97449017 -0.23224166 0.080237903 1.7644141e-39
0.97699016 -0.23224166 0.0677379 2.318304e-39
0.97949016 -0.23724166 0.072737902 1.9495271e-39
0.97949016 -0.23474166 0.072737902 2.1324736e-39
0.97699016 -0.23224166 0.070237905 2.1346288e-39
0.97949016 -0.23224166 0.072737902 2.0402808e-39
0.97699016 -0.23224166 0.077737898 1.6722213e-39
0.97949016 -0.23224166 0.0752379 1.5796655e-39
0.98199016 -0.23724166 0.070237905 1.5818207e-39
0.98199016 -0.23724166 0.072737902 1.8580475e-39
0.98199016 -0.23474166 0.070237905 1.6740164e-39
0.98199016 -0.23474166 0.072737902 1.5818235e-39
0.98449016 -0.23724166 0.070237905 1.489272e-39
0.98449016 -0.23724166 0.072737902 1.3967232e-39
0.98449016 -0.23474166 0.070237905 1.5818207e-39
0.98449016 -0.23474166 0.072737902 1.3056038e-39
0.98449016 -0.23724166 0.0752379 1.6740164e-39
0.98449016 -0.23724166 0.077737898 1.489272e-39
0.98449016 -0.23474166 0.0752379 1.5800215e-39
0.98449016 -0.23474166 0.077737898 1.3963589e-39
0.98449016 -0.23224166 0.070237905 1.30631e-39
0.98449016 -0.23224166 0.072737902 1.7644169e-39
0.98199016 -0.23224166 0.077737898 1.5800215e-39
0.98949015 -0.23474166 0.0677379 1.4892692e-39
0.98949015 -0.23224166 0.0677379 2.040278e-39
0.98699015 -0.23724166 0.072737902 1.6740192e-39
0.98699015 -0.23474166 0.072737902 1.2137613e-39
0.98949015 -0.23474166 0.070237905 1.0290155e-39
0.98949015 -0.23474166 0.072737902 1.0293658e-39
0.98699015 -0.23224166 0.072737902 1.5800215e-39
0.99199015 -0.23724166 0.072737902 1.6743723e-39
0.99199015 -0.23474166 0.070237905 1.1215643e-39
0.99199015 -0.23474166 0.072737902 1.6729402e-39
0.99449015 -0.23724166 0.072737902 1.4874727e-39
0.99449015 -0.23474166 0.072737902 1.3952771e-39
0.99199015 -0.23224166 0.070237905 1.6722185e-39
0.99199015 -0.22974166 0.070237905 1.5796655e-39
0.99449015 -0.23224166 0.072737902 1.1197664e-39
0.99449015 -0.22974166 0.072737902 1.5778677e-39
0.97949016 -0.23474166 0.080237903 2.224672e-39
0.97949016 -0.23474166 0.0827379 2.0402808e-39
0.97949016 -0.23224166 0.080237903 1.6722213e-39
0.97949016 -0.23224166 0.0827379 1.3963533e-39
0.96699011 -0.23474166 0.1177379 1.6704164e-39
0.96949011 -0.23474166 0.1152379 1.3938394e-39
0.97199017 -0.23474166 0.1177379 2.0381228e-39
0.97199017 -0.22974166 0.1177379 1.3941897e-39
0.97449017 -0.23224166 0.1177379 1.5782208e-39
0.97449017 -0.22974166 0.1177379 1.1179615e-39
0.95699012 -0.23724166 0.1227379 1.6715122e-39
0.95699012 -0.23474166 0.1202379 9.350164e-40
0.95949012 -0.23724166 0.1227379 1.5818207e-39
0.95949012 -0.23474166 0.1227379 1.3791579e-41
0.95699012 -0.23724166 0.1252379 4.1607802e-39
0.95949012 -0.23724166 0.1252379 5.8192226e-39
0.95949012 -0.23724166 0.12773789 8.2145083e-39
0.95949012 -0.23474166 0.1252379 5.6731428e-40
