# .PCD v0.7 - Point Cloud Data file format
VERSION 0.7
FIELDS x y z rgb
SIZE 4 4 4 4
TYPE F F F F
COUNT 1 1 1 1
WIDTH 993
HEIGHT 1
VIEWPOINT 0 0 0 1 0 0 0
POINTS 993
DATA ascii
0.94666451 -0.24251479 0.071368784 3.4246641e-39
0.94666451 -0.24001479 0.071368784 2.2279118e-39
0.94416451 -0.24251479 0.076368779 2.9644021e-39
0.94416451 -0.24001479 0.076368779 3.2381149e-39
0.94666451 -0.24251479 0.076368779 2.9644077e-39
0.94666451 -0.24001479 0.076368779 3.4228593e-39
0.94416451 -0.23751479 0.073868781 2.2275587e-39
0.94666451 -0.23751479 0.071368784 2.3201074e-39
0.94416451 -0.23751479 0.076368779 3.1459193e-39
0.94666451 -0.23751479 0.076368779 2.9626042e-39
0.94666451 -0.23751479 0.078868777 2.9626042e-39
0.94916451 -0.24251479 0.073868781 2.9651209e-39
0.94916451 -0.24001479 0.073868781 3.425383e-39
0.95166451 -0.24251479 0.073868781 3.3324615e-39
0.95166451 -0.24001479 0.073868781 3.2409847e-39
0.94916451 -0.23751479 0.071368784 2.3201018e-39
0.94916451 -0.23751479 0.073868781 2.9629545e-39
0.94916451 -0.2350148 0.071368784 2.9629545e-39
0.95166451 -0.23751479 0.073868781 3.3303133e-39
0.95166451 -0.2350148 0.073868781 2.7785619e-39
0.94916451 -0.23751479 0.076368779 2.7782087e-39
0.95166451 -0.23751479 0.076368779 2.8704044e-39
0.95166451 -0.23751479 0.078868777 2.7785619e-39
0.95166451 -0.2350148 0.076368779 2.4094332e-39
0.95166451 -0.2350148 0.078868777 2.7782087e-39
0.93416452 -0.24001479 0.083868779 5.177093e-39
0.93666452 -0.24001479 0.083868779 4.5317208e-39
0.93666452 -0.24001479 0.086368777 3.3324643e-39
0.93416452 -0.23751479 0.083868779 2.964758e-39
0.93666452 -0.23751479 0.083868779 3.4228649e-39
0.93666452 -0.23751479 0.086368777 3.2406316e-39
0.93666452 -0.2350148 0.086368777 2.5952622e-39
0.93916452 -0.24251479 0.083868779 4.6239206e-39
0.93916452 -0.24001479 0.081368782 2.6878152e-39
0.93916452 -0.24001479 0.083868779 3.3321112e-39
0.94166452 -0.24001479 0.081368782 3.1487863e-39
0.94166452 -0.24001479 0.083868779 3.3328174e-39
0.93916452 -0.24251479 0.086368777 3.7934425e-39
0.93916452 -0.24001479 0.086368777 3.2399128e-39
0.93916452 -0.24001479 0.088868782 3.6076093e-39
0.94166452 -0.24251479 0.088868782 3.6076065e-39
0.94166452 -0.24001479 0.088868782 3.1480731e-39
0.93916452 -0.23751479 0.081368782 3.5150549e-39
0.93916452 -0.23751479 0.083868779 3.6072561e-39
0.94166452 -0.23751479 0.081368782 3.2406316e-39
0.94166452 -0.23751479 0.083868779 3.3335377e-39
0.94166452 -0.2350148 0.081368782 2.7778556e-39
0.94166452 -0.2350148 0.083868779 2.9629601e-39
0.93916452 -0.23751479 0.086368777 3.2381177e-39
0.93916452 -0.23751479 0.088868782 3.5150577e-39
0.93916452 -0.2350148 0.086368777 2.8704044e-39
0.93916452 -0.2350148 0.088868782 3.0537194e-39
0.94166452 -0.23751479 0.088868782 2.9644021e-39
0.94166452 -0.2350148 0.088868782 3.1473514e-39
0.93666452 -0.24001479 0.09886878 3.4239285e-39
0.93416452 -0.23751479 0.09886878 3.3317328e-39
0.93416452 -0.2350148 0.09886878 2.7807269e-39
0.93666452 -0.23751479 0.09886878 3.1477017e-39
0.93916452 -0.24001479 0.09136878 3.4228621e-39
0.94166452 -0.24001479 0.09136878 3.4232152e-39
0.94166452 -0.24001479 0.093868777 3.2384708e-39
0.93916452 -0.24001479 0.096368782 3.332086e-39
0.94166452 -0.24001479 0.096368782 3.1473486e-39
0.94166452 -0.24001479 0.09886878 3.3320888e-39
0.93916452 -0.23751479 0.09136878 3.1473486e-39
0.93916452 -0.2350148 0.09136878 3.0537194e-39
0.94166452 -0.23751479 0.09136878 3.1477017e-39
0.94166452 -0.23751479 0.093868777 3.0551558e-39
0.94166452 -0.2350148 0.09136878 2.780008e-39
0.94166452 -0.2350148 0.093868777 2.8704044e-39
0.93916452 -0.23751479 0.096368782 2.8732812e-39
0.93916452 -0.2350148 0.096368782 2.5045001e-39
0.94166452 -0.23751479 0.096368782 3.0548026e-39
0.94166452 -0.23751479 0.09886878 2.9629545e-39
0.94166452 -0.2350148 0.096368782 2.4123031e-39
0.94166452 -0.2350148 0.09886878 2.7782087e-39
0.94416451 -0.24001479 0.083868779 3.8831186e-39
0.94416451 -0.24251479 0.088868782 3.6076065e-39
0.94416451 -0.24001479 0.086368777 3.3324615e-39
0.94416451 -0.24001479 0.088868782 3.6076065e-39
0.94666451 -0.24001479 0.088868782 3.1491394e-39
0.94416451 -0.23751479 0.083868779 3.4228621e-39
0.94416451 -0.2350148 0.081368782 2.9629601e-39
0.94416451 -0.2350148 0.083868779 2.8704072e-39
0.94666451 -0.2350148 0.083868779 2.7782115e-39
0.94416451 -0.23751479 0.086368777 3.6072533e-39
0.94416451 -0.23751479 0.088868782 2.9629601e-39
0.94416451 -0.2350148 0.086368777 2.9629545e-39
0.94416451 -0.2350148 0.088868782 2.6860159e-39
0.94666451 -0.23751479 0.088868782 2.8736316e-39
0.94666451 -0.2350148 0.086368777 2.9626042e-39
0.94666451 -0.2350148 0.088868782 2.7785647e-39
0.94916451 -0.24001479 0.088868782 2.5966957e-39
0.94916451 -0.23751479 0.081368782 2.9626042e-39
0.94916451 -0.2350148 0.081368782 2.7782087e-39
0.94916451 -0.2350148 0.083868779 2.7782087e-39
0.95166451 -0.2350148 0.081368782 2.5016288e-39
0.95166451 -0.2350148 0.083868779 2.3172348e-39
0.94916451 -0.23751479 0.088868782 2.5045001e-39
0.94916451 -0.2350148 0.088868782 2.6860159e-39
0.95166451 -0.2350148 0.086368777 2.4094304e-39
0.94416451 -0.24251479 0.09136878 3.3328174e-39
0.94416451 -0.24001479 0.09136878 2.964758e-39
0.94416451 -0.24001479 0.093868777 2.9633104e-39
0.94666451 -0.24001479 0.09136878 3.1477017e-39
0.94416451 -0.24001479 0.096368782 2.8707575e-39
0.94416451 -0.24001479 0.09886878 2.9629545e-39
0.94416451 -0.23751479 0.09136878 3.0555061e-39
0.94416451 -0.23751479 0.093868777 2.9629601e-39
0.94416451 -0.2350148 0.09136878 2.8704072e-39
0.94416451 -0.2350148 0.093868777 2.9622511e-39
0.94666451 -0.23751479 0.09136878 2.9629601e-39
0.94666451 -0.2350148 0.09136878 2.6863662e-39
0.94666451 -0.2350148 0.093868777 2.5019848e-39
0.94416451 -0.23751479 0.096368782 2.7782115e-39
0.94416451 -0.23751479 0.09886878 2.8707603e-39
0.94416451 -0.2350148 0.096368782 2.7782087e-39
0.94416451 -0.2350148 0.09886878 2.5019848e-39
0.94666451 -0.2350148 0.096368782 2.6856628e-39
0.94916451 -0.2350148 0.093868777 2.4094304e-39
0.94916451 -0.2350148 0.09886878 2.1339197e-39
0.94416451 -0.23251478 0.086368777 2.7782087e-39
0.94416451 -0.23251478 0.088868782 2.6860159e-39
0.94666451 -0.23251478 0.086368777 2.4123031e-39
0.94666451 -0.23251478 0.088868782 2.6860159e-39
0.94916451 -0.23251478 0.088868782 2.7782087e-39
0.94416451 -0.23251478 0.093868777 2.4094304e-39
0.94666451 -0.23251478 0.09136878 2.4094304e-39
0.94666451 -0.23251478 0.093868777 2.3168817e-39
0.94666451 -0.23251478 0.096368782 2.5019792e-39
0.94916451 -0.23251478 0.093868777 2.3183068e-39
0.95166451 -0.23251478 0.09136878 2.5019848e-39
0.95166451 -0.23251478 0.093868777 2.4108555e-39
0.92166454 -0.23751479 0.10886878 2.8707575e-39
0.91416454 -0.23751479 0.11386878 3.5157612e-39
0.91416454 -0.2350148 0.11386878 3.0555089e-39
0.91666454 -0.23751479 0.11136878 3.1477017e-39
0.91666454 -0.23751479 0.11386878 2.8704044e-39
0.91416454 -0.23751479 0.11636878 2.8689568e-39
0.91416454 -0.23751479 0.11886878 3.4228621e-39
0.91416454 -0.2350148 0.11886878 1.8583978e-39
0.91666454 -0.23751479 0.11886878 1.7629806e-39
0.91916454 -0.24001479 0.11136878 3.977105e-39
0.91916454 -0.24001479 0.11386878 3.6083267e-39
0.92166454 -0.24001479 0.11136878 4.0664308e-39
0.92166454 -0.24001479 0.11386878 3.7912747e-39
0.91916454 -0.24001479 0.11636878 3.5157794e-39
0.92166454 -0.24001479 0.11636878 3.4232124e-39
0.92166454 -0.24001479 0.11886878 1.8594992e-39
0.91916454 -0.23751479 0.11136878 2.8696911e-39
0.91916454 -0.23751479 0.11386878 2.5019848e-39
0.91916454 -0.2350148 0.11136878 2.8707575e-39
0.91916454 -0.2350148 0.11386878 3.4206943e-39
0.92166454 -0.23751479 0.11136878 2.8707603e-39
0.92166454 -0.23751479 0.11386878 2.3183068e-39
0.92166454 -0.2350148 0.11386878 2.8689624e-39
0.91916454 -0.23751479 0.11636878 2.5920266e-39
0.91916454 -0.23751479 0.11886878 8.4605076e-40
0.91916454 -0.2350148 0.11636878 2.8696855e-39
0.91916454 -0.2350148 0.11886878 2.5909308e-39
0.92166454 -0.23751479 0.11636878 1.3949212e-39
0.92166454 -0.2350148 0.11636878 2.5927329e-39
0.91916454 -0.23251478 0.11386878 3.051553e-39
0.92416453 -0.24001479 0.10886878 2.7782087e-39
0.92416453 -0.23751479 0.10886878 3.3317328e-39
0.92416453 -0.2350148 0.10886878 2.9633104e-39
0.92666453 -0.23751479 0.10636878 2.9633076e-39
0.92666453 -0.2350148 0.10636878 2.6860159e-39
0.92916453 -0.24001479 0.10636878 3.606875e-39
0.93166453 -0.23751479 0.10136878 3.1477017e-39
0.93166453 -0.2350148 0.10136878 2.9626042e-39
0.93166453 -0.2350148 0.10386878 2.4133765e-39
0.92916453 -0.23751479 0.10636878 2.9629545e-39
0.92916453 -0.23751479 0.10886878 3.2377519e-39
0.92916453 -0.2350148 0.10636878 2.502698e-39
0.92916453 -0.2350148 0.10886878 2.5016316e-39
0.93166453 -0.23751479 0.10636878 2.9611553e-39
0.93166453 -0.23751479 0.10886878 2.5927329e-39
0.93166453 -0.2350148 0.10636878 2.7778556e-39
0.93166453 -0.2350148 0.10886878 2.5927329e-39
0.92416453 -0.24001479 0.11636878 2.5045001e-39
0.92416453 -0.23751479 0.11136878 2.8689568e-39
0.92416453 -0.23751479 0.11386878 2.4079871e-39
0.92416453 -0.2350148 0.11136878 2.8689568e-39
0.92416453 -0.2350148 0.11386878 2.5927301e-39
0.92666453 -0.23751479 0.11136878 2.6849285e-39
0.92666453 -0.2350148 0.11136878 2.6849285e-39
0.92416453 -0.23751479 0.11636878 2.4087003e-39
0.92416453 -0.23751479 0.11886878 6.6023719e-40
0.92666453 -0.23751479 0.11636878 2.2246692e-39
0.92666453 -0.23751479 0.11886878 2.4090535e-39
0.92916453 -0.23751479 0.11386878 2.1324736e-39
0.92916453 -0.2350148 0.11136878 2.2243161e-39
0.93166453 -0.23751479 0.11386878 2.7753277e-39
0.93166453 -0.2350148 0.11386878 2.0402808e-39
0.92916453 -0.23751479 0.11636878 2.590928e-39
0.92916453 -0.23751479 0.11886878 1.8558867e-39
0.92916453 -0.2350148 0.11636878 2.2246692e-39
0.93166453 -0.23751479 0.11886878 1.9480823e-39
0.93166453 -0.2350148 0.11636878 2.2250223e-39
0.93166453 -0.2350148 0.11886878 2.1324736e-39
0.92416453 -0.23251478 0.11386878 2.2243189e-39
0.91416454 -0.24001479 0.12136878 6.0954213e-39
0.91416454 -0.24001479 0.12386878 7.6638386e-39
0.91666454 -0.24001479 0.12386878 8.9520733e-39
0.91416454 -0.24251479 0.12636878 4.6224745e-39
0.91416454 -0.24251479 0.12886877 3.9774582e-39
0.91416454 -0.24001479 0.12636878 9.1360988e-39
0.91416454 -0.24001479 0.12886877 5.9139391e-39
0.91666454 -0.24251479 0.12886877 3.8831186e-39
0.91416454 -0.23751479 0.12136878 2.962607e-39
0.91416454 -0.2350148 0.12136878 1.4874699e-39
0.92166454 -0.24001479 0.12136878 3.4275438e-39
0.91916454 -0.24251479 0.12636878 6.1905204e-39
0.91916454 -0.24251479 0.12886877 3.6090456e-39
0.91916454 -0.24001479 0.12636878 8.4954168e-39
0.92166454 -0.24251479 0.12636878 4.0674832e-39
0.92166454 -0.24251479 0.12886877 4.9872787e-39
0.92166454 -0.24001479 0.12636878 9.8729408e-39
0.91916454 -0.23751479 0.12136878 2.2272028e-39
0.91916454 -0.23751479 0.12386878 4.3523756e-39
0.92166454 -0.23751479 0.12136878 6.6130638e-40
0.92166454 -0.23751479 0.12636878 6.656909e-39
0.91416454 -0.24251479 0.13136879 7.0177686e-39
0.92416453 -0.24001479 0.12386878 6.841659e-39
0.92666453 -0.24001479 0.12386878 8.2209963e-39
0.92416453 -0.24251479 0.12636878 4.160074e-39
0.92416453 -0.24001479 0.12636878 7.9454856e-39
0.92416453 -0.23751479 0.12136878 1.9179572e-41
0.92666453 -0.23751479 0.12386878 7.5638868e-40
0.92916453 -0.24251479 0.12636878 4.5266859e-39
0.92916453 -0.24251479 0.12886877 5.5433616e-39
0.92916453 -0.24001479 0.12636878 8.3085074e-39
0.92916453 -0.24001479 0.12886877 4.0714685e-39
0.93166453 -0.24251479 0.12636878 4.8979922e-39
0.93166453 -0.24001479 0.12636878 6.5557114e-39
0.92916453 -0.23751479 0.12136878 1.1190475e-39
0.92916453 -0.23751479 0.12386878 2.3215536e-39
0.93166453 -0.23751479 0.12136878 1.3956302e-39
0.93166453 -0.23751479 0.12386878 3.8831186e-39
0.93166453 -0.2350148 0.12136878 1.0275708e-39
0.92916453 -0.23751479 0.12636878 4.2518941e-39
0.93166453 -0.23751479 0.12636878 5.6326663e-39
0.93416452 -0.24001479 0.10136878 3.1477045e-39
0.93416452 -0.23751479 0.10136878 2.9629545e-39
0.93416452 -0.2350148 0.10136878 2.7782087e-39
0.93416452 -0.2350148 0.10636878 2.5019848e-39
0.93416452 -0.2350148 0.10886878 2.2243189e-39
0.93666452 -0.23751479 0.10636878 2.9615112e-39
0.93666452 -0.2350148 0.10636878 2.5930958e-39
0.94166452 -0.2350148 0.10136878 2.3183068e-39
0.93916452 -0.23751479 0.10636878 2.4079871e-39
0.93916452 -0.2350148 0.10636878 2.1321233e-39
0.94166452 -0.2350148 0.10636878 1.7629806e-39
0.94166452 -0.2350148 0.10886878 1.6722213e-39
0.93416452 -0.23751479 0.11136878 2.5909336e-39
0.93416452 -0.23751479 0.11386878 2.775678e-39
0.93416452 -0.2350148 0.11136878 1.8566126e-39
0.93416452 -0.2350148 0.11386878 2.0409996e-39
0.93666452 -0.23751479 0.11136878 2.2246692e-39
0.93666452 -0.2350148 0.11136878 2.0402808e-39
0.93416452 -0.2350148 0.11636878 2.040278e-39
0.93416452 -0.2350148 0.11886878 1.6722185e-39
0.93666452 -0.23751479 0.11636878 2.4983792e-39
0.93666452 -0.2350148 0.11636878 1.6725716e-39
0.93666452 -0.2350148 0.11886878 1.1215615e-39
0.93916452 -0.23751479 0.11136878 2.040278e-39
0.93916452 -0.23751479 0.11386878 2.040278e-39
0.93916452 -0.2350148 0.11136878 1.7644169e-39
0.93916452 -0.2350148 0.11386878 2.040994e-39
0.93916452 -0.2350148 0.11636878 1.6722157e-39
0.93916452 -0.2350148 0.11886878 1.9459271e-39
0.94166452 -0.2350148 0.11886878 1.6725716e-39
0.94166452 -0.23251478 0.10886878 1.0290127e-39
0.93666452 -0.23251478 0.11136878 1.5796655e-39
0.93916452 -0.23251478 0.11386878 1.5800215e-39
0.93916452 -0.23251478 0.11886878 1.5800215e-39
0.94166452 -0.23251478 0.11886878 1.7626177e-39
0.94166452 -0.23001479 0.11886878 1.0275708e-39
0.94416451 -0.2350148 0.10386878 2.224672e-39
0.94666451 -0.2350148 0.10136878 2.4079871e-39
0.94666451 -0.2350148 0.10386878 1.947732e-39
0.94416451 -0.2350148 0.10636878 2.0402808e-39
0.94666451 -0.2350148 0.10636878 1.5796655e-39
0.94666451 -0.2350148 0.10886878 1.6725716e-39
0.94916451 -0.2350148 0.10386878 1.5796683e-39
0.94916451 -0.2350148 0.10636878 1.4878258e-39
0.95166451 -0.2350148 0.10886878 1.4874699e-39
0.94416451 -0.2350148 0.11136878 1.5800215e-39
0.94666451 -0.23751479 0.11386878 1.6722157e-39
0.94666451 -0.2350148 0.11386878 1.5800215e-39
0.94416451 -0.2350148 0.11636878 1.3952771e-39
0.94666451 -0.2350148 0.11636878 1.3952743e-39
0.94916451 -0.2350148 0.11136878 1.2123151e-39
0.94916451 -0.2350148 0.11386878 1.6725716e-39
0.94416451 -0.23251478 0.10386878 1.5796655e-39
0.94416451 -0.23251478 0.10636878 1.5796655e-39
0.94666451 -0.23251478 0.10636878 1.3963561e-39
0.94666451 -0.23251478 0.10886878 1.5796655e-39
0.94416451 -0.23251478 0.11136878 1.4874699e-39
0.94416451 -0.23251478 0.11636878 1.1197664e-39
0.94916451 -0.23251478 0.11136878 1.211962e-39
0.94916451 -0.23251478 0.11386878 1.0272176e-39
0.95166451 -0.23251478 0.11136878 9.350164e-40
0.95166451 -0.23251478 0.11636878 1.0275708e-39
0.93416452 -0.24001479 0.12386878 6.4617011e-39
0.93416452 -0.24251479 0.12886877 6.2809014e-39
0.93416452 -0.24001479 0.12886877 6.5521255e-39
0.93666452 -0.24251479 0.12886877 2.9586217e-39
0.93666452 -0.24001479 0.12636878 7.5702207e-39
0.93666452 -0.24001479 0.12886877 3.6036562e-39
0.93416452 -0.23751479 0.12386878 1.3963533e-39
0.93416452 -0.2350148 0.12386878 1.0275708e-39
0.93666452 -0.2350148 0.12136878 2.0381228e-39
0.93666452 -0.2350148 0.12386878 1.5771516e-39
0.93416452 -0.23751479 0.12886877 8.672625e-39
0.93666452 -0.23751479 0.12636878 5.3614884e-39
0.93666452 -0.23751479 0.12886877 6.7426236e-39
0.93666452 -0.2350148 0.12636878 2.9072879e-40
0.93666452 -0.2350148 0.12886877 1.3952771e-39
0.94166452 -0.24001479 0.12886877 8.3045361e-39
0.93916452 -0.2350148 0.12386878 7.4990768e-40
0.93916452 -0.23751479 0.12886877 7.8464348e-39
0.93916452 -0.2350148 0.12636878 7.4811682e-40
0.93916452 -0.2350148 0.12886877 2.8707449e-39
0.94166452 -0.23751479 0.12636878 1.5843361e-39
0.94166452 -0.23751479 0.12886877 7.941164e-39
0.94166452 -0.2350148 0.12636878 3.8148249e-40
0.94166452 -0.2350148 0.12886877 4.4369916e-39
0.93416452 -0.24251479 0.13136879 5.3557081e-39
0.93916452 -0.24251479 0.13136879 2.8686093e-39
0.93916452 -0.24001479 0.13136879 3.4185251e-39
0.94166452 -0.24251479 0.13136879 5.5393707e-39
0.94166452 -0.24001479 0.13136879 5.2646223e-39
0.93916452 -0.23751479 0.13136879 8.309208e-39
0.93916452 -0.2350148 0.13136879 4.2529759e-39
0.94166452 -0.23751479 0.13136879 6.9241226e-39
0.94166452 -0.2350148 0.13136879 7.1085139e-39
0.93416452 -0.23251478 0.12386878 1.1190447e-39
0.93416452 -0.23001479 0.12386878 1.3045108e-39
0.93666452 -0.23251478 0.12136878 1.9459271e-39
0.93666452 -0.23251478 0.12386878 1.7615429e-39
0.93666452 -0.23001479 0.12136878 1.4874727e-39
0.93666452 -0.23001479 0.12386878 1.3952743e-39
0.93666452 -0.23251478 0.12636878 8.4245643e-40
0.93666452 -0.23251478 0.12886877 4.7404105e-40
0.93666452 -0.23001479 0.12636878 1.3967064e-39
0.93666452 -0.23001479 0.12886877 1.3045108e-39
0.93916452 -0.23251478 0.12386878 1.3952771e-39
0.93916452 -0.23001479 0.12136878 1.211962e-39
0.93916452 -0.23001479 0.12386878 1.3041577e-39
0.94166452 -0.23251478 0.12136878 1.5778733e-39
0.94166452 -0.23001479 0.12136878 1.0275708e-39
0.93916452 -0.23251478 0.12636878 1.3934862e-39
0.93916452 -0.23251478 0.12886877 1.1201195e-39
0.93916452 -0.23001479 0.12636878 1.211962e-39
0.93916452 -0.23001479 0.12886877 1.3045108e-39
0.94166452 -0.23251478 0.12886877 3.8328035e-40
0.94166452 -0.23001479 0.12886877 1.9462775e-39
0.93916452 -0.23251478 0.13136879 9.3645133e-40
0.93916452 -0.23001479 0.13136879 1.5782208e-39
0.94166452 -0.23251478 0.13136879 3.8328035e-40
0.94166452 -0.23001479 0.13136879 2.1306729e-39
0.94166452 -0.22751479 0.13136879 1.3963533e-39
0.94416451 -0.24251479 0.12886877 5.8145128e-39
0.94416451 -0.24001479 0.12886877 3.887087e-39
0.94666451 -0.24001479 0.12886877 4.530304e-39
0.94416451 -0.2350148 0.12386878 4.7332219e-40
0.94416451 -0.23751479 0.12886877 6.7397397e-39
0.94666451 -0.23751479 0.12636878 4.6217682e-39
0.94666451 -0.23751479 0.12886877 6.4645948e-39
0.94666451 -0.2350148 0.12636878 9.350164e-40
0.94666451 -0.2350148 0.12886877 3.7941585e-39
0.95166451 -0.24251479 0.12886877 5.8163135e-39
0.95166451 -0.24001479 0.12886877 5.5404497e-39
0.95166451 -0.23751479 0.12386878 1.7644169e-39
0.94916451 -0.23751479 0.12636878 7.475151e-39
0.94916451 -0.2350148 0.12636878 3.8874374e-39
0.95166451 -0.23751479 0.12886877 7.8446622e-39
0.94916451 -0.24251479 0.13136879 5.5400993e-39
0.94916451 -0.24001479 0.13136879 5.3557081e-39
0.95166451 -0.24251479 0.13136879 6.4609766e-39
0.95166451 -0.24001479 0.13136879 3.5132444e-39
0.94916451 -0.23751479 0.13136879 7.198211e-39
0.94416451 -0.23251478 0.12136878 1.7626177e-39
0.94416451 -0.23251478 0.12386878 1.0272148e-39
0.94416451 -0.23001479 0.12136878 1.1197664e-39
0.94416451 -0.22751479 0.12386878 8.442557e-40
0.94666451 -0.23251478 0.13136879 3.8436216e-40
0.94666451 -0.23001479 0.13136879 1.2112404e-39
0.87416452 -0.16251479 0.078868777 3.9731212e-39
0.87416452 -0.16001479 0.078868777 4.0653168e-39
0.87666452 -0.16251479 0.078868777 4.0653224e-39
0.87666452 -0.16001479 0.078868777 3.973124e-39
0.87416452 -0.1575148 0.078868777 3.8809269e-39
0.87416452 -0.15501478 0.078868777 3.880571e-39
0.87666452 -0.1575148 0.076368779 4.0660202e-39
0.87666452 -0.1575148 0.078868777 4.2500668e-39
0.87666452 -0.15501478 0.076368779 4.0656727e-39
0.87666452 -0.15501478 0.078868777 4.0653224e-39
0.88166451 -0.16251479 0.073868781 3.9734771e-39
0.88166451 -0.16001479 0.073868781 3.8809269e-39
0.87916452 -0.16251479 0.076368779 3.9734771e-39
0.87916452 -0.16001479 0.076368779 4.4312252e-39
0.88166451 -0.16251479 0.076368779 4.2500668e-39
0.88166451 -0.1575148 0.071368784 3.7872908e-39
0.88166451 -0.15501478 0.071368784 3.7872908e-39
0.87916452 -0.1575148 0.076368779 4.1549971e-39
0.87916452 -0.15501478 0.076368779 4.1549971e-39
0.87416452 -0.15251479 0.078868777 3.972768e-39
0.87416452 -0.15001479 0.078868777 4.1578711e-39
0.87666452 -0.15251479 0.076368779 4.0656727e-39
0.87666452 -0.15251479 0.078868777 4.0653224e-39
0.87666452 -0.15001479 0.076368779 4.0656727e-39
0.87666452 -0.15001479 0.078868777 4.0653224e-39
0.87666452 -0.14751479 0.076368779 4.1582159e-39
0.87666452 -0.14751479 0.078868777 4.2497108e-39
0.87666452 -0.14501479 0.078868777 4.2497136e-39
0.87916452 -0.15001479 0.073868781 3.8816304e-39
0.88166451 -0.15251479 0.071368784 3.970603e-39
0.88166451 -0.15001479 0.071368784 4.0627987e-39
0.87916452 -0.15251479 0.076368779 3.8809269e-39
0.87916452 -0.15001479 0.076368779 3.8809269e-39
0.87916452 -0.14751479 0.073868781 3.6972405e-39
0.88166451 -0.14751479 0.071368784 4.0627987e-39
0.88166451 -0.14501479 0.071368784 3.6968902e-39
0.88166451 -0.14501479 0.073868781 4.1582159e-39
0.87916452 -0.14751479 0.076368779 3.9731212e-39
0.87916452 -0.14501479 0.076368779 4.4315812e-39
0.88166451 -0.14501479 0.076368779 3.8827234e-39
0.88666451 -0.16251479 0.068868779 3.7876383e-39
0.88666451 -0.16001479 0.068868779 2.9589468e-39
0.88416451 -0.1575148 0.066368781 5.71652e-39
0.88416451 -0.1575148 0.068868779 4.0599022e-39
0.88416451 -0.15501478 0.066368781 5.808717e-39
0.88416451 -0.15501478 0.068868779 4.1524565e-39
0.88666451 -0.1575148 0.068868779 3.5117534e-39
0.88666451 -0.15501478 0.068868779 3.5117534e-39
0.88916451 -0.16251479 0.066368781 3.1429751e-39
0.88916451 -0.16001479 0.066368781 3.1436968e-39
0.88416451 -0.16251479 0.071368784 3.7876411e-39
0.88416451 -0.16001479 0.071368784 3.970603e-39
0.88416451 -0.16251479 0.076368779 3.9731212e-39
0.88416451 -0.1575148 0.071368784 3.970603e-39
0.88416451 -0.15501478 0.071368784 3.5128493e-39
0.88416451 -0.15251479 0.066368781 6.1767891e-39
0.88416451 -0.15251479 0.068868779 3.4192019e-39
0.88416451 -0.15001479 0.066368781 4.9811172e-39
0.88416451 -0.15001479 0.068868779 3.5142688e-39
0.88666451 -0.15251479 0.068868779 3.6961489e-39
0.88666451 -0.15001479 0.068868779 3.2380448e-39
0.88416451 -0.14751479 0.068868779 3.42172e-39
0.88666451 -0.14751479 0.068868779 3.6064672e-39
0.88666451 -0.14501479 0.068868779 3.6064672e-39
0.88416451 -0.15251479 0.071368784 4.0642238e-39
0.88416451 -0.14501479 0.071368784 3.9734771e-39
0.87416452 -0.16251479 0.081368782 3.7905306e-39
0.87416452 -0.16251479 0.083868779 4.5262935e-39
0.87416452 -0.16001479 0.081368782 3.9749218e-39
0.87416452 -0.16001479 0.083868779 4.8032406e-39
0.87666452 -0.16251479 0.081368782 3.972768e-39
0.87666452 -0.16001479 0.081368782 4.0653224e-39
0.87416452 -0.16251479 0.086368777 5.3560556e-39
0.87416452 -0.16251479 0.088868782 3.9767491e-39
0.87416452 -0.16001479 0.086368777 6.0936206e-39
0.87416452 -0.16001479 0.088868782 4.3451491e-39
0.87416452 -0.1575148 0.081368782 4.0653224e-39
0.87416452 -0.1575148 0.083868779 4.7110421e-39
0.87416452 -0.15501478 0.081368782 4.2497136e-39
0.87416452 -0.15501478 0.083868779 4.3433512e-39
0.87666452 -0.1575148 0.081368782 4.2504297e-39
0.87666452 -0.15501478 0.081368782 4.2504325e-39
0.87416452 -0.1575148 0.086368777 5.1723902e-39
0.87416452 -0.1575148 0.088868782 4.5295431e-39
0.87416452 -0.15501478 0.086368777 4.7132085e-39
0.87416452 -0.15501478 0.088868782 4.6224562e-39
0.87416452 -0.16251479 0.09136878 3.6076093e-39
0.87416452 -0.16251479 0.093868777 3.5150549e-39
0.87416452 -0.16001479 0.09136878 3.6076093e-39
0.87416452 -0.16001479 0.093868777 3.4228593e-39
0.87666452 -0.16251479 0.09136878 3.1487863e-39
0.87666452 -0.16001479 0.09136878 2.9647552e-39
0.87416452 -0.16251479 0.096368782 2.5974174e-39
0.87416452 -0.16001479 0.096368782 2.1396636e-39
0.87666452 -0.16251479 0.096368782 7.4808949e-39
0.87666452 -0.16251479 0.09886878 8.4025023e-39
0.87666452 -0.16001479 0.096368782 7.480539e-39
0.87666452 -0.16001479 0.09886878 8.403224e-39
0.87416452 -0.1575148 0.09136878 3.792341e-39
0.87416452 -0.1575148 0.093868777 2.7814331e-39
0.87416452 -0.15501478 0.09136878 4.5299103e-39
0.87416452 -0.15501478 0.093868777 3.7937928e-39
0.87666452 -0.1575148 0.09136878 3.4250117e-39
0.87416452 -0.1575148 0.096368782 3.1498667e-39
0.87416452 -0.15501478 0.096368782 2.7864806e-39
0.87666452 -0.1575148 0.096368782 8.1244665e-39
0.87666452 -0.1575148 0.09886878 8.217402e-39
0.87666452 -0.15501478 0.096368782 8.5876152e-39
0.87666452 -0.15501478 0.09886878 8.9542664e-39
0.87916452 -0.16251479 0.093868777 2.3215508e-39
0.87916452 -0.16001479 0.093868777 2.2293552e-39
0.88166451 -0.16251479 0.093868777 7.9418675e-39
0.87916452 -0.16251479 0.096368782 7.572736e-39
0.87916452 -0.16001479 0.096368782 7.758558e-39
0.88166451 -0.16251479 0.096368782 8.6805311e-39
0.87916452 -0.1575148 0.093868777 2.4123003e-39
0.87916452 -0.15501478 0.093868777 2.4176897e-39
0.87916452 -0.1575148 0.096368782 8.0333442e-39
0.87916452 -0.15501478 0.096368782 8.9560292e-39
0.87416452 -0.15251479 0.081368782 4.0653224e-39
0.87416452 -0.15251479 0.083868779 4.5277425e-39
0.87416452 -0.15001479 0.081368782 4.2504297e-39
0.87416452 -0.15001479 0.083868779 4.8950803e-39
0.87666452 -0.15251479 0.081368782 4.0653224e-39
0.87666452 -0.15001479 0.081368782 4.2504325e-39
0.87416452 -0.15251479 0.086368777 4.7132085e-39
0.87416452 -0.15251479 0.088868782 4.6224562e-39
0.87416452 -0.15001479 0.086368777 5.1731091e-39
0.87416452 -0.15001479 0.088868782 5.6326635e-39
0.87416452 -0.14751479 0.083868779 4.8036007e-39
0.87416452 -0.14501479 0.083868779 5.5397238e-39
0.87666452 -0.14751479 0.081368782 4.2504297e-39
0.87666452 -0.14501479 0.081368782 4.3426253e-39
0.87416452 -0.14751479 0.086368777 5.0809163e-39
0.87416452 -0.14751479 0.088868782 4.9887206e-39
0.87416452 -0.14501479 0.086368777 5.1731119e-39
0.87416452 -0.14501479 0.088868782 5.1731091e-39
0.87416452 -0.15251479 0.09136878 4.6221059e-39
0.87416452 -0.15251479 0.093868777 3.6090428e-39
0.87416452 -0.15001479 0.09136878 4.3469638e-39
0.87416452 -0.15001479 0.093868777 4.0685846e-39
0.87416452 -0.15251479 0.096368782 2.509535e-39
0.87416452 -0.15251479 0.09886878 9.0478689e-39
0.87416452 -0.15001479 0.096368782 2.4169862e-39
0.87416452 -0.15001479 0.09886878 8.4057393e-39
0.87666452 -0.15251479 0.096368782 8.4954196e-39
0.87666452 -0.15251479 0.09886878 9.3230475e-39
0.87666452 -0.15001479 0.096368782 8.7737959e-39
0.87666452 -0.15001479 0.09886878 1.144279e-38
0.87416452 -0.14751479 0.09136878 4.5295572e-39
0.87416452 -0.14501479 0.09136878 4.4373601e-39
0.87416452 -0.14501479 0.093868777 3.8845437e-39
0.87416452 -0.14751479 0.09886878 9.4166472e-39
0.87416452 -0.14501479 0.096368782 2.970146e-39
0.87416452 -0.14501479 0.09886878 9.6935942e-39
0.87666452 -0.14751479 0.096368782 8.8663503e-39
0.87666452 -0.14751479 0.09886878 1.1166929e-38
0.87666452 -0.14501479 0.096368782 9.050743e-39
0.87666452 -0.14501479 0.09886878 1.1534983e-38
0.87916452 -0.15251479 0.096368782 8.8641965e-39
0.87916452 -0.14501479 0.09886878 7.2972463e-39
0.88166451 -0.14501479 0.09886878 7.4805558e-39
0.87666452 -0.1425148 0.078868777 4.0653224e-39
0.88166451 -0.1425148 0.071368784 4.4315784e-39
0.88166451 -0.1425148 0.073868781 4.0656699e-39
0.88166451 -0.14001478 0.071368784 4.4315784e-39
0.88166451 -0.14001478 0.073868781 4.433379e-39
0.87916452 -0.1425148 0.076368779 4.2489878e-39
0.87916452 -0.14001478 0.076368779 4.433379e-39
0.87916452 -0.14001478 0.078868777 4.7110421e-39
0.88166451 -0.1425148 0.076368779 4.5255775e-39
0.88166451 -0.14001478 0.076368779 4.5255775e-39
0.88166451 -0.13751478 0.071368784 4.0656699e-39
0.88166451 -0.13751478 0.073868781 4.5255747e-39
0.88166451 -0.13501479 0.071368784 4.7088715e-39
0.88166451 -0.13501479 0.073868781 4.4337322e-39
0.87916452 -0.13751478 0.076368779 4.4340825e-39
0.87916452 -0.13501479 0.078868777 4.4359e-39
0.88166451 -0.13751478 0.076368779 4.2504297e-39
0.88166451 -0.13501479 0.076368779 4.8014357e-39
0.87666452 -0.13251479 0.078868777 5.1702252e-39
0.87666452 -0.13001479 0.076368779 4.8929152e-39
0.87666452 -0.13001479 0.078868777 4.9858339e-39
0.87666452 -0.12751479 0.076368779 4.8929181e-39
0.87666452 -0.12751479 0.078868777 4.618143e-39
0.87666452 -0.1250148 0.076368779 4.8003637e-39
0.87666452 -0.1250148 0.078868777 4.8025343e-39
0.87916452 -0.13001479 0.073868781 4.8007168e-39
0.88166451 -0.13251479 0.071368784 5.5343162e-39
0.88166451 -0.13251479 0.073868781 4.5259278e-39
0.88166451 -0.13001479 0.071368784 5.5343162e-39
0.87916452 -0.13251479 0.076368779 4.8929152e-39
0.87916452 -0.13251479 0.078868777 4.5280956e-39
0.87916452 -0.13001479 0.076368779 4.5259278e-39
0.88166451 -0.13251479 0.076368779 5.0783827e-39
0.87916452 -0.12751479 0.073868781 5.5343162e-39
0.87916452 -0.1250148 0.073868781 4.3411652e-39
0.88166451 -0.12751479 0.071368784 5.8109017e-39
0.88166451 -0.1250148 0.071368784 4.3411652e-39
0.87916452 -0.12751479 0.076368779 4.7092429e-39
0.87916452 -0.1250148 0.076368779 5.7223032e-39
0.87916452 -0.1250148 0.078868777 6.460964e-39
0.88166451 -0.12751479 0.076368779 4.8950803e-39
0.88166451 -0.1250148 0.076368779 6.1833009e-39
0.88416451 -0.1425148 0.068868779 4.0649272e-39
0.88416451 -0.14001478 0.066368781 5.6243244e-39
0.88416451 -0.14001478 0.068868779 4.0649272e-39
0.88666451 -0.1425148 0.068868779 4.5212404e-39
0.88666451 -0.14001478 0.068868779 4.3368478e-39
0.88416451 -0.13751478 0.066368781 5.532126e-39
0.88416451 -0.13751478 0.068868779 4.2496716e-39
0.88416451 -0.13501479 0.066368781 5.5321288e-39
0.88416451 -0.13501479 0.068868779 4.2493185e-39
0.88666451 -0.13751478 0.068868779 4.2489654e-39
0.88666451 -0.13501479 0.068868779 3.972726e-39
0.88416451 -0.1425148 0.071368784 4.2486164e-39
0.88416451 -0.14001478 0.071368784 4.2486164e-39
0.88416451 -0.13501479 0.071368784 4.4322832e-39
0.88416451 -0.13251479 0.066368781 5.9931083e-39
0.88416451 -0.13251479 0.068868779 5.2595117e-39
0.88416451 -0.13001479 0.066368781 5.0736687e-39
0.88416451 -0.13001479 0.068868779 5.6261363e-39
0.88666451 -0.13251479 0.068868779 5.6261363e-39
0.88416451 -0.12751479 0.066368781 5.8090688e-39
0.88416451 -0.12751479 0.068868779 5.717613e-39
0.88416451 -0.1250148 0.066368781 6.3622426e-39
0.88416451 -0.1250148 0.068868779 4.5230159e-39
0.88666451 -0.12751479 0.068868779 5.8101674e-39
0.88666451 -0.1250148 0.068868779 3.8816122e-39
0.88916451 -0.1250148 0.066368781 3.0518515e-39
0.87416452 -0.1425148 0.083868779 5.3556927e-39
0.87416452 -0.14001478 0.083868779 4.7121337e-39
0.87666452 -0.1425148 0.081368782 4.3426253e-39
0.87666452 -0.14001478 0.081368782 4.4351811e-39
0.87416452 -0.1425148 0.086368777 4.8050496e-39
0.87416452 -0.14001478 0.086368777 4.897604e-39
0.87416452 -0.13751478 0.083868779 4.5277425e-39
0.87416452 -0.13501479 0.083868779 4.6199381e-39
0.87666452 -0.13751478 0.081368782 4.8932852e-39
0.87666452 -0.13501479 0.083868779 5.1730993e-39
0.87416452 -0.13751478 0.086368777 5.4486198e-39
0.87416452 -0.13501479 0.086368777 5.7255668e-39
0.87416452 -0.13501479 0.088868782 5.2653075e-39
0.87416452 -0.1425148 0.09136878 4.52956e-39
0.87416452 -0.1425148 0.093868777 3.5157612e-39
0.87416452 -0.14001478 0.09136878 4.9880172e-39
0.87416452 -0.14001478 0.093868777 3.4246585e-39
0.87416452 -0.1425148 0.096368782 2.785396e-39
0.87416452 -0.1425148 0.09886878 9.7847109e-39
0.87416452 -0.14001478 0.096368782 3.4264522e-39
0.87416452 -0.14001478 0.09886878 9.5095631e-39
0.87666452 -0.1425148 0.096368782 9.8779785e-39
0.87666452 -0.1425148 0.09886878 1.1535702e-38
0.87416452 -0.13501479 0.09136878 4.6217528e-39
0.87416452 -0.13751478 0.09886878 9.5095631e-39
0.87416452 -0.13501479 0.09886878 9.9712545e-39
0.87916452 -0.1425148 0.09886878 7.2043276e-39
0.87916452 -0.14001478 0.09886878 7.4809117e-39
0.88166451 -0.1425148 0.09886878 6.9295358e-39
0.87416452 -0.13251479 0.083868779 5.0805505e-39
0.87416452 -0.13001479 0.083868779 5.4489701e-39
0.87666452 -0.13251479 0.081368782 4.5280928e-39
0.87666452 -0.13251479 0.083868779 4.8958019e-39
0.87666452 -0.13001479 0.081368782 5.0805505e-39
0.87666452 -0.13001479 0.083868779 5.0812638e-39
0.87416452 -0.13251479 0.086368777 5.1731147e-39
0.87416452 -0.13251479 0.088868782 4.8976194e-39
0.87416452 -0.13001479 0.086368777 4.9901626e-39
0.87416452 -0.13001479 0.088868782 5.3560766e-39
0.87416452 -0.12751479 0.083868779 5.8177596e-39
0.87666452 -0.12751479 0.081368782 5.8163163e-39
0.87666452 -0.12751479 0.083868779 5.6337201e-39
0.87666452 -0.1250148 0.081368782 6.0007089e-39
0.87666452 -0.1250148 0.083868779 5.8177596e-39
0.87416452 -0.12751479 0.086368777 5.7252109e-39
0.87416452 -0.12751479 0.088868782 5.5404679e-39
0.87416452 -0.1250148 0.086368777 5.7252109e-39
0.87416452 -0.1250148 0.088868782 5.7252109e-39
0.87666452 -0.12751479 0.086368777 5.5411713e-39
0.87666452 -0.1250148 0.086368777 5.7248605e-39
0.87666452 -0.1250148 0.088868782 6.3680677e-39
0.87916452 -0.1250148 0.083868779 6.0003712e-39
0.87916452 -0.1250148 0.088868782 6.1833178e-39
0.87416452 -0.13251479 0.09136878 4.6217528e-39
0.87416452 -0.13251479 0.093868777 4.7125023e-39
0.87416452 -0.13001479 0.09136878 4.8976194e-39
0.87416452 -0.13001479 0.093868777 4.5299075e-39
0.87416452 -0.13251479 0.09886878 9.601393e-39
0.87416452 -0.13001479 0.09886878 8.3063382e-39
0.87416452 -0.12751479 0.09136878 4.8976194e-39
0.87416452 -0.12751479 0.093868777 5.1724084e-39
0.87416452 -0.1250148 0.09136878 5.2649544e-39
0.87416452 -0.1250148 0.093868777 5.0802128e-39
0.87666452 -0.1250148 0.09136878 5.1727588e-39
0.87416452 -0.12751479 0.096368782 4.4362881e-39
0.87416452 -0.12751479 0.09886878 7.2003494e-39
0.87416452 -0.1250148 0.096368782 5.0798597e-39
0.87666452 -0.1250148 0.096368782 6.0003558e-39
0.87666452 -0.1250148 0.09886878 6.8315388e-39
0.87916452 -0.1250148 0.09136878 5.3578717e-39
0.87916452 -0.12751479 0.09886878 7.574887e-39
0.87916452 -0.1250148 0.09886878 7.846432e-39
0.87666452 -0.1425148 0.10136878 6.9295358e-39
0.87666452 -0.14001478 0.10136878 7.2975995e-39
0.87666452 -0.13751478 0.10136878 7.5731074e-39
0.87666452 -0.13501479 0.10136878 7.665303e-39
0.87416452 -0.13251479 0.10386878 7.480539e-39
0.87666452 -0.13251479 0.10136878 7.6656561e-39
0.87666452 -0.13001479 0.10136878 7.8485998e-39
0.87666452 -0.13001479 0.10386878 7.019565e-39
0.87416452 -0.13251479 0.10886878 6.4663941e-39
0.87416452 -0.13001479 0.10886878 6.2827217e-39
0.87666452 -0.13251479 0.10886878 6.4660409e-39
0.87666452 -0.13001479 0.10886878 6.282e-39
0.87666452 -0.12751479 0.10136878 8.3095766e-39
0.87666452 -0.12751479 0.10386878 6.9273694e-39
0.87666452 -0.12751479 0.10886878 6.190526e-39
0.87916452 -0.13001479 0.10636878 6.9273694e-39
0.87916452 -0.13001479 0.10886878 6.2827189e-39
0.87916452 -0.12751479 0.10136878 8.8595302e-39
0.87916452 -0.1250148 0.10136878 8.2155929e-39
0.88166451 -0.12751479 0.10386878 8.1266146e-39
0.88166451 -0.1250148 0.10136878 7.4808893e-39
0.88166451 -0.1250148 0.10386878 7.3886937e-39
0.87916452 -0.12751479 0.10636878 6.9273694e-39
0.87916452 -0.12751479 0.10886878 6.8337276e-39
0.88166451 -0.12751479 0.10636878 6.8337248e-39
0.88166451 -0.12751479 0.10886878 6.0968885e-39
0.88166451 -0.1250148 0.10636878 7.0199182e-39
0.88166451 -0.1250148 0.10886878 5.6348341e-39
0.87416452 -0.13251479 0.11136878 6.3752704e-39
0.87416452 -0.13001479 0.11136878 6.558961e-39
0.87416452 -0.13001479 0.11386878 5.8224624e-39
0.87666452 -0.13251479 0.11136878 6.2798476e-39
0.87666452 -0.13001479 0.11136878 6.2798476e-39
0.87666452 -0.13001479 0.11386878 5.6384285e-39
0.87666452 -0.13001479 0.11636878 5.8199456e-39
0.87666452 -0.12751479 0.11136878 5.9114252e-39
0.87666452 -0.12751479 0.11386878 5.9114252e-39
0.87666452 -0.12751479 0.11636878 5.8199456e-39
0.87916452 -0.13001479 0.11136878 5.9142951e-39
0.87916452 -0.13001479 0.11636878 5.9106951e-39
0.87916452 -0.13001479 0.11886878 5.1738546e-39
0.88166451 -0.13001479 0.11636878 4.9919828e-39
0.88166451 -0.13001479 0.11886878 4.8061497e-39
0.87916452 -0.12751479 0.11136878 5.8192268e-39
0.87916452 -0.12751479 0.11386878 5.6362831e-39
0.88166451 -0.1250148 0.11136878 5.0831093e-39
0.88166451 -0.1250148 0.11386878 4.8994313e-39
0.87916452 -0.12751479 0.11636878 5.9106951e-39
0.87916452 -0.12751479 0.11886878 5.4504401e-39
0.87916452 -0.1250148 0.11886878 4.7153974e-39
0.88166451 -0.12751479 0.11636878 5.3586144e-39
0.88166451 -0.12751479 0.11886878 4.8983481e-39
0.88166451 -0.1250148 0.11636878 4.714317e-39
0.88166451 -0.1250148 0.11886878 4.4380902e-39
0.88416451 -0.1250148 0.10386878 7.6638414e-39
0.88416451 -0.1250148 0.10636878 6.7411761e-39
0.88416451 -0.1250148 0.10886878 5.5422854e-39
0.88416451 -0.1250148 0.11386878 4.8057993e-39
0.88416451 -0.12751479 0.11886878 4.7157533e-39
0.88416451 -0.1250148 0.11636878 4.0700308e-39
0.88416451 -0.1250148 0.11886878 4.0700308e-39
0.87916452 -0.13001479 0.12136878 4.4384433e-39
0.88166451 -0.13001479 0.12136878 4.4380874e-39
0.87916452 -0.12751479 0.12136878 4.7146701e-39
0.87916452 -0.12751479 0.12386878 4.0707356e-39
0.87916452 -0.1250148 0.12136878 4.7139512e-39
0.87916452 -0.1250148 0.12386878 4.0703839e-39
0.88166451 -0.12751479 0.12136878 4.8061497e-39
0.88166451 -0.12751479 0.12386878 4.9894591e-39
0.88166451 -0.1250148 0.12136878 4.5317208e-39
0.88166451 -0.1250148 0.12386878 4.6235563e-39
0.88416451 -0.12751479 0.12136878 4.6224717e-39
0.88416451 -0.12751479 0.12386878 3.8856325e-39
0.88416451 -0.1250148 0.12136878 3.9781868e-39
0.88416451 -0.1250148 0.12386878 3.9781868e-39
0.88666451 -0.12751479 0.12386878 3.792718e-39
0.88666451 -0.1250148 0.12386878 3.9767491e-39
0.88416451 -0.1250148 0.12636878 3.6101246e-39
0.88666451 -0.12751479 0.12636878 3.7015916e-39
0.88666451 -0.1250148 0.12636878 3.7015916e-39
0.88916451 -0.12751479 0.12386878 3.794506e-39
0.88916451 -0.1250148 0.12386878 3.794506e-39
0.88916451 -0.12751479 0.12636878 4.4366385e-39
0.88916451 -0.1250148 0.12636878 4.1600516e-39
0.89166451 -0.12751479 0.12636878 4.344796e-39
0.89166451 -0.1250148 0.12636878 4.1604047e-39
0.89166451 -0.1250148 0.12886877 1.5959388e-41
0.87666452 -0.12251479 0.076368779 7.1956354e-39
0.87666452 -0.12251479 0.078868777 7.0127029e-39
0.87666452 -0.12001479 0.078868777 7.3807469e-39
0.88166451 -0.12251479 0.071368784 3.5114031e-39
0.88166451 -0.12251479 0.073868781 6.4595123e-39
0.88166451 -0.12001479 0.073868781 8.027917e-39
0.87916452 -0.12251479 0.076368779 6.6442609e-39
0.87916452 -0.12251479 0.078868777 6.4620514e-39
0.87916452 -0.12001479 0.076368779 6.7371782e-39
0.87916452 -0.12001479 0.078868777 7.6587743e-39
0.88166451 -0.12251479 0.076368779 6.8286732e-39
0.88166451 -0.12001479 0.076368779 8.4870931e-39
0.88166451 -0.12001479 0.078868777 8.3044941e-39
0.87916452 -0.11751479 0.078868777 8.3037934e-39
0.88166451 -0.11751479 0.078868777 8.5785852e-39
0.88666451 -0.12251479 0.068868779 4.0591707e-39
0.88666451 -0.12001479 0.068868779 8.4874308e-39
0.88916451 -0.12251479 0.066368781 5.9931139e-39
0.88916451 -0.12001479 0.068868779 8.2105132e-39
0.88916451 -0.11751479 0.068868779 7.9346255e-39
0.88416451 -0.12251479 0.071368784 5.3520899e-39
0.88416451 -0.12001479 0.071368784 8.3041437e-39
0.88416451 -0.12001479 0.076368779 8.5792887e-39
0.88416451 -0.11751479 0.071368784 8.3941786e-39
0.88666451 -0.11751479 0.071368784 8.8511981e-39
0.88666451 -0.11751479 0.073868781 8.0275639e-39
0.88416451 -0.11751479 0.076368779 8.4860337e-39
0.88416451 -0.11751479 0.078868777 8.0300848e-39
0.88666451 -0.11751479 0.076368779 8.7615318e-39
0.88916451 -0.11751479 0.071368784 8.5792887e-39
0.88916451 -0.11751479 0.073868781 8.5792915e-39
0.87666452 -0.12251479 0.081368782 6.644642e-39
0.87666452 -0.12251479 0.083868779 6.6442945e-39
0.87666452 -0.12001479 0.081368782 7.106311e-39
0.87666452 -0.12001479 0.083868779 7.3829007e-39
0.87666452 -0.12251479 0.088868782 6.5542485e-39
0.87666452 -0.12001479 0.088868782 6.7400494e-39
0.87666452 -0.11751479 0.088868782 8.7658352e-39
0.87916452 -0.12251479 0.083868779 6.0003712e-39
0.87916452 -0.12001479 0.081368782 7.7509742e-39
0.87916452 -0.12001479 0.083868779 7.0144909e-39
0.88166451 -0.12001479 0.083868779 7.8413733e-39
0.87916452 -0.12251479 0.086368777 6.3684307e-39
0.87916452 -0.12251479 0.088868782 6.6442945e-39
0.87916452 -0.12001479 0.086368777 7.6577023e-39
0.87916452 -0.12001479 0.088868782 6.9219366e-39
0.88166451 -0.12001479 0.086368777 8.4903371e-39
0.88166451 -0.12001479 0.088868782 7.0137609e-39
0.87916452 -0.11751479 0.081368782 8.3970723e-39
0.87916452 -0.11751479 0.083868779 8.2144761e-39
0.88166451 -0.11751479 0.083868779 9.5008989e-39
0.87916452 -0.11751479 0.086368777 8.7654946e-39
0.87916452 -0.11751479 0.088868782 8.7658478e-39
0.87916452 -0.11501479 0.088868782 7.6595072e-39
0.88166451 -0.11751479 0.086368777 8.6743794e-39
0.88166451 -0.11751479 0.088868782 8.6751011e-39
0.88166451 -0.11501479 0.088868782 8.1176085e-39
0.87666452 -0.12251479 0.09136878 6.09292e-39
0.87666452 -0.12251479 0.096368782 6.2762351e-39
0.87666452 -0.12251479 0.09886878 5.7252291e-39
0.87666452 -0.11751479 0.09136878 8.8583979e-39
0.87916452 -0.12251479 0.09136878 6.4617011e-39
0.87916452 -0.12251479 0.093868777 6.2762351e-39
0.87916452 -0.12001479 0.09136878 7.3832636e-39
0.87916452 -0.12001479 0.093868777 7.4750963e-39
0.88166451 -0.12251479 0.093868777 6.002525e-39
0.88166451 -0.12001479 0.09136878 8.9498663e-39
0.88166451 -0.12001479 0.093868777 6.8304458e-39
0.87916452 -0.12251479 0.096368782 6.3684307e-39
0.87916452 -0.12251479 0.09886878 7.5666053e-39
0.87916452 -0.12001479 0.096368782 7.1981563e-39
0.88166451 -0.12251479 0.096368782 5.9099735e-39
0.88166451 -0.12251479 0.09886878 7.5687717e-39
0.88166451 -0.12001479 0.096368782 7.0137553e-39
0.88166451 -0.12001479 0.09886878 7.0144909e-39
0.87916452 -0.11751479 0.09136878 9.1339086e-39
0.87916452 -0.11751479 0.093868777 9.225391e-39
0.87916452 -0.11501479 0.09136878 7.8410174e-39
0.88166451 -0.11751479 0.093868777 9.1342645e-39
0.88166451 -0.11501479 0.093868777 7.2907205e-39
0.87916452 -0.11751479 0.096368782 9.2253854e-39
0.87916452 -0.11501479 0.096368782 7.1974473e-39
0.88166451 -0.11751479 0.096368782 8.7658324e-39
0.88166451 -0.11751479 0.09886878 8.9505992e-39
0.88166451 -0.11501479 0.096368782 7.4736866e-39
0.88166451 -0.11501479 0.09886878 7.1978032e-39
0.88166451 -0.11251479 0.096368782 7.1030894e-39
0.88166451 -0.11251479 0.09886878 6.1858191e-39
0.88416451 -0.11751479 0.081368782 8.7651317e-39
0.88416451 -0.11751479 0.083868779 8.7658478e-39
0.88416451 -0.12251479 0.09886878 6.8308508e-39
0.88416451 -0.12001479 0.09886878 7.3807469e-39
0.88416451 -0.11751479 0.09886878 9.2246553e-39
0.88416451 -0.11501479 0.09886878 7.2892954e-39
0.88416451 -0.11251479 0.09886878 6.8290263e-39
0.8966645 -0.12001479 0.066368781 8.3023305e-39
0.8991645 -0.11751479 0.066368781 8.3030619e-39
0.8991645 -0.11751479 0.068868779 8.1183148e-39
0.9016645 -0.11751479 0.066368781 7.750621e-39
0.88166451 -0.12251479 0.10136878 7.3868986e-39
0.88166451 -0.12001479 0.10136878 7.5655067e-39
0.88166451 -0.12251479 0.10636878 6.8362458e-39
0.87916452 -0.11751479 0.10136878 9.227179e-39
0.87916452 -0.11501479 0.10136878 6.7371936e-39
0.88166451 -0.11751479 0.10136878 9.0409955e-39
0.88166451 -0.11751479 0.10386878 8.8587482e-39
0.88166451 -0.11501479 0.10136878 6.8286732e-39
0.88166451 -0.11501479 0.10386878 6.8290263e-39
0.87916452 -0.11751479 0.10886878 8.7665512e-39
0.88166451 -0.11751479 0.10886878 8.3059486e-39
0.88166451 -0.12251479 0.11136878 5.0838253e-39
0.88166451 -0.12251479 0.11386878 4.8994341e-39
0.88166451 -0.12001479 0.11386878 5.2627894e-39
0.87916452 -0.11751479 0.11136878 8.5825383e-39
0.87916452 -0.11751479 0.11386878 8.6732836e-39
0.87916452 -0.11501479 0.11136878 9.5949092e-39
0.87916452 -0.11501479 0.11386878 1.0054814e-38
0.88166451 -0.11751479 0.11136878 8.4888895e-39
0.88166451 -0.11751479 0.11386878 8.2126908e-39
0.88166451 -0.11501479 0.11886878 1.0235217e-38
0.88166451 -0.11251479 0.10136878 6.4606109e-39
0.88416451 -0.12251479 0.10386878 6.9280883e-39
0.88416451 -0.12001479 0.10136878 7.1066866e-39
0.88416451 -0.12001479 0.10386878 7.1978032e-39
0.88666451 -0.12001479 0.10386878 7.0152098e-39
0.88416451 -0.12251479 0.10636878 5.8228155e-39
0.88416451 -0.12251479 0.10886878 6.0018188e-39
0.88416451 -0.12001479 0.10636878 7.2907177e-39
0.88416451 -0.12001479 0.10886878 5.9996103e-39
0.88666451 -0.12251479 0.10636878 5.1745762e-39
0.88666451 -0.12001479 0.10636878 6.0921745e-39
0.88666451 -0.12001479 0.10886878 5.8148659e-39
0.88416451 -0.11751479 0.10136878 9.0431479e-39
0.88416451 -0.11751479 0.10386878 8.6729333e-39
0.88416451 -0.11501479 0.10136878 7.4722447e-39
0.88416451 -0.11501479 0.10386878 7.1970997e-39
0.88666451 -0.11751479 0.10386878 8.4903399e-39
0.88666451 -0.11501479 0.10386878 7.4725922e-39
0.88416451 -0.11751479 0.10636878 8.8580448e-39
0.88416451 -0.11751479 0.10886878 8.581088e-39
0.88416451 -0.11501479 0.10636878 7.0119728e-39
0.88666451 -0.11751479 0.10636878 8.6736521e-39
0.88666451 -0.11751479 0.10886878 9.7785746e-39
0.88416451 -0.12251479 0.11386878 4.163311e-39
0.88416451 -0.12001479 0.11136878 5.9999761e-39
0.88416451 -0.12001479 0.11386878 5.4457331e-39
0.88666451 -0.12001479 0.11386878 5.6293831e-39
0.88416451 -0.12251479 0.11636878 3.7956075e-39
0.88416451 -0.12251479 0.11886878 3.3357013e-39
0.88416451 -0.12001479 0.11636878 5.4460862e-39
0.88666451 -0.12251479 0.11886878 2.7825275e-39
0.88666451 -0.12001479 0.11886878 5.1684273e-39
0.88416451 -0.11751479 0.11136878 8.8584007e-39
0.88416451 -0.11751479 0.11386878 8.5803845e-39
0.88666451 -0.11751479 0.11386878 8.9484257e-39
0.88416451 -0.11751479 0.11636878 8.5792915e-39
0.88416451 -0.11751479 0.11886878 8.3963408e-39
0.88416451 -0.11501479 0.11636878 8.5760503e-39
0.88416451 -0.11501479 0.11886878 1.0237735e-38
0.88666451 -0.11751479 0.11886878 8.48747e-39
0.88666451 -0.11501479 0.11886878 1.0511413e-38
0.88916451 -0.11501479 0.11636878 8.118312e-39
0.88416451 -0.11251479 0.10136878 6.0021467e-39
0.88416451 -0.11251479 0.10386878 6.1854659e-39
0.88916451 -0.11251479 0.10136878 6.1858191e-39
0.88916451 -0.11251479 0.10386878 6.2780175e-39
0.88666451 -0.11251479 0.11886878 6.7361244e-39
0.88166451 -0.11501479 0.12386878 1.0974895e-38
0.88166451 -0.11251479 0.12386878 6.3691369e-39
0.88166451 -0.11001479 0.12386878 6.0900235e-39
0.88166451 -0.11251479 0.12636878 9.8721925e-39
0.88166451 -0.11251479 0.12886877 8.39851e-39
0.88166451 -0.11001479 0.12636878 5.9999761e-39
0.88166451 -0.11001479 0.12886877 4.9876318e-39
0.88416451 -0.12251479 0.12136878 3.5186506e-39
0.88416451 -0.12251479 0.12386878 3.6101246e-39
0.88416451 -0.12001479 0.12386878 4.6166787e-39
0.88666451 -0.12251479 0.12386878 3.517929e-39
0.88666451 -0.12001479 0.12386878 4.9847199e-39
0.88666451 -0.12251479 0.12636878 3.4260865e-39
0.88416451 -0.11751479 0.12136878 8.3037934e-39
0.88416451 -0.11751479 0.12386878 8.0272107e-39
0.88416451 -0.11501479 0.12136878 1.1066741e-38
0.88416451 -0.11501479 0.12386878 1.115825e-38
0.88666451 -0.11751479 0.12386878 8.1183148e-39
0.88666451 -0.11501479 0.12386878 1.1893659e-38
0.88416451 -0.11501479 0.12636878 1.1527035e-38
0.88416451 -0.11501479 0.12886877 7.7495098e-39
0.88666451 -0.11751479 0.12636878 6.0936206e-39
0.88666451 -0.11501479 0.12636878 9.7789151e-39
0.88916451 -0.12251479 0.12136878 2.7825247e-39
0.88916451 -0.12251479 0.12386878 2.9654741e-39
0.88916451 -0.12001479 0.12136878 4.4312252e-39
0.88916451 -0.12001479 0.12386878 4.9815151e-39
0.89166451 -0.12251479 0.12636878 3.2424211e-39
0.89166451 -0.12251479 0.12886877 3.6054583e-39
0.89166451 -0.12001479 0.12636878 4.0646007e-39
0.89166451 -0.12001479 0.12886877 8.5843502e-39
0.88916451 -0.11751479 0.12136878 7.8428223e-39
0.88916451 -0.11751479 0.12386878 8.3005578e-39
0.88916451 -0.11501479 0.12136878 1.1527388e-38
0.88916451 -0.11501479 0.12386878 1.1985492e-38
0.88916451 -0.11501479 0.12636878 7.287831e-39
0.89166451 -0.11751479 0.12636878 5.9085119e-39
0.89166451 -0.11751479 0.12886877 8.2155677e-39
0.89166451 -0.11501479 0.12636878 7.1988598e-39
0.88416451 -0.11251479 0.12136878 6.9219394e-39
0.88416451 -0.11251479 0.12386878 9.5930945e-39
0.88666451 -0.11251479 0.12386878 9.9640406e-39
0.88416451 -0.11251479 0.12636878 1.0422495e-38
0.88416451 -0.11251479 0.12886877 7.7502707e-39
0.88416451 -0.11001479 0.12636878 6.6424756e-39
0.88416451 -0.11001479 0.12886877 5.6304971e-39
0.88666451 -0.11251479 0.12636878 8.8584133e-39
