# .PCD v0.7 - Point Cloud Data file format
VERSION 0.7
FIELDS x y z rgb
SIZE 4 4 4 4
TYPE F F F F
COUNT 1 1 1 1
WIDTH 987
HEIGHT 1
VIEWPOINT 0 0 0 1 0 0 0
POINTS 987
DATA ascii
0.93416452 -0.24943294 0.12886877 5.336897e-39
0.93416452 -0.24693294 0.12886877 3.4138293e-39
0.93666452 -0.24943294 0.12636878 2.7644045e-39
0.93666452 -0.24943294 0.12886877 5.5212883e-39
0.93666452 -0.24693294 0.12886877 3.6918455e-39
0.93916452 -0.24943294 0.12886877 4.3343437e-39
0.94166452 -0.24943294 0.12886877 4.9768012e-39
0.94166452 -0.24693294 0.12886877 6.4540851e-39
0.93916452 -0.24693294 0.13136879 6.9132625e-39
0.94166452 -0.24693294 0.13136879 6.3560937e-39
0.94416451 -0.24693294 0.12886877 6.5394241e-39
0.95166451 -0.24693294 0.12886877 5.3488557e-39
0.94916451 -0.24693294 0.13136879 5.3513753e-39
0.95166451 -0.24693294 0.13136879 6.4559025e-39
0.9591645 -0.24693294 0.12886877 8.8457778e-39
0.98666453 -0.24693294 0.12886877 1.98069e-38
0.98916453 -0.24693294 0.12886877 1.9714351e-38
0.99416453 -0.24693294 0.12886877 1.6953248e-38
0.99666452 -0.24693294 0.12636878 1.6863206e-38
1.0016645 -0.24943294 0.12386878 1.8149904e-38
1.0016645 -0.24693294 0.12386878 1.6953604e-38
0.99916452 -0.24943294 0.12636878 1.7964789e-38
0.99916452 -0.24943294 0.12886877 1.7688536e-38
0.99916452 -0.24693294 0.12636878 1.6863933e-38
0.99916452 -0.24693294 0.12886877 1.7414589e-38
1.0016645 -0.24693294 0.12886877 1.7316931e-38
1.0016645 -0.24693294 0.13136879 1.5197825e-38
1.0041646 -0.24943294 0.12136878 2.0173889e-38
1.0041646 -0.24943294 0.12386878 1.8329629e-38
1.0041646 -0.24943294 0.12636878 1.7870073e-38
1.0041646 -0.24693294 0.12636878 1.6953251e-38
1.0041646 -0.24693294 0.12886877 1.7226536e-38
1.0066645 -0.24693294 0.12886877 1.5014874e-38
1.0091646 -0.24693294 0.12886877 1.2061752e-38
1.0066645 -0.24693294 0.13136879 1.1512534e-38
1.0091646 -0.24693294 0.13136879 1.0129625e-38
0.87416452 -0.23943295 0.078868777 2.0189423e-38
0.87416452 -0.23693295 0.078868777 1.4196354e-38
0.87666452 -0.23693295 0.076368779 1.4566212e-38
0.87666452 -0.23693295 0.078868777 1.419672e-38
0.88166451 -0.23943295 0.073868781 1.4657323e-38
0.88166451 -0.23693295 0.073868781 7.3922137e-39
0.87916452 -0.23943295 0.076368779 1.4289619e-38
0.87916452 -0.23943295 0.078868777 2.0463862e-38
0.87916452 -0.23693295 0.076368779 6.6564564e-39
0.87916452 -0.23693295 0.078868777 1.391906e-38
0.87416452 -0.23443294 0.078868777 6.1929699e-39
0.87666452 -0.23443294 0.076368779 1.4392737e-41
0.87666452 -0.23443294 0.078868777 1.490634e-39
0.87666452 -0.23193294 0.076368779 4.7945581e-39
0.87666452 -0.23193294 0.078868777 4.1528012e-39
0.87666452 -0.22943294 0.076368779 5.2595117e-39
0.87666452 -0.22943294 0.078868777 5.8112492e-39
0.87666452 -0.22693294 0.076368779 5.9959978e-39
0.87666452 -0.22693294 0.078868777 5.9960006e-39
0.87916452 -0.23443294 0.073868781 4.3393267e-39
0.87916452 -0.23193294 0.073868781 4.7963462e-39
0.88166451 -0.23443294 0.071368784 4.2470946e-39
0.88166451 -0.23443294 0.073868781 1.4402546e-41
0.88166451 -0.23193294 0.071368784 4.61265e-39
0.87916452 -0.23443294 0.076368779 1.4769686e-41
0.87916452 -0.23443294 0.078868777 5.5393356e-39
0.87916452 -0.23193294 0.076368779 4.978955e-39
0.87916452 -0.23193294 0.078868777 4.3418658e-39
0.88166451 -0.23443294 0.076368779 1.6728673e-39
0.88166451 -0.23443294 0.078868777 5.2616796e-39
0.88166451 -0.23193294 0.076368779 3.9669709e-39
0.88166451 -0.23193294 0.078868777 4.3379156e-39
0.87916452 -0.22943294 0.073868781 4.6119871e-39
0.87916452 -0.22693294 0.073868781 5.2573565e-39
0.88166451 -0.22943294 0.071368784 5.6225237e-39
0.88166451 -0.22943294 0.073868781 5.8116051e-39
0.88166451 -0.22693294 0.073868781 5.6275838e-39
0.87916452 -0.22943294 0.076368779 5.8116051e-39
0.87916452 -0.22943294 0.078868777 5.0769338e-39
0.87916452 -0.22693294 0.076368779 5.6279341e-39
0.87916452 -0.22693294 0.078868777 5.4453576e-39
0.88166451 -0.22943294 0.076368779 5.9960006e-39
0.88166451 -0.22943294 0.078868777 5.1694825e-39
0.88166451 -0.22693294 0.076368779 5.9034462e-39
0.88416451 -0.23693295 0.068868779 7.6490129e-39
0.88666451 -0.23693295 0.068868779 4.5233214e-39
0.88416451 -0.23693295 0.071368784 4.7066659e-39
0.88416451 -0.23443294 0.068868779 4.0598349e-39
0.88416451 -0.23193294 0.068868779 4.061644e-39
0.88666451 -0.22943294 0.068868779 5.3499123e-39
0.88666451 -0.22693294 0.068868779 4.9822172e-39
0.88416451 -0.23443294 0.071368784 5.3469934e-39
0.88416451 -0.22943294 0.071368784 5.2573565e-39
0.88416451 -0.22693294 0.071368784 4.9822172e-39
0.87416452 -0.23693295 0.081368782 1.4194196e-38
0.87666452 -0.23943295 0.081368782 2.064789e-38
0.87666452 -0.23943295 0.083868779 2.009689e-38
0.87666452 -0.23693295 0.081368782 1.4194199e-38
0.87666452 -0.23693295 0.083868779 1.2629045e-38
0.87416452 -0.23943295 0.086368777 2.0277274e-38
0.87666452 -0.23943295 0.086368777 2.0369466e-38
0.87916452 -0.24193294 0.081368782 2.0737533e-38
0.88166451 -0.24193294 0.083868779 2.0277274e-38
0.87916452 -0.24193294 0.086368777 2.0093605e-38
0.88166451 -0.24193294 0.088868782 2.0093959e-38
0.87916452 -0.23943295 0.081368782 1.9728108e-38
0.87916452 -0.23943295 0.083868779 1.954301e-38
0.87916452 -0.23693295 0.081368782 1.2536848e-38
0.87916452 -0.23693295 0.083868779 1.1706382e-38
0.88166451 -0.23693295 0.083868779 5.5386518e-39
0.87916452 -0.23943295 0.086368777 2.0369469e-38
0.87916452 -0.23943295 0.088868782 2.0462022e-38
0.87916452 -0.23693295 0.086368777 1.0323823e-38
0.87916452 -0.23693295 0.088868782 7.655557e-39
0.88166451 -0.23943295 0.088868782 2.0186874e-38
0.88166451 -0.23693295 0.088868782 7.6544878e-39
0.87666452 -0.23693295 0.09136878 6.5499283e-39
0.87666452 -0.23693295 0.09886878 1.3376728e-38
0.87916452 -0.24193294 0.09136878 1.9726265e-38
0.87916452 -0.24193294 0.093868777 1.991029e-38
0.88166451 -0.24193294 0.093868777 2.0002856e-38
0.87916452 -0.24193294 0.096368782 2.0186174e-38
0.88166451 -0.24193294 0.09886878 2.0002871e-38
0.87916452 -0.23943295 0.09136878 1.9726265e-38
0.87916452 -0.23943295 0.093868777 1.9818095e-38
0.87916452 -0.23693295 0.09136878 6.090755e-39
0.87916452 -0.23693295 0.093868777 1.5401435e-38
0.88166451 -0.23943295 0.093868777 1.9173094e-38
0.87916452 -0.23943295 0.096368782 1.9264576e-38
0.87916452 -0.23693295 0.096368782 1.45724e-38
0.87916452 -0.23693295 0.09886878 1.3464605e-38
0.88166451 -0.23943295 0.09886878 1.7421752e-38
0.88166451 -0.23693295 0.09886878 1.3465324e-38
0.87416452 -0.23443294 0.081368782 7.3814532e-39
0.87666452 -0.23443294 0.081368782 7.1066613e-39
0.87666452 -0.23443294 0.083868779 6.4613298e-39
0.87666452 -0.22943294 0.088868782 6.1854659e-39
0.87666452 -0.22693294 0.088868782 5.7262857e-39
0.87916452 -0.23443294 0.081368782 6.3691215e-39
0.87916452 -0.23443294 0.083868779 5.9095853e-39
0.87916452 -0.23193294 0.081368782 6.002462e-39
0.87916452 -0.23193294 0.083868779 6.6449825e-39
0.88166451 -0.23443294 0.083868779 6.2783678e-39
0.88166451 -0.23193294 0.083868779 6.2779895e-39
0.87916452 -0.23443294 0.086368777 5.448254e-39
0.87916452 -0.23443294 0.088868782 4.8032532e-39
0.87916452 -0.23193294 0.086368777 6.644998e-39
0.87916452 -0.23193294 0.088868782 5.7252109e-39
0.88166451 -0.23443294 0.088868782 4.7107072e-39
0.87916452 -0.22943294 0.081368782 4.6166885e-39
0.87916452 -0.22943294 0.083868779 6.1847373e-39
0.87916452 -0.22693294 0.081368782 5.1702224e-39
0.87916452 -0.22693294 0.083868779 5.5397266e-39
0.87916452 -0.22943294 0.086368777 6.8293906e-39
0.87916452 -0.22943294 0.088868782 6.0003586e-39
0.87916452 -0.22693294 0.086368777 5.9085119e-39
0.87916452 -0.22693294 0.088868782 5.6333698e-39
0.87666452 -0.23443294 0.09136878 4.8025343e-39
0.87666452 -0.23193294 0.09136878 5.9088819e-39
0.87416452 -0.23193294 0.096368782 5.54227e-39
0.87666452 -0.23443294 0.096368782 4.7099883e-39
0.87666452 -0.23443294 0.09886878 5.1698903e-39
0.87666452 -0.23193294 0.096368782 4.9894591e-39
0.87666452 -0.23193294 0.09886878 7.1063489e-39
0.87666452 -0.22943294 0.09136878 5.9992754e-39
0.87666452 -0.22693294 0.09136878 5.2653103e-39
0.87416452 -0.22943294 0.096368782 5.0819981e-39
0.87416452 -0.22693294 0.096368782 3.794506e-39
0.87666452 -0.22943294 0.096368782 5.7273801e-39
0.87666452 -0.22943294 0.09886878 7.1081635e-39
0.87666452 -0.22693294 0.096368782 6.2841482e-39
0.87666452 -0.22693294 0.09886878 7.204678e-39
0.87916452 -0.23443294 0.093868777 4.5277579e-39
0.87916452 -0.23443294 0.096368782 4.2518941e-39
0.87916452 -0.23443294 0.09886878 6.1818688e-39
0.87916452 -0.23193294 0.09886878 9.3201174e-39
0.87916452 -0.22943294 0.09886878 9.4116123e-39
0.87916452 -0.22693294 0.09886878 7.2046808e-39
0.87916452 -0.22443295 0.078868777 4.8943516e-39
0.88166451 -0.22443295 0.076368779 5.2613264e-39
0.88166451 -0.22443295 0.078868777 4.7103205e-39
0.88166451 -0.22193295 0.078868777 4.5255747e-39
0.88166451 -0.21943294 0.078868777 4.4351811e-39
0.88166451 -0.21693294 0.078868777 4.3426253e-39
0.88166451 -0.21443294 0.078868777 3.9734771e-39
0.88166451 -0.21193294 0.078868777 4.433379e-39
0.87916452 -0.20693295 0.078868777 4.431228e-39
0.88166451 -0.20943294 0.078868777 4.433379e-39
0.88166451 -0.20693295 0.078868777 4.0653224e-39
0.88666451 -0.22443295 0.068868779 4.7981763e-39
0.88666451 -0.22193295 0.068868779 4.7059806e-39
0.88666451 -0.21943294 0.068868779 4.7974728e-39
0.88916451 -0.22193295 0.068868779 4.7052744e-39
0.88916451 -0.21943294 0.068868779 4.7052772e-39
0.88916451 -0.21693294 0.068868779 4.5212404e-39
0.89166451 -0.21693294 0.066368781 3.6954427e-39
0.88416451 -0.22443295 0.071368784 4.8936159e-39
0.88416451 -0.22193295 0.071368784 5.2591614e-39
0.88416451 -0.22443295 0.076368779 5.2616796e-39
0.88416451 -0.22193295 0.076368779 5.0776526e-39
0.88416451 -0.21943294 0.071368784 4.5241299e-39
0.88666451 -0.21943294 0.071368784 4.7085212e-39
0.88666451 -0.21943294 0.073868781 4.8929124e-39
0.88666451 -0.21693294 0.071368784 4.3411652e-39
0.88666451 -0.21693294 0.073868781 4.5262781e-39
0.88416451 -0.21943294 0.076368779 4.6177731e-39
0.88416451 -0.21693294 0.076368779 4.6177731e-39
0.88916451 -0.21443294 0.068868779 3.6032498e-39
0.88916451 -0.21193294 0.068868779 4.0656699e-39
0.89166451 -0.21443294 0.066368781 3.6954455e-39
0.89166451 -0.21193294 0.066368781 3.7876411e-39
0.88916451 -0.20943294 0.068868779 4.0656699e-39
0.88916451 -0.20693295 0.068868779 4.0656699e-39
0.89166451 -0.20943294 0.066368781 3.7872908e-39
0.89166451 -0.20693295 0.066368781 3.9702499e-39
0.89166451 -0.20693295 0.068868779 4.0653168e-39
0.88666451 -0.21443294 0.071368784 4.3411652e-39
0.88666451 -0.21443294 0.073868781 4.5262781e-39
0.88666451 -0.21193294 0.071368784 4.523774e-39
0.88666451 -0.21193294 0.073868781 4.2500612e-39
0.88416451 -0.21443294 0.076368779 4.2507702e-39
0.88416451 -0.21193294 0.076368779 4.2497136e-39
0.88666451 -0.20943294 0.071368784 4.2475458e-39
0.88666451 -0.20943294 0.073868781 4.5237768e-39
0.88666451 -0.20693295 0.073868781 4.5237768e-39
0.88916451 -0.21443294 0.071368784 4.4340825e-39
0.88916451 -0.21193294 0.071368784 4.2500612e-39
0.88916451 -0.20943294 0.071368784 4.4312252e-39
0.88916451 -0.20693295 0.071368784 4.1578711e-39
0.87666452 -0.22443295 0.088868782 5.3575031e-39
0.87666452 -0.22193295 0.088868782 5.1731119e-39
0.87666452 -0.21943294 0.088868782 4.8050524e-39
0.87666452 -0.21693294 0.088868782 5.1727588e-39
0.87916452 -0.22443295 0.081368782 4.8036035e-39
0.87916452 -0.22443295 0.083868779 5.1727461e-39
0.87916452 -0.22193295 0.081368782 4.0660385e-39
0.87916452 -0.22193295 0.083868779 5.3553395e-39
0.88166451 -0.22443295 0.083868779 5.0805505e-39
0.88166451 -0.22193295 0.083868779 5.2638628e-39
0.87916452 -0.22443295 0.086368777 5.5404497e-39
0.87916452 -0.22443295 0.088868782 5.2649544e-39
0.87916452 -0.22193295 0.086368777 5.4482568e-39
0.87916452 -0.22193295 0.088868782 5.0805631e-39
0.87916452 -0.21943294 0.081368782 4.2504297e-39
0.88166451 -0.21943294 0.083868779 5.5404497e-39
0.88166451 -0.21693294 0.083868779 5.0798415e-39
0.87916452 -0.21943294 0.086368777 5.3560612e-39
0.87916452 -0.21943294 0.088868782 4.8972481e-39
0.87916452 -0.21693294 0.086368777 5.4482723e-39
0.87916452 -0.21693294 0.088868782 4.6221059e-39
0.87666452 -0.22443295 0.09136878 4.1622026e-39
0.87666452 -0.22193295 0.09136878 4.1622026e-39
0.87416452 -0.22443295 0.096368782 3.6104749e-39
0.87666452 -0.22443295 0.096368782 6.837322e-39
0.87666452 -0.22443295 0.09886878 7.5734605e-39
0.87666452 -0.21943294 0.09136878 4.344796e-39
0.87666452 -0.21693294 0.09136878 4.2526003e-39
0.87916452 -0.22443295 0.093868777 3.1505716e-39
0.87916452 -0.22193295 0.09136878 4.0700069e-39
0.87916452 -0.22193295 0.093868777 3.1505716e-39
0.87916452 -0.22443295 0.096368782 6.9273666e-39
0.87916452 -0.22443295 0.09886878 7.7578545e-39
0.87916452 -0.22193295 0.096368782 7.1121166e-39
0.88166451 -0.22443295 0.09886878 7.3901608e-39
0.88166451 -0.22193295 0.096368782 8.3103067e-39
0.88166451 -0.22193295 0.09886878 7.5745521e-39
0.87916452 -0.21943294 0.09136878 3.9774526e-39
0.87916452 -0.21943294 0.093868777 3.5189954e-39
0.87916452 -0.21693294 0.09136878 3.9774526e-39
0.87916452 -0.21693294 0.093868777 3.1505688e-39
0.88166451 -0.21693294 0.093868777 7.7578363e-39
0.87916452 -0.21943294 0.096368782 8.3084892e-39
0.87916452 -0.21693294 0.096368782 7.6656407e-39
0.88166451 -0.21943294 0.096368782 8.3103067e-39
0.88166451 -0.21943294 0.09886878 8.0351645e-39
0.88166451 -0.21693294 0.096368782 8.4032212e-39
0.87666452 -0.21443294 0.088868782 4.8050496e-39
0.87666452 -0.21193294 0.088868782 4.8050496e-39
0.87416452 -0.20943294 0.088868782 5.0805631e-39
0.87416452 -0.20693295 0.088868782 4.8975984e-39
0.87666452 -0.20943294 0.086368777 5.082361e-39
0.87666452 -0.20943294 0.088868782 4.9897996e-39
0.87666452 -0.20693295 0.086368777 4.9901528e-39
0.87666452 -0.20693295 0.088868782 4.5302578e-39
0.87916452 -0.21443294 0.081368782 3.3306244e-39
0.87916452 -0.21193294 0.081368782 4.3433456e-39
0.88166451 -0.21443294 0.083868779 4.9876318e-39
0.88166451 -0.21193294 0.083868779 5.3560584e-39
0.87916452 -0.21443294 0.086368777 5.0801946e-39
0.87916452 -0.21443294 0.088868782 4.2536793e-39
0.87916452 -0.21193294 0.086368777 5.0801946e-39
0.87916452 -0.21193294 0.088868782 4.5299075e-39
0.87916452 -0.20943294 0.081368782 3.9749218e-39
0.87916452 -0.20943294 0.083868779 5.3560584e-39
0.87916452 -0.20693295 0.081368782 3.6979818e-39
0.87916452 -0.20693295 0.083868779 4.4373447e-39
0.88166451 -0.20943294 0.083868779 4.8050496e-39
0.88166451 -0.20693295 0.083868779 4.4380608e-39
0.87916452 -0.20943294 0.086368777 5.3560612e-39
0.87916452 -0.20943294 0.088868782 4.5299075e-39
0.87916452 -0.20693295 0.086368777 4.8976012e-39
0.87916452 -0.20693295 0.088868782 4.2543856e-39
0.87666452 -0.21443294 0.09136878 3.9767365e-39
0.87666452 -0.21193294 0.09136878 3.8845409e-39
0.87666452 -0.20943294 0.09136878 4.5299075e-39
0.87666452 -0.20693295 0.09136878 4.7132057e-39
0.87666452 -0.20693295 0.09886878 9.1389911e-39
0.87916452 -0.21443294 0.09136878 3.4271529e-39
0.87916452 -0.21443294 0.093868777 3.0601724e-39
0.87916452 -0.21193294 0.09136878 3.4271529e-39
0.87916452 -0.21193294 0.093868777 2.9679768e-39
0.88166451 -0.21443294 0.093868777 7.7578363e-39
0.88166451 -0.21193294 0.093868777 7.9418675e-39
0.87916452 -0.21443294 0.096368782 7.7578363e-39
0.87916452 -0.21193294 0.096368782 8.1262587e-39
0.88166451 -0.21443294 0.096368782 8.3110255e-39
0.88166451 -0.21193294 0.096368782 8.4954168e-39
0.88166451 -0.21193294 0.09886878 7.7593007e-39
0.87916452 -0.20943294 0.09136878 3.7944962e-39
0.87916452 -0.20943294 0.093868777 2.5991872e-39
0.87916452 -0.20693295 0.09136878 3.7937746e-39
0.87916452 -0.20693295 0.093868777 3.059092e-39
0.88166451 -0.20943294 0.093868777 8.3996086e-39
0.87916452 -0.20943294 0.096368782 7.9418647e-39
0.87916452 -0.20693295 0.096368782 7.6627722e-39
0.87916452 -0.20693295 0.09886878 8.4028708e-39
0.88166451 -0.20943294 0.096368782 9.0464368e-39
0.88166451 -0.20943294 0.09886878 8.3106752e-39
0.88166451 -0.20693295 0.09886878 8.3110255e-39
0.88416451 -0.22193295 0.09886878 8.5829433e-39
0.88666451 -0.22443295 0.09886878 2.2232651e-39
0.88666451 -0.22193295 0.096368782 8.3088703e-39
0.88666451 -0.22193295 0.09886878 2.1339351e-39
0.88416451 -0.21943294 0.096368782 7.3001162e-39
0.88416451 -0.21943294 0.09886878 8.5829433e-39
0.88416451 -0.21693294 0.096368782 8.0358778e-39
0.88416451 -0.21693294 0.09886878 8.4010674e-39
0.88666451 -0.21943294 0.096368782 8.675492e-39
0.88666451 -0.21693294 0.096368782 8.4014233e-39
0.88916451 -0.22443295 0.096368782 1.5811355e-39
0.87916452 -0.24193294 0.10136878 1.9727366e-38
0.88166451 -0.24193294 0.10136878 1.9819925e-38
0.88166451 -0.24193294 0.10386878 1.9544054e-38
0.88166451 -0.24193294 0.10636878 1.991142e-38
0.88166451 -0.24193294 0.10886878 2.1012672e-38
0.87916452 -0.23943295 0.10136878 1.5486367e-38
0.87916452 -0.23693295 0.10136878 1.2361134e-38
0.88166451 -0.23943295 0.10136878 1.5302698e-38
0.88166451 -0.23943295 0.10386878 1.4381099e-38
0.88166451 -0.23693295 0.10136878 1.134949e-38
0.88166451 -0.23693295 0.10386878 1.0520461e-38
0.88166451 -0.23943295 0.10636878 1.3918704e-38
0.88166451 -0.23943295 0.10886878 2.018623e-38
0.88166451 -0.23693295 0.10636878 5.9121259e-39
0.88166451 -0.24193294 0.11136878 2.0736811e-38
0.88166451 -0.23943295 0.11136878 1.926644e-38
0.87666452 -0.22693294 0.10386878 4.4377371e-39
0.87916452 -0.23443294 0.10136878 7.1999668e-39
0.87916452 -0.23193294 0.10136878 9.5956309e-39
0.88166451 -0.23443294 0.10386878 7.5698423e-39
0.88166451 -0.23193294 0.10136878 9.044978e-39
0.88166451 -0.23193294 0.10386878 8.9520579e-39
0.88166451 -0.23193294 0.10636878 7.569492e-39
0.87916452 -0.22943294 0.10136878 9.965505e-39
0.87916452 -0.22693294 0.10136878 7.387993e-39
0.88166451 -0.22943294 0.10386878 7.9426157e-39
0.88166451 -0.22693294 0.10386878 1.6769002e-39
0.87916452 -0.22693294 0.10636878 1.6758339e-39
0.88166451 -0.22943294 0.10636878 6.2841664e-39
0.88166451 -0.22693294 0.10636878 2.8722092e-39
0.88416451 -0.24193294 0.10386878 1.9452953e-38
0.88416451 -0.24193294 0.10636878 1.9544458e-38
0.88416451 -0.23943295 0.10386878 1.4474029e-38
0.88416451 -0.23693295 0.10386878 9.8768883e-39
0.88416451 -0.23943295 0.10636878 1.2906376e-38
0.88416451 -0.23693295 0.10636878 5.0848791e-39
0.88416451 -0.23693295 0.10886878 4.3440799e-39
0.88916451 -0.23693295 0.10886878 5.0827323e-39
0.88416451 -0.24193294 0.11136878 2.0278351e-38
0.88416451 -0.24193294 0.11386878 2.0278351e-38
0.88666451 -0.24193294 0.11386878 2.0370903e-38
0.88416451 -0.24443294 0.11636878 2.0002856e-38
0.88416451 -0.24193294 0.11636878 2.000176e-38
0.88416451 -0.23943295 0.11136878 7.5615831e-39
0.88416451 -0.23943295 0.11386878 1.8073296e-38
0.88416451 -0.23693295 0.11136878 2.7778458e-39
0.88666451 -0.23943295 0.11386878 6.5488717e-39
0.88666451 -0.23693295 0.11386878 3.3299476e-39
0.88416451 -0.23943295 0.11636878 1.6417746e-38
0.88416451 -0.23693295 0.11636878 1.8569657e-39
0.88916451 -0.24443294 0.11636878 2.0554931e-38
0.88916451 -0.24443294 0.11886878 2.0463817e-38
0.88916451 -0.24193294 0.11636878 2.0094309e-38
0.88916451 -0.24193294 0.11886878 1.38388e-38
0.89166451 -0.24443294 0.11636878 2.0370906e-38
0.89166451 -0.24193294 0.11636878 2.0001763e-38
0.88916451 -0.23943295 0.11636878 3.5114578e-39
0.88916451 -0.23943295 0.11886878 2.6849285e-39
0.88916451 -0.23693295 0.11636878 2.686369e-39
0.88916451 -0.23693295 0.11886878 2.4090563e-39
0.89166451 -0.23943295 0.11636878 2.8675247e-39
0.88416451 -0.23443294 0.10386878 8.1222958e-39
0.88416451 -0.23193294 0.10386878 9.0442535e-39
0.88666451 -0.23443294 0.10386878 8.307057e-39
0.88666451 -0.23193294 0.10386878 7.9386305e-39
0.88416451 -0.23443294 0.10636878 7.9386305e-39
0.88416451 -0.23443294 0.10886878 6.0954381e-39
0.88416451 -0.23193294 0.10636878 7.6620436e-39
0.88416451 -0.23193294 0.10886878 5.7270269e-39
0.88666451 -0.23443294 0.10636878 6.3723992e-39
0.88666451 -0.23443294 0.10886878 6.6475385e-39
0.88666451 -0.23193294 0.10636878 5.8195925e-39
0.88666451 -0.23193294 0.10886878 5.9103448e-39
0.88416451 -0.22943294 0.10386878 3.0576725e-39
0.88416451 -0.22943294 0.10636878 3.0576725e-39
0.88416451 -0.22943294 0.10886878 5.0838225e-39
0.88916451 -0.23443294 0.10886878 5.4518876e-39
0.88916451 -0.23193294 0.10636878 6.2802035e-39
0.88916451 -0.23193294 0.10886878 4.8043644e-39
0.88416451 -0.23443294 0.11136878 4.8061497e-39
0.88416451 -0.23193294 0.11136878 4.8047147e-39
0.88666451 -0.23443294 0.11386878 5.2660558e-39
0.88666451 -0.23193294 0.11386878 3.7920173e-39
0.88416451 -0.23443294 0.11636878 4.5320767e-39
0.88666451 -0.23443294 0.11886878 4.0721747e-39
0.88416451 -0.22943294 0.11136878 4.4366581e-39
0.89166451 -0.23193294 0.11386878 3.3321084e-39
0.88916451 -0.23443294 0.11636878 4.7146729e-39
0.88916451 -0.23443294 0.11886878 4.6217528e-39
0.88916451 -0.23193294 0.11636878 3.4246641e-39
0.88916451 -0.23193294 0.11886878 3.5150549e-39
0.89166451 -0.23193294 0.11636878 2.964758e-39
0.88916451 -0.22943294 0.11636878 3.6076065e-39
0.89166451 -0.22943294 0.11636878 3.1487863e-39
0.89166451 -0.24193294 0.12136878 1.3836281e-38
0.89166451 -0.23943295 0.12136878 3.6022059e-39
0.89166451 -0.23693295 0.12136878 2.0402751e-39
0.89166451 -0.23443294 0.12136878 4.4373601e-39
0.87916452 -0.22443295 0.10136878 7.7571357e-39
0.88166451 -0.22443295 0.10136878 2.5920448e-39
0.88166451 -0.22443295 0.10386878 8.4713957e-40
0.87916452 -0.22443295 0.10636878 8.4607318e-40
0.88416451 -0.22443295 0.10136878 2.5005723e-39
0.88416451 -0.22193295 0.10136878 2.4076536e-39
0.8941645 -0.24443294 0.11636878 2.0740034e-38
0.8941645 -0.24443294 0.11886878 2.0740047e-38
0.8941645 -0.24193294 0.11886878 1.9816653e-38
0.8966645 -0.24443294 0.11886878 2.0923721e-38
0.8966645 -0.24193294 0.11886878 1.3559339e-38
0.8941645 -0.23943295 0.11886878 3.6007709e-39
0.8941645 -0.23693295 0.11886878 2.0402751e-39
0.8966645 -0.23943295 0.11886878 2.5909336e-39
0.8991645 -0.24443294 0.11886878 1.9540785e-38
0.8991645 -0.24193294 0.11886878 1.3101235e-38
0.8941645 -0.23193294 0.11386878 3.3313797e-39
0.8941645 -0.23193294 0.11636878 3.3306664e-39
0.8941645 -0.23193294 0.11886878 3.4232152e-39
0.8966645 -0.23193294 0.11886878 2.7781933e-39
0.8941645 -0.22943294 0.11386878 3.2402631e-39
0.8941645 -0.22693294 0.11386878 3.1477045e-39
0.8941645 -0.22943294 0.11636878 3.3317328e-39
0.8941645 -0.22943294 0.11886878 3.1477017e-39
0.8941645 -0.22693294 0.11636878 2.504147e-39
0.8991645 -0.23443294 0.11886878 3.3317328e-39
0.8991645 -0.23193294 0.11636878 2.9633104e-39
0.8991645 -0.23193294 0.11886878 3.5143262e-39
0.8991645 -0.22943294 0.11636878 3.1477017e-39
0.91166455 -0.23693295 0.11386878 3.2366687e-39
0.90916455 -0.23693295 0.11636878 3.3317356e-39
0.90916455 -0.23693295 0.11886878 3.6086757e-39
0.91166455 -0.23693295 0.11636878 3.4253676e-39
0.90416449 -0.23443294 0.11386878 3.8834717e-39
0.90416449 -0.23443294 0.11636878 2.9629601e-39
0.90416449 -0.23193294 0.11636878 2.8707575e-39
0.8941645 -0.24443294 0.12136878 2.1200331e-38
0.8941645 -0.24443294 0.12386878 2.1200345e-38
0.8941645 -0.24193294 0.12136878 1.9724097e-38
0.8941645 -0.24193294 0.12386878 1.8434475e-38
0.8966645 -0.24443294 0.12136878 2.10163e-38
0.8966645 -0.24443294 0.12386878 2.0925189e-38
0.8966645 -0.24193294 0.12136878 1.3651538e-38
0.8966645 -0.24193294 0.12386878 1.2639181e-38
0.8941645 -0.24443294 0.12636878 1.9267146e-38
0.8941645 -0.24193294 0.12636878 1.2260637e-38
0.8966645 -0.24443294 0.12886877 1.5316796e-38
0.8966645 -0.24193294 0.12886877 2.7781933e-39
0.8941645 -0.23943295 0.12136878 3.0490377e-39
0.8941645 -0.23693295 0.12136878 2.315067e-39
0.8966645 -0.23943295 0.12136878 3.2337849e-39
0.8966645 -0.23943295 0.12386878 3.1430326e-39
0.8966645 -0.23693295 0.12136878 4.1600516e-39
0.8966645 -0.23693295 0.12386878 1.9495243e-39
0.8991645 -0.24193294 0.12136878 1.1907361e-38
0.8991645 -0.24193294 0.12386878 8.4035533e-39
0.8991645 -0.24443294 0.12636878 1.7244963e-38
0.8991645 -0.24443294 0.12886877 1.5775974e-38
0.8991645 -0.24193294 0.12636878 8.9469964e-39
0.8991645 -0.24193294 0.12886877 2.3154173e-39
0.9016645 -0.24443294 0.12636878 1.5225678e-38
0.9016645 -0.24443294 0.12886877 1.3472161e-38
0.9016645 -0.24193294 0.12636878 3.5171835e-39
0.9016645 -0.24193294 0.12886877 3.5121612e-39
0.8991645 -0.23943295 0.12136878 2.134626e-39
0.8991645 -0.23943295 0.12386878 2.6885144e-39
0.8991645 -0.23693295 0.12136878 3.4253634e-39
0.8991645 -0.23693295 0.12386878 3.2416882e-39
0.9016645 -0.23943295 0.12136878 1.6729402e-39
0.9016645 -0.23943295 0.12386878 2.5034197e-39
0.9016645 -0.23693295 0.12136878 3.4253634e-39
0.9016645 -0.23693295 0.12386878 3.1494926e-39
0.8991645 -0.23943295 0.12636878 6.002525e-39
0.8991645 -0.23693295 0.12636878 5.26496e-39
0.9016645 -0.23943295 0.12636878 8.7723344e-39
0.9016645 -0.23943295 0.12886877 9.3204859e-39
0.8941645 -0.24443294 0.13136879 2.0467433e-38
0.8941645 -0.24443294 0.13386878 1.0041764e-38
0.8966645 -0.24443294 0.13136879 1.3011905e-38
0.8966645 -0.24443294 0.13386878 7.5538885e-39
0.8966645 -0.24193294 0.13136879 3.4239187e-39
0.8966645 -0.24443294 0.13636878 7.1826215e-39
0.8991645 -0.24443294 0.13136879 6.7375467e-39
0.8991645 -0.24443294 0.13386878 6.3673391e-39
0.8991645 -0.24193294 0.13136879 5.8155918e-39
0.8991645 -0.24193294 0.13386878 7.4740426e-39
0.9016645 -0.24443294 0.13136879 7.3803966e-39
0.9016645 -0.24193294 0.13136879 7.1970997e-39
0.8941645 -0.23443294 0.12136878 4.1618522e-39
0.8966645 -0.23443294 0.12136878 3.7930711e-39
0.9016645 -0.23443294 0.12386878 3.1502226e-39
0.90416449 -0.24193294 0.12636878 3.3327922e-39
0.90416449 -0.24193294 0.12886877 3.9764016e-39
0.90666455 -0.24193294 0.12886877 3.2399184e-39
0.90666455 -0.23943295 0.12386878 8.9538614e-39
0.90666455 -0.23693295 0.12386878 5.1727588e-39
0.90416449 -0.23943295 0.12636878 9.137524e-39
0.90416449 -0.23943295 0.12886877 6.739751e-39
0.90416449 -0.23693295 0.12636878 5.1731119e-39
0.90666455 -0.23943295 0.12636878 9.414464e-39
0.90666455 -0.23943295 0.12886877 3.7023384e-39
0.90666455 -0.23693295 0.12636878 5.5429734e-39
0.90916455 -0.24443294 0.12886877 7.3818441e-39
0.90916455 -0.24193294 0.12636878 6.7390349e-39
0.90916455 -0.24193294 0.12886877 3.9774834e-39
0.91166455 -0.24443294 0.12886877 9.4040341e-39
0.91166455 -0.24193294 0.12636878 4.3455442e-39
0.91166455 -0.24193294 0.12886877 4.4351965e-39
0.90916455 -0.23943295 0.12386878 6.0954213e-39
0.91166455 -0.23693295 0.12136878 3.3328118e-39
0.90916455 -0.23943295 0.12636878 7.8460789e-39
0.90916455 -0.23943295 0.12886877 8.7665961e-39
0.91166455 -0.23943295 0.12636878 7.3854595e-39
0.91166455 -0.23943295 0.12886877 6.0043369e-39
0.90416449 -0.24443294 0.13136879 6.7325245e-39
0.90416449 -0.24193294 0.13136879 2.9647734e-39
0.90916455 -0.24443294 0.13136879 8.9459426e-39
0.90916455 -0.24193294 0.13136879 5.4518666e-39
0.90666455 -0.23443294 0.12386878 1.0293658e-39
0.90416449 -0.23443294 0.12636878 2.4126562e-39
0.87916452 -0.20443293 0.078868777 3.9731212e-39
0.88166451 -0.20443293 0.078868777 3.9731212e-39
0.88166451 -0.20193294 0.078868777 3.9734771e-39
0.88166451 -0.19943294 0.078868777 3.9734771e-39
0.88166451 -0.19693294 0.078868777 3.972768e-39
0.88166451 -0.19443294 0.078868777 3.6979818e-39
0.88166451 -0.19193295 0.078868777 3.5150325e-39
0.88166451 -0.18943295 0.078868777 4.2497108e-39
0.88166451 -0.18693294 0.078868777 3.880571e-39
0.88916451 -0.20443293 0.068868779 3.9731212e-39
0.88916451 -0.20193294 0.068868779 3.8809213e-39
0.89166451 -0.20443293 0.066368781 3.6954455e-39
0.89166451 -0.20193294 0.066368781 3.5110528e-39
0.88916451 -0.19943294 0.068868779 3.973124e-39
0.88916451 -0.19693294 0.068868779 3.5103437e-39
0.89166451 -0.19943294 0.066368781 3.6950951e-39
0.88666451 -0.20193294 0.071368784 3.6043414e-39
0.88666451 -0.20193294 0.073868781 3.9731212e-39
0.88666451 -0.19943294 0.071368784 3.6046946e-39
0.88666451 -0.19943294 0.073868781 3.9731212e-39
0.88666451 -0.19693294 0.071368784 3.8809269e-39
0.88666451 -0.19693294 0.073868781 3.9731212e-39
0.88416451 -0.19943294 0.076368779 3.880571e-39
0.88916451 -0.20443293 0.071368784 4.2500668e-39
0.88916451 -0.20193294 0.071368784 3.9731212e-39
0.88916451 -0.19943294 0.071368784 3.9731212e-39
0.88916451 -0.19693294 0.071368784 3.9731212e-39
0.88666451 -0.19193295 0.068868779 3.603603e-39
0.88666451 -0.18943295 0.068868779 3.5110472e-39
0.88666451 -0.18693294 0.068868779 3.4181509e-39
0.88916451 -0.19443294 0.066368781 3.8762214e-39
0.88916451 -0.19443294 0.068868779 3.6950951e-39
0.88916451 -0.19193295 0.066368781 3.7840285e-39
0.88916451 -0.19193295 0.068868779 3.8784074e-39
0.88916451 -0.18943295 0.066368781 3.7836754e-39
0.88916451 -0.18943295 0.068868779 3.6950951e-39
0.88916451 -0.18693294 0.066368781 3.4145328e-39
0.88666451 -0.19443294 0.071368784 3.9731212e-39
0.88666451 -0.19443294 0.073868781 3.972768e-39
0.88666451 -0.19193295 0.071368784 3.8809213e-39
0.88666451 -0.19193295 0.073868781 3.697979e-39
0.88416451 -0.19443294 0.076368779 3.7901774e-39
0.88416451 -0.19193295 0.076368779 4.0653224e-39
0.88416451 -0.18943295 0.071368784 3.8809213e-39
0.88416451 -0.18693294 0.071368784 3.5139437e-39
0.88666451 -0.18943295 0.071368784 3.8809213e-39
0.88666451 -0.18943295 0.073868781 3.697979e-39
0.88416451 -0.18943295 0.076368779 4.0653224e-39
0.88416451 -0.18693294 0.076368779 3.697979e-39
0.88916451 -0.19443294 0.071368784 3.8809269e-39
0.87666452 -0.20443293 0.086368777 4.9894437e-39
0.87666452 -0.20443293 0.088868782 4.6228122e-39
0.87666452 -0.20193294 0.086368777 5.4504218e-39
0.87666452 -0.20193294 0.088868782 2.9540072e-40
0.87666452 -0.19943294 0.088868782 2.9615112e-39
0.87916452 -0.20443293 0.081368782 3.1476779e-39
0.87916452 -0.20443293 0.083868779 4.6220905e-39
0.87916452 -0.20193294 0.081368782 3.1476779e-39
0.87916452 -0.20193294 0.083868779 5.0830672e-39
0.88166451 -0.20193294 0.083868779 4.8990487e-39
0.87916452 -0.20443293 0.086368777 5.4471975e-39
0.87916452 -0.20443293 0.088868782 4.5306137e-39
0.87916452 -0.20193294 0.086368777 5.8159786e-39
0.87916452 -0.20193294 0.088868782 1.4914006e-39
0.87916452 -0.19943294 0.081368782 3.1476779e-39
0.87916452 -0.19943294 0.083868779 4.7150078e-39
0.87916452 -0.19693294 0.081368782 2.871098e-39
0.87916452 -0.19693294 0.083868779 4.2551157e-39
0.88166451 -0.19943294 0.083868779 4.6221031e-39
0.88166451 -0.19693294 0.083868779 5.1745566e-39
0.87916452 -0.19943294 0.086368777 5.8170562e-39
0.87916452 -0.19943294 0.088868782 2.8689568e-39
0.87916452 -0.19693294 0.086368777 6.8290557e-39
0.88166451 -0.19943294 0.088868782 1.8566126e-39
0.88166451 -0.19693294 0.088868782 3.054776e-39
0.87666452 -0.20443293 0.09136878 3.9770868e-39
0.87666452 -0.20193294 0.09136878 2.5941524e-39
0.87666452 -0.20443293 0.09886878 8.4014205e-39
0.87666452 -0.20193294 0.096368782 4.16402e-39
0.87666452 -0.20193294 0.09886878 7.9415199e-39
0.87666452 -0.19943294 0.09886878 8.3092235e-39
0.87666452 -0.19693294 0.09886878 8.3092235e-39
0.87916452 -0.20443293 0.09136878 4.0700013e-39
0.87916452 -0.20443293 0.093868777 2.7828652e-39
0.87916452 -0.20193294 0.09136878 3.0540445e-39
0.87916452 -0.20193294 0.093868777 1.9538234e-39
0.87916452 -0.20443293 0.096368782 5.9106951e-39
0.87916452 -0.20443293 0.09886878 8.4957727e-39
0.87916452 -0.20193294 0.096368782 3.9781868e-39
0.87916452 -0.20193294 0.09886878 8.7709149e-39
0.88166451 -0.20443293 0.09886878 8.3110255e-39
0.88166451 -0.20193294 0.09886878 9.4162815e-39
0.87916452 -0.19943294 0.09136878 3.5135962e-39
0.87916452 -0.19943294 0.093868777 2.5052064e-39
0.87916452 -0.19693294 0.09136878 4.3426422e-39
0.87916452 -0.19693294 0.093868777 2.5055693e-39
0.88166451 -0.19943294 0.09136878 2.4137254e-39
0.88166451 -0.19943294 0.093868777 4.713954e-39
0.88166451 -0.19693294 0.09136878 3.1491366e-39
0.88166451 -0.19693294 0.093868777 4.7171882e-39
0.87916452 -0.19943294 0.096368782 4.5310019e-39
0.87916452 -0.19943294 0.09886878 8.9535237e-39
0.87916452 -0.19693294 0.096368782 4.8997844e-39
0.87916452 -0.19693294 0.09886878 8.861328e-39
0.88166451 -0.19943294 0.096368782 8.49217e-39
0.88166451 -0.19943294 0.09886878 8.5865362e-39
0.88166451 -0.19693294 0.096368782 8.5868837e-39
0.88166451 -0.19693294 0.09886878 8.3099507e-39
0.87666452 -0.18693294 0.086368777 5.6330335e-39
0.87666452 -0.18693294 0.088868782 3.3303133e-39
0.87916452 -0.19443294 0.081368782 2.595953e-39
0.87916452 -0.19443294 0.083868779 5.082361e-39
0.87916452 -0.19193295 0.081368782 2.9643768e-39
0.88166451 -0.19443294 0.083868779 4.7153735e-39
0.88166451 -0.19193295 0.083868779 4.3476672e-39
0.87916452 -0.19443294 0.086368777 6.4602732e-39
0.87916452 -0.19193295 0.086368777 4.7146547e-39
0.88166451 -0.19443294 0.088868782 3.054776e-39
0.88166451 -0.19193295 0.088868782 2.9629601e-39
0.87916452 -0.18943295 0.081368782 3.607584e-39
0.87916452 -0.18943295 0.083868779 3.7019419e-39
0.87916452 -0.18693294 0.081368782 3.239519e-39
0.87916452 -0.18693294 0.083868779 5.0801974e-39
0.88166451 -0.18943295 0.083868779 4.0710831e-39
0.87916452 -0.18943295 0.086368777 4.9894437e-39
0.87916452 -0.18693294 0.086368777 5.5393959e-39
0.87916452 -0.18693294 0.088868782 3.6994293e-39
0.88166451 -0.18943295 0.088868782 2.5952468e-39
0.88166451 -0.18693294 0.088868782 2.8696911e-39
0.87916452 -0.19443294 0.093868777 2.322257e-39
0.87916452 -0.19193295 0.093868777 2.4144527e-39
0.88166451 -0.19443294 0.09136878 2.5977649e-39
0.88166451 -0.19443294 0.093868777 5.1785265e-39
0.88166451 -0.19193295 0.093868777 5.1785265e-39
0.87916452 -0.19443294 0.096368782 8.3106598e-39
0.88166451 -0.19443294 0.096368782 8.310657e-39
0.88166451 -0.19443294 0.09886878 7.8532844e-39
0.88166451 -0.19193295 0.096368782 8.035512e-39
0.87916452 -0.18943295 0.09136878 4.4351909e-39
0.87916452 -0.18943295 0.093868777 2.5988397e-39
0.87916452 -0.18693294 0.09136878 4.2518941e-39
0.87916452 -0.18693294 0.093868777 2.4148086e-39
0.88166451 -0.18943295 0.093868777 5.1785265e-39
0.88166451 -0.18693294 0.093868777 5.3625576e-39
0.88166451 -0.18943295 0.096368782 8.496123e-39
0.88166451 -0.18693294 0.096368782 8.4039274e-39
0.88416451 -0.19693294 0.093868777 5.0838099e-39
0.88416451 -0.19693294 0.096368782 7.9447611e-39
0.88416451 -0.19443294 0.093868777 5.4525911e-39
0.88416451 -0.19443294 0.096368782 8.6808814e-39
0.87916452 -0.18193294 0.078868777 3.7901774e-39
0.88166451 -0.18443294 0.078868777 3.5139465e-39
0.88166451 -0.18193294 0.076368779 3.697979e-39
0.88166451 -0.18193294 0.078868777 3.7901746e-39
0.87916452 -0.17943294 0.078868777 3.9720506e-39
0.88166451 -0.17943294 0.076368779 3.880571e-39
0.88166451 -0.17943294 0.078868777 3.972768e-39
0.88166451 -0.17693295 0.078868777 3.972768e-39
0.88166451 -0.17443295 0.078868777 3.6994237e-39
0.88166451 -0.17193294 0.078868777 4.0678391e-39
0.87916452 -0.16693294 0.078868777 3.8823703e-39
0.88166451 -0.16943294 0.078868777 3.4217508e-39
0.88166451 -0.16693294 0.078868777 3.7901746e-39
0.88666451 -0.18443294 0.068868779 3.4192075e-39
0.88666451 -0.18193294 0.068868779 3.4184984e-39
0.88666451 -0.17943294 0.068868779 3.5110528e-39
0.88666451 -0.17693295 0.068868779 3.5110528e-39
0.88916451 -0.18443294 0.066368781 3.3237693e-39
0.88916451 -0.18193294 0.066368781 3.4159705e-39
0.88916451 -0.17943294 0.066368781 3.3234161e-39
0.88916451 -0.17693295 0.066368781 3.2315736e-39
0.88416451 -0.18443294 0.071368784 3.6972405e-39
0.88416451 -0.18193294 0.071368784 3.6968902e-39
0.88416451 -0.18443294 0.076368779 3.973124e-39
0.88416451 -0.18193294 0.076368779 3.8809269e-39
0.88416451 -0.17943294 0.071368784 3.6968902e-39
0.88416451 -0.17693295 0.071368784 3.8809213e-39
0.88666451 -0.17693295 0.073868781 3.9731212e-39
0.88416451 -0.17943294 0.076368779 3.9731212e-39
0.88416451 -0.17693295 0.076368779 3.9731212e-39
0.88666451 -0.17443295 0.068868779 3.5110528e-39
0.88666451 -0.17193294 0.068868779 3.6032498e-39
0.88666451 -0.16943294 0.068868779 3.6028995e-39
0.88666451 -0.16693294 0.068868779 3.970603e-39
0.88916451 -0.17443295 0.066368781 2.9585825e-39
0.88916451 -0.17443295 0.068868779 3.5110528e-39
0.88916451 -0.17193294 0.068868779 3.5103437e-39
0.88916451 -0.16943294 0.068868779 3.6028995e-39
0.88916451 -0.16693294 0.068868779 3.6950951e-39
0.88666451 -0.17443295 0.071368784 3.6043414e-39
0.88666451 -0.17443295 0.073868781 3.9731212e-39
0.88666451 -0.17193294 0.071368784 3.6965371e-39
0.88666451 -0.17193294 0.073868781 3.9731212e-39
0.88416451 -0.17443295 0.076368779 3.5139465e-39
0.88416451 -0.17443295 0.078868777 3.1484052e-39
0.88416451 -0.17193294 0.076368779 3.4217508e-39
0.88416451 -0.17193294 0.078868777 3.4246319e-39
0.88416451 -0.16693294 0.071368784 3.9734771e-39
0.88666451 -0.16943294 0.071368784 3.8809269e-39
0.88666451 -0.16943294 0.073868781 3.7905278e-39
0.88666451 -0.16693294 0.071368784 3.8809213e-39
0.88666451 -0.16693294 0.073868781 3.7905278e-39
0.88416451 -0.16943294 0.076368779 3.7901746e-39
0.88416451 -0.16693294 0.076368779 4.157518e-39
0.88916451 -0.17193294 0.071368784 3.9731212e-39
0.88916451 -0.16943294 0.071368784 4.1578711e-39
0.87666452 -0.18443294 0.086368777 5.7252291e-39
0.87666452 -0.18443294 0.088868782 2.8693352e-39
0.87666452 -0.18193294 0.086368777 5.0809163e-39
0.87666452 -0.18193294 0.088868782 3.1458996e-39
0.87666452 -0.17943294 0.086368777 5.0819953e-39
0.87666452 -0.17943294 0.088868782 2.9640265e-39
0.87666452 -0.17693295 0.088868782 2.8725596e-39
0.87916452 -0.18443294 0.081368782 3.0551263e-39
0.87916452 -0.18443294 0.083868779 5.6333698e-39
0.87916452 -0.18193294 0.081368782 3.6072281e-39
0.87916452 -0.18193294 0.083868779 4.5302606e-39
0.87916452 -0.18443294 0.086368777 6.000374e-39
0.87916452 -0.18443294 0.088868782 3.3306482e-39
0.87916452 -0.18193294 0.086368777 5.2653047e-39
0.87916452 -0.18193294 0.088868782 3.974231e-39
0.88166451 -0.18443294 0.088868782 3.2381149e-39
0.87916452 -0.17943294 0.081368782 3.6994237e-39
0.87916452 -0.17943294 0.083868779 4.6228122e-39
0.87916452 -0.17693295 0.083868779 4.8072034e-39
0.88166451 -0.17693295 0.083868779 5.1731091e-39
0.87916452 -0.17943294 0.086368777 4.9897968e-39
0.87916452 -0.17943294 0.088868782 3.606875e-39
0.87916452 -0.17693295 0.086368777 4.8050496e-39
0.87916452 -0.17693295 0.088868782 3.3306482e-39
0.88166451 -0.17693295 0.088868782 3.9745869e-39
0.87916452 -0.18443294 0.09136878 4.2518941e-39
0.87916452 -0.18443294 0.093868777 2.5977649e-39
0.87916452 -0.18193294 0.09136878 4.5273921e-39
0.87916452 -0.18193294 0.093868777 2.4144527e-39
0.88166451 -0.18443294 0.093868777 6.1908764e-39
0.88166451 -0.18193294 0.093868777 6.0994038e-39
0.87916452 -0.18443294 0.096368782 8.4042875e-39
0.87916452 -0.18193294 0.096368782 8.3128234e-39
0.88166451 -0.18443294 0.09886878 7.3026343e-39
0.88166451 -0.18193294 0.096368782 7.759651e-39
0.88166451 -0.18193294 0.09886878 7.0260516e-39
0.87916452 -0.17943294 0.09136878 4.4344749e-39
0.87916452 -0.17943294 0.093868777 1.6768876e-39
0.87916452 -0.17693295 0.09136878 4.3422778e-39
0.87916452 -0.17693295 0.093868777 2.322257e-39
0.88166451 -0.17943294 0.093868777 6.006841e-39
0.88166451 -0.17693295 0.093868777 6.3752648e-39
0.87916452 -0.17943294 0.096368782 6.4649423e-39
0.87916452 -0.17693295 0.096368782 8.035512e-39
0.88166451 -0.17943294 0.096368782 7.8522026e-39
0.88166451 -0.17943294 0.09886878 6.7476627e-39
0.88166451 -0.17693295 0.096368782 8.0362337e-39
0.88166451 -0.17693295 0.09886878 7.0242496e-39
0.87666452 -0.17443295 0.088868782 3.3306636e-39
0.87666452 -0.17193294 0.088868782 2.7825149e-39
0.87666452 -0.16693294 0.083868779 4.1600333e-39
0.87416452 -0.16693294 0.086368777 4.8072034e-39
0.87416452 -0.16693294 0.088868782 2.5952468e-39
0.87666452 -0.16943294 0.088868782 2.4126506e-39
0.87666452 -0.16693294 0.086368777 4.3451491e-39
0.87666452 -0.16693294 0.088868782 2.5052064e-39
0.87916452 -0.17443295 0.083868779 4.7146519e-39
0.87916452 -0.17193294 0.083868779 4.9897968e-39
0.88166451 -0.17443295 0.083868779 5.1731091e-39
0.88166451 -0.17193294 0.083868779 4.8054056e-39
0.87916452 -0.17443295 0.086368777 4.4377076e-39
0.87916452 -0.17443295 0.088868782 3.5157612e-39
0.87916452 -0.17193294 0.086368777 4.620657e-39
0.87916452 -0.17193294 0.088868782 3.6076065e-39
0.87916452 -0.16693294 0.081368782 4.0674678e-39
0.87916452 -0.16693294 0.083868779 4.8976012e-39
0.88166451 -0.16943294 0.083868779 5.1723902e-39
0.88166451 -0.16693294 0.083868779 4.8958019e-39
0.87916452 -0.16943294 0.086368777 4.5295431e-39
0.87916452 -0.16943294 0.088868782 3.1480674e-39
0.87916452 -0.16693294 0.086368777 4.3447932e-39
0.87916452 -0.16693294 0.088868782 3.2402631e-39
0.88166451 -0.16943294 0.088868782 3.6079568e-39
0.87416452 -0.17443295 0.096368782 2.6903165e-39
0.87416452 -0.17193294 0.096368782 2.966546e-39
0.87666452 -0.17443295 0.096368782 6.1905232e-39
0.87666452 -0.17443295 0.09886878 7.9429661e-39
0.87666452 -0.17193294 0.096368782 6.2827161e-39
0.87666452 -0.17193294 0.09886878 8.2177551e-39
0.87666452 -0.16693294 0.09136878 3.1487863e-39
0.87916452 -0.17443295 0.09136878 4.619585e-39
0.87916452 -0.17443295 0.093868777 2.5981209e-39
0.87916452 -0.17193294 0.09136878 4.0689349e-39
0.87916452 -0.17193294 0.093868777 2.1393133e-39
0.87916452 -0.17443295 0.096368782 6.2827189e-39
0.87916452 -0.17443295 0.09886878 7.850769e-39
0.87916452 -0.17193294 0.096368782 6.283072e-39
0.87916452 -0.17193294 0.09886878 8.0351617e-39
0.88166451 -0.17443295 0.09886878 7.7585734e-39
0.88166451 -0.17193294 0.096368782 7.5749052e-39
0.88166451 -0.17193294 0.09886878 7.0242496e-39
0.87916452 -0.16943294 0.09136878 3.6076037e-39
0.87916452 -0.16943294 0.093868777 2.6903193e-39
0.87916452 -0.16693294 0.09136878 3.7919949e-39
0.87916452 -0.16693294 0.093868777 2.5977705e-39
0.88166451 -0.16943294 0.093868777 7.4783782e-39
0.88166451 -0.16693294 0.093868777 7.4808949e-39
0.87916452 -0.16943294 0.096368782 6.5596617e-39
0.87916452 -0.16693294 0.096368782 7.2025116e-39
0.88166451 -0.16943294 0.096368782 7.5749052e-39
0.88166451 -0.16943294 0.09886878 8.1273573e-39
0.88166451 -0.16693294 0.096368782 8.3106724e-39
0.87916452 -0.17443295 0.10136878 7.1146501e-39
0.87916452 -0.17193294 0.10136878 7.390514e-39
0.92916453 -0.23943295 0.088868782 4.0725447e-39
0.92916453 -0.23693295 0.086368777 2.8725596e-39
0.92916453 -0.23693295 0.088868782 2.6896102e-39
0.92666453 -0.23943295 0.09136878 3.8870842e-39
0.92666453 -0.23693295 0.09136878 2.9651265e-39
0.92916453 -0.23943295 0.09136878 3.9778309e-39
0.92916453 -0.23693295 0.09136878 3.4246585e-39
0.93166453 -0.23943295 0.09136878 3.7008881e-39
0.93166453 -0.23693295 0.09136878 3.3324643e-39
0.92916453 -0.23443294 0.086368777 2.7800108e-39
0.92916453 -0.23443294 0.088868782 2.8725624e-39
0.94166452 -0.24193294 0.078868777 3.0576697e-39
0.94166452 -0.23943295 0.078868777 3.4232152e-39
0.94166452 -0.23693295 0.078868777 3.4232152e-39
0.94166452 -0.23443294 0.078868777 3.1477045e-39
0.95166451 -0.24443294 0.068868779 2.9651265e-39
0.95166451 -0.24193294 0.068868779 2.4123031e-39
0.95166451 -0.23943295 0.068868779 2.5045001e-39
0.95166451 -0.23693295 0.068868779 3.1451962e-39
0.94666451 -0.24193294 0.076368779 3.1480731e-39
0.94666451 -0.23943295 0.076368779 2.964758e-39
0.94666451 -0.23693295 0.076368779 2.964758e-39
0.94916451 -0.24193294 0.071368784 2.780008e-39
0.94916451 -0.24193294 0.073868781 2.8722092e-39
0.95166451 -0.24193294 0.073868781 2.5974174e-39
0.94916451 -0.24193294 0.076368779 2.6899662e-39
0.94916451 -0.23943295 0.073868781 2.7800108e-39
0.95166451 -0.23943295 0.073868781 2.6874592e-39
0.95166451 -0.23693295 0.073868781 2.7807269e-39
0.94916451 -0.23943295 0.076368779 3.7912859e-39
0.94916451 -0.23693295 0.076368779 2.7782087e-39
0.94666451 -0.23443294 0.078868777 2.7782087e-39
0.95166451 -0.23443294 0.073868781 2.8704044e-39
0.94916451 -0.23443294 0.076368779 2.5019848e-39
0.95166451 -0.23443294 0.076368779 2.686369e-39
0.95166451 -0.23193294 0.078868777 2.4105024e-39
0.93666452 -0.24193294 0.086368777 3.7008909e-39
0.93666452 -0.23943295 0.083868779 2.5974146e-39
0.93666452 -0.23693295 0.083868779 3.3306664e-39
0.93416452 -0.23943295 0.088868782 3.7912859e-39
0.93416452 -0.23693295 0.088868782 3.5154108e-39
0.93666452 -0.23943295 0.086368777 3.2399128e-39
0.93666452 -0.23693295 0.086368777 3.5150605e-39
0.93916452 -0.24193294 0.086368777 3.9767491e-39
0.93916452 -0.24193294 0.088868782 3.4246585e-39
0.94166452 -0.24193294 0.088868782 3.6076093e-39
0.93916452 -0.23943295 0.083868779 3.6072561e-39
0.93916452 -0.23693295 0.083868779 3.6076093e-39
0.94166452 -0.23943295 0.081368782 3.3321084e-39
0.94166452 -0.23943295 0.083868779 2.9644021e-39
0.94166452 -0.23693295 0.081368782 3.4228593e-39
0.94166452 -0.23693295 0.083868779 2.5956181e-39
0.93916452 -0.23943295 0.086368777 3.7005224e-39
0.93916452 -0.23943295 0.088868782 3.4246585e-39
0.93916452 -0.23693295 0.086368777 3.2381149e-39
0.93916452 -0.23693295 0.088868782 3.2409847e-39
0.94166452 -0.23943295 0.088868782 3.6076093e-39
0.94166452 -0.23693295 0.088868782 2.8725624e-39
0.93416452 -0.23693295 0.093868777 3.4228621e-39
0.93666452 -0.23943295 0.09136878 3.7909215e-39
0.93666452 -0.23693295 0.09136878 3.1487863e-39
0.93666452 -0.23693295 0.093868777 2.7807269e-39
0.93416452 -0.23693295 0.096368782 2.9629601e-39
0.93666452 -0.23693295 0.09886878 3.3317328e-39
0.93916452 -0.24193294 0.09136878 3.6076093e-39
0.93916452 -0.23943295 0.09136878 3.6076065e-39
0.93916452 -0.23693295 0.09136878 3.2409819e-39
0.93916452 -0.23693295 0.093868777 3.3306664e-39
0.94166452 -0.23693295 0.09136878 2.8732812e-39
0.94166452 -0.23693295 0.093868777 2.7782087e-39
0.93916452 -0.23693295 0.096368782 2.7807269e-39
0.94166452 -0.23943295 0.096368782 3.0555061e-39
0.94166452 -0.23943295 0.09886878 2.8707575e-39
0.94166452 -0.23693295 0.096368782 2.9629601e-39
0.94166452 -0.23693295 0.09886878 2.7782115e-39
0.93416452 -0.23443294 0.088868782 2.6878152e-39
0.93916452 -0.23443294 0.083868779 3.0555089e-39
0.93916452 -0.23193294 0.083868779 2.7785619e-39
0.94166452 -0.23443294 0.081368782 2.87041e-39
0.94166452 -0.23443294 0.083868779 2.8704044e-39
0.94166452 -0.23193294 0.083868779 2.8707575e-39
0.93916452 -0.23443294 0.086368777 2.7778556e-39
0.93916452 -0.23193294 0.086368777 2.4094304e-39
0.94166452 -0.23443294 0.088868782 2.7782115e-39
0.94166452 -0.23193294 0.088868782 2.5019848e-39
0.93666452 -0.23443294 0.09886878 2.3201074e-39
0.93916452 -0.23443294 0.093868777 2.8696883e-39
0.93916452 -0.23443294 0.096368782 2.7782087e-39
0.94166452 -0.23443294 0.09886878 2.4094304e-39
0.94416451 -0.24193294 0.081368782 3.1491394e-39
0.94416451 -0.23943295 0.081368782 3.7912859e-39
0.94416451 -0.23693295 0.081368782 3.1459165e-39
0.94416451 -0.23693295 0.09136878 2.4123031e-39
0.94416451 -0.23943295 0.096368782 2.8707575e-39
0.94416451 -0.23693295 0.096368782 2.87041e-39
0.94416451 -0.23693295 0.09886878 2.6860159e-39
0.94416451 -0.23443294 0.081368782 2.7782087e-39
0.94416451 -0.23443294 0.083868779 2.870054e-39
0.94416451 -0.23193294 0.083868779 2.4094332e-39
0.94666451 -0.23443294 0.083868779 2.3168817e-39
0.94666451 -0.23193294 0.083868779 2.3183096e-39
0.94416451 -0.23443294 0.086368777 3.0547998e-39
0.94416451 -0.23443294 0.088868782 2.8704072e-39
0.94416451 -0.23193294 0.086368777 2.5019848e-39
0.94416451 -0.23193294 0.088868782 2.4094304e-39
0.94666451 -0.23443294 0.088868782 2.4130205e-39
0.94666451 -0.23193294 0.086368777 2.1339197e-39
0.94666451 -0.23193294 0.088868782 1.9524011e-39
0.94916451 -0.23443294 0.081368782 2.8686093e-39
0.94916451 -0.23193294 0.081368782 2.4105052e-39
0.94916451 -0.23193294 0.083868779 2.1339197e-39
0.95166451 -0.23193294 0.081368782 2.4108583e-39
0.95166451 -0.23193294 0.083868779 2.0427989e-39
0.94916451 -0.23193294 0.088868782 2.4105052e-39
0.95166451 -0.23193294 0.086368777 2.0427989e-39
0.94416451 -0.23443294 0.09136878 2.4119471e-39
0.94416451 -0.23443294 0.093868777 2.7782115e-39
0.94416451 -0.23193294 0.09136878 2.2275559e-39
0.94416451 -0.23193294 0.093868777 1.950976e-39
0.94666451 -0.23443294 0.09136878 2.6863662e-39
0.94666451 -0.23443294 0.093868777 2.7782115e-39
0.94666451 -0.23193294 0.09136878 2.7785619e-39
0.94666451 -0.23193294 0.093868777 2.4094304e-39
