# .PCD v0.7 - Point Cloud Data file format
VERSION 0.7
FIELDS x y z rgb
SIZE 4 4 4 4
TYPE F F F F
COUNT 1 1 1 1
WIDTH 1016
HEIGHT 1
VIEWPOINT 0 0 0 1 0 0 0
POINTS 1016
DATA ascii
1.0201671 -0.17826924 0.075504035 9.3681987e-40
1.0201671 -0.17576922 0.073004037 1.0272148e-39
1.0201671 -0.17576922 0.075504035 6.6130918e-40
1.0226671 -0.17826924 0.075504035 1.3952771e-39
1.0226671 -0.17576922 0.075504035 7.5350201e-40
1.0201671 -0.17826924 0.08050403 1.0268617e-39
1.0201671 -0.17576922 0.08050403 5.6911075e-40
1.0226671 -0.17826924 0.078004032 1.0272148e-39
1.0226671 -0.17576922 0.078004032 6.6130638e-40
1.027667 -0.19326924 0.070504032 3.8366011e-40
1.027667 -0.19076923 0.070504032 3.8401323e-40
1.0251671 -0.19326924 0.073004037 4.7656199e-40
1.0251671 -0.19326924 0.075504035 9.360982e-40
1.0251671 -0.19076923 0.073004037 4.7656199e-40
1.0251671 -0.19076923 0.075504035 6.5950991e-40
1.027667 -0.19326924 0.075504035 6.6095325e-40
1.027667 -0.19076923 0.075504035 5.6875762e-40
1.0251671 -0.19326924 0.08050403 1.0272176e-39
1.0251671 -0.19076923 0.08050403 9.3502201e-40
1.027667 -0.19326924 0.078004032 1.0272176e-39
1.027667 -0.19326924 0.08050403 1.1194105e-39
1.027667 -0.19076923 0.078004032 9.3502201e-40
1.027667 -0.19076923 0.08050403 1.1183441e-39
1.0251671 -0.18826923 0.073004037 8.4426831e-40
1.0251671 -0.18826923 0.08050403 4.7656479e-40
1.0251671 -0.18576923 0.08050403 9.3466608e-40
1.0301671 -0.19326924 0.08050403 9.3466608e-40
1.0301671 -0.19076923 0.08050403 9.350192e-40
1.0251671 -0.18326923 0.08050403 4.7656199e-40
1.0251671 -0.18076923 0.08050403 5.6876042e-40
1.0251671 -0.17826924 0.08050403 9.3466608e-40
1.0251671 -0.17576922 0.08050403 7.5098668e-40
1.0226671 -0.19326924 0.090504035 9.3466608e-40
1.0226671 -0.19076923 0.090504035 9.3502201e-40
1.0226671 -0.18576923 0.083004035 1.1183441e-39
1.0226671 -0.18576923 0.085504033 9.3539475e-40
1.0226671 -0.18576923 0.090504035 9.3466608e-40
1.0226671 -0.19326924 0.098004036 1.0275708e-39
1.0226671 -0.19076923 0.098004036 1.027568e-39
1.0201671 -0.18576923 0.093004033 9.3466608e-40
1.0201671 -0.18576923 0.095504031 5.6769123e-40
1.0226671 -0.18576923 0.098004036 5.673353e-40
1.0176671 -0.17576922 0.085504033 4.7656199e-40
1.0226671 -0.18326923 0.083004035 4.7656479e-40
1.0226671 -0.18326923 0.085504033 4.7656479e-40
1.0226671 -0.18076923 0.083004035 1.2105397e-39
1.0226671 -0.18076923 0.085504033 5.673353e-40
1.0226671 -0.18326923 0.090504035 4.7656479e-40
1.0226671 -0.18076923 0.090504035 7.5063495e-40
1.0201671 -0.17576922 0.085504033 4.7656479e-40
1.0226671 -0.17826924 0.083004035 1.1183441e-39
1.0226671 -0.17826924 0.085504033 5.673353e-40
1.0226671 -0.17576922 0.083004035 6.6095605e-40
1.0226671 -0.17576922 0.085504033 4.7656479e-40
1.0201671 -0.17576922 0.08800403 9.3502201e-40
1.0226671 -0.17826924 0.090504035 1.0268617e-39
1.0226671 -0.17576922 0.090504035 8.442557e-40
1.0201671 -0.18326923 0.093004033 4.7620886e-40
1.0201671 -0.18326923 0.095504031 9.3466608e-40
1.0201671 -0.18076923 0.093004033 9.350192e-40
1.0201671 -0.18076923 0.095504031 9.3466608e-40
1.0201671 -0.18326923 0.10050403 4.7656479e-40
1.0201671 -0.18076923 0.098004036 1.0268617e-39
1.0201671 -0.18076923 0.10050403 4.7656479e-40
1.0226671 -0.18326923 0.098004036 4.7656479e-40
1.0226671 -0.18076923 0.098004036 4.7656479e-40
1.0201671 -0.17826924 0.093004033 1.0272148e-39
1.0201671 -0.17826924 0.095504031 1.0272148e-39
1.0201671 -0.17576922 0.093004033 1.0275708e-39
1.0201671 -0.17576922 0.095504031 1.0275708e-39
1.0201671 -0.17826924 0.098004036 1.0268617e-39
1.0201671 -0.17826924 0.10050403 1.1194105e-39
1.0201671 -0.17576922 0.098004036 5.6911355e-40
1.0201671 -0.17576922 0.10050403 1.3041577e-39
1.0226671 -0.17826924 0.098004036 1.0272148e-39
1.0226671 -0.17576922 0.098004036 9.3645133e-40
1.0251671 -0.19326924 0.083004035 9.3466608e-40
1.0251671 -0.19076923 0.083004035 7.5063495e-40
1.027667 -0.19326924 0.085504033 1.1194105e-39
1.027667 -0.19076923 0.085504033 1.1194105e-39
1.0251671 -0.19326924 0.08800403 9.350164e-40
1.0251671 -0.19326924 0.090504035 5.6911355e-40
1.0251671 -0.19076923 0.08800403 1.0275708e-39
1.0251671 -0.19076923 0.090504035 6.6130918e-40
1.0251671 -0.18826923 0.083004035 7.5100349e-40
1.0251671 -0.18576923 0.083004035 5.6804156e-40
1.027667 -0.18826923 0.085504033 6.5988406e-40
1.027667 -0.18576923 0.085504033 9.3466608e-40
1.0251671 -0.18826923 0.090504035 9.3466608e-40
1.0251671 -0.18576923 0.08800403 1.1194105e-39
1.027667 -0.18826923 0.090504035 9.3466608e-40
1.0251671 -0.19326924 0.093004033 3.8436496e-40
1.0251671 -0.19326924 0.095504031 9.3502201e-40
1.0251671 -0.19076923 0.093004033 9.3502201e-40
1.0251671 -0.19076923 0.095504031 9.3502201e-40
1.0251671 -0.19326924 0.10050403 9.3502201e-40
1.0251671 -0.19076923 0.10050403 9.3502201e-40
1.027667 -0.19326924 0.098004036 3.8436496e-40
1.027667 -0.19076923 0.098004036 5.6875762e-40
1.0251671 -0.18826923 0.093004033 9.3502201e-40
1.0251671 -0.18826923 0.095504031 5.6769123e-40
1.0251671 -0.18576923 0.093004033 3.8401323e-40
1.0251671 -0.18826923 0.10050403 6.6095325e-40
1.0251671 -0.18576923 0.10050403 5.6875762e-40
1.027667 -0.18826923 0.098004036 5.6876042e-40
1.0251671 -0.18326923 0.08800403 9.3466608e-40
1.0251671 -0.18076923 0.08800403 3.8401323e-40
1.0251671 -0.17826924 0.08800403 3.8401323e-40
1.0251671 -0.17576922 0.08800403 1.9998071e-40
1.0251671 -0.18326923 0.093004033 4.7621447e-40
1.0226671 -0.21326923 0.11300404 6.5950991e-40
1.0226671 -0.21076924 0.11300404 1.1176112e-39
1.0226671 -0.21326923 0.12050404 1.0275708e-39
1.0226671 -0.21076924 0.11800403 6.5950991e-40
1.0226671 -0.21076924 0.12050404 7.5206007e-40
1.0201671 -0.20826922 0.11550403 7.5098668e-40
1.0201671 -0.20576923 0.11550403 6.5986304e-40
1.0226671 -0.20826922 0.11300404 9.339332e-40
1.0226671 -0.20576923 0.11300404 5.6731428e-40
1.0201671 -0.20826922 0.11800403 1.3016409e-39
1.0201671 -0.20576923 0.11800403 7.5098387e-40
1.0226671 -0.20826922 0.11800403 9.350164e-40
1.0226671 -0.20826922 0.12050404 9.350164e-40
1.0226671 -0.20576923 0.11800403 1.0275708e-39
1.0226671 -0.20576923 0.12050404 1.0275708e-39
1.0226671 -0.20326923 0.11300404 1.2094439e-39
1.0226671 -0.20076923 0.11300404 9.350164e-40
1.0201671 -0.20326923 0.11800403 7.5206007e-40
1.0201671 -0.20076923 0.11800403 1.0275708e-39
1.0226671 -0.20326923 0.11800403 1.0275708e-39
1.0226671 -0.20326923 0.12050404 1.0275708e-39
1.0226671 -0.20076923 0.11800403 1.0275652e-39
1.0226671 -0.20076923 0.12050404 1.211962e-39
1.0226671 -0.19826923 0.11300404 1.0275708e-39
1.0226671 -0.19576924 0.11300404 1.0275708e-39
1.0201671 -0.19826923 0.11800403 9.350164e-40
1.0226671 -0.19826923 0.11800403 1.1197664e-39
1.0226671 -0.19826923 0.12050404 1.3952743e-39
1.0226671 -0.19576924 0.11800403 1.1197664e-39
1.0226671 -0.19576924 0.12050404 1.4874699e-39
1.0251671 -0.21326923 0.10300403 1.070536e-40
1.0251671 -0.21076924 0.10300403 5.6731428e-40
1.027667 -0.21326923 0.10550404 3.8363348e-40
1.027667 -0.21076924 0.10550404 5.6730868e-40
1.0251671 -0.21326923 0.10800403 1.9960235e-40
1.0251671 -0.21076924 0.10800403 5.6730868e-40
1.027667 -0.21326923 0.10800403 3.8328035e-40
1.027667 -0.21326923 0.11050403 3.8328035e-40
1.027667 -0.21076924 0.10800403 3.8292723e-40
1.027667 -0.21076924 0.11050403 9.339332e-40
1.0251671 -0.20826922 0.10300403 3.8292442e-40
1.0251671 -0.20576923 0.10300403 5.6731428e-40
1.027667 -0.20826922 0.10550404 5.6730868e-40
1.027667 -0.20576923 0.10550404 5.6731428e-40
1.0251671 -0.20826922 0.10800403 5.6730868e-40
1.0251671 -0.20576923 0.10800403 5.6731428e-40
1.027667 -0.20826922 0.11050403 9.3358007e-40
1.027667 -0.20576923 0.10800403 1.0275708e-39
1.027667 -0.20576923 0.11050403 6.5950991e-40
1.0251671 -0.21326923 0.11550403 6.5950991e-40
1.0251671 -0.21076924 0.11550403 1.1179643e-39
1.027667 -0.21326923 0.11300404 5.6730868e-40
1.0251671 -0.21326923 0.11800403 7.5206007e-40
1.0251671 -0.21326923 0.12050404 1.2123151e-39
1.0251671 -0.21076924 0.11800403 7.5206007e-40
1.0251671 -0.21076924 0.12050404 1.2123151e-39
1.027667 -0.21326923 0.11800403 8.442557e-40
1.027667 -0.21326923 0.12050404 1.301994e-39
1.0251671 -0.20826922 0.12050404 1.211962e-39
1.0251671 -0.20576923 0.12050404 1.6704192e-39
1.0251671 -0.20326923 0.10300403 6.5950991e-40
1.0251671 -0.20076923 0.10300403 6.5950991e-40
1.027667 -0.20326923 0.10550404 6.5915398e-40
1.027667 -0.20076923 0.10550404 1.1179643e-39
1.0251671 -0.20326923 0.10800403 7.5098668e-40
1.0251671 -0.20076923 0.10800403 5.6695835e-40
1.027667 -0.20326923 0.10800403 3.8293003e-40
1.027667 -0.20326923 0.11050403 7.5098387e-40
1.027667 -0.20076923 0.11050403 3.8436216e-40
1.0251671 -0.19826923 0.10300403 3.8401323e-40
1.0251671 -0.19576924 0.10300403 9.3502201e-40
1.0251671 -0.19826923 0.10800403 7.5063495e-40
1.0251671 -0.19576924 0.10800403 8.442557e-40
1.027667 -0.19826923 0.11050403 1.0275708e-39
1.027667 -0.19576924 0.11050403 1.027568e-39
1.0251671 -0.20326923 0.11550403 9.350164e-40
1.0251671 -0.20076923 0.11550403 1.1201195e-39
1.027667 -0.20326923 0.11300404 9.350164e-40
1.0251671 -0.20326923 0.11800403 7.5206007e-40
1.0251671 -0.20326923 0.12050404 1.7626149e-39
1.0251671 -0.20076923 0.12050404 1.7626177e-39
1.0251671 -0.19826923 0.11550403 1.1201195e-39
1.0251671 -0.19576924 0.11550403 1.0275708e-39
1.0251671 -0.19826923 0.12050404 1.8551664e-39
1.0251671 -0.19576924 0.11800403 1.3045108e-39
1.0251671 -0.19576924 0.12050404 1.7626121e-39
1.0226671 -0.20826922 0.12550403 1.5782208e-39
1.0226671 -0.20576923 0.12550403 1.5778677e-39
1.0226671 -0.21326923 0.13300404 6.4609668e-39
1.0226671 -0.19826923 0.12550403 1.4503439e-41
1.0226671 -0.19576924 0.12550403 1.4143305e-41
1.0251671 -0.21326923 0.12300403 1.3941897e-39
1.0251671 -0.21326923 0.12550403 1.52167e-41
1.0251671 -0.21076924 0.12300403 1.5782208e-39
1.0251671 -0.21076924 0.12550403 1.4856566e-41
1.027667 -0.21326923 0.12550403 2.0467421e-39
1.027667 -0.21076924 0.12550403 2.0467421e-39
1.0251671 -0.21326923 0.13050403 7.8446173e-39
1.0251671 -0.21076924 0.13050403 7.936813e-39
1.027667 -0.21326923 0.12800403 8.3048766e-39
1.0251671 -0.20826922 0.12300403 1.5782208e-39
1.0251671 -0.20826922 0.12550403 1.4496433e-41
1.0251671 -0.20576923 0.12300403 1.5782208e-39
1.0251671 -0.20576923 0.12550403 1.3780369e-41
1.027667 -0.20826922 0.12550403 2.7810828e-39
1.027667 -0.20576923 0.12550403 3.0576725e-39
1.0251671 -0.20826922 0.12800403 2.5977705e-39
1.0251671 -0.20826922 0.13050403 8.7651513e-39
1.0251671 -0.20576923 0.12800403 2.4144527e-39
1.0251671 -0.20576923 0.13050403 8.6740319e-39
1.027667 -0.20826922 0.12800403 7.936464e-39
1.027667 -0.20576923 0.12800403 8.397438e-39
1.0301671 -0.20576923 0.13050403 7.6616722e-39
1.0251671 -0.21326923 0.13550404 8.0336441e-42
1.027667 -0.21326923 0.13300404 6.1858219e-39
1.027667 -0.21326923 0.13550404 7.6721091e-42
1.027667 -0.21076924 0.13300404 6.0014306e-39
1.027667 -0.21076924 0.13550404 8.7525102e-42
1.027667 -0.20826922 0.13300404 5.1731091e-39
1.027667 -0.20826922 0.13550404 8.0350454e-42
1.027667 -0.20576923 0.13300404 5.0819925e-39
1.027667 -0.20576923 0.13550404 8.7497076e-42
1.0301671 -0.21326923 0.13550404 2.1296023e-39
1.0301671 -0.21076924 0.13550404 2.4983848e-39
1.0301671 -0.20826922 0.13300404 6.6043197e-42
1.0301671 -0.20826922 0.13550404 2.223593e-39
1.0301671 -0.20576923 0.13300404 9.4643698e-42
1.0301671 -0.20576923 0.13550404 3.0490377e-39
1.0251671 -0.20326923 0.12300403 1.3016409e-39
1.0251671 -0.20326923 0.12550403 1.4500637e-41
1.0251671 -0.20076923 0.12300403 1.3016409e-39
1.0251671 -0.20076923 0.12550403 1.3427242e-41
1.027667 -0.20326923 0.12550403 3.0576725e-39
1.027667 -0.20076923 0.12550403 3.5157738e-39
1.0251671 -0.20326923 0.13050403 8.3970849e-39
1.027667 -0.20326923 0.12800403 8.4896336e-39
1.027667 -0.20076923 0.12800403 8.3978065e-39
1.0251671 -0.19826923 0.12300403 1.5778677e-39
1.0251671 -0.19826923 0.12550403 1.3785974e-41
1.0251671 -0.19576924 0.12300403 1.3016409e-39
1.0251671 -0.19576924 0.12550403 1.52167e-41
1.027667 -0.19826923 0.12550403 3.5179318e-39
1.027667 -0.19576924 0.12550403 3.9767519e-39
1.0251671 -0.19826923 0.12800403 3.7934425e-39
1.0251671 -0.19576924 0.12800403 3.8856381e-39
1.0251671 -0.19576924 0.13050403 8.3996086e-39
1.027667 -0.19826923 0.12800403 8.2148586e-39
1.027667 -0.19576924 0.12800403 8.674748e-39
1.0301671 -0.20326923 0.13050403 7.6580751e-39
1.0301671 -0.20076923 0.13050403 7.2907443e-39
1.0301671 -0.19826923 0.13050403 6.279835e-39
1.0301671 -0.19576924 0.13050403 2.7817806e-39
1.027667 -0.20326923 0.13300404 4.8976012e-39
1.027667 -0.20326923 0.13550404 9.8301087e-42
1.027667 -0.20076923 0.13550404 1.1626573e-41
1.0301671 -0.20326923 0.13300404 1.0186039e-41
1.0301671 -0.20326923 0.13550404 3.1459052e-39
1.0301671 -0.20076923 0.13300404 9.1056374e-42
1.0301671 -0.20076923 0.13550404 3.6061589e-39
1.032667 -0.20076923 0.13550404 3.8820199e-39
1.0301671 -0.19826923 0.13300404 1.2342637e-41
1.0301671 -0.19576924 0.13300404 1.1260834e-41
1.0226671 -0.19326924 0.11300404 1.0275708e-39
1.0226671 -0.19076923 0.11300404 1.3041577e-39
1.0226671 -0.19326924 0.11800403 1.9459271e-39
1.0226671 -0.19326924 0.12050404 1.9459271e-39
1.0226671 -0.19076923 0.11800403 2.3121985e-39
1.0226671 -0.19076923 0.12050404 2.5891301e-39
1.0226671 -0.18826923 0.11300404 9.350164e-40
1.0226671 -0.18576923 0.11300404 3.5960472e-39
1.0201671 -0.18826923 0.11800403 1.670422e-39
1.0201671 -0.18576923 0.11800403 3.6900336e-39
1.0226671 -0.18826923 0.11800403 2.0381228e-39
1.0226671 -0.18826923 0.12050404 2.8660757e-39
1.0226671 -0.18576923 0.11800403 4.0595238e-39
1.0226671 -0.18576923 0.12050404 4.3361261e-39
1.0226671 -0.18326923 0.10300403 1.1186944e-39
1.0226671 -0.18326923 0.10550404 6.5843512e-40
1.0226671 -0.18076923 0.10300403 1.21089e-39
1.0226671 -0.18076923 0.10550404 9.3502201e-40
1.0201671 -0.18326923 0.10800403 1.9888349e-40
1.0201671 -0.18076923 0.10800403 5.6766461e-40
1.0226671 -0.18326923 0.11050403 6.6392148e-39
1.0226671 -0.18076923 0.11050403 6.362988e-39
1.0226671 -0.17826924 0.10300403 1.1194105e-39
1.0226671 -0.17826924 0.10550404 2.9072879e-40
1.0226671 -0.17576922 0.10300403 1.2119648e-39
1.0226671 -0.17576922 0.10550404 2.0070097e-40
1.0201671 -0.17826924 0.10800403 1.3019912e-39
1.0201671 -0.17576922 0.10800403 1.3048583e-39
1.0226671 -0.17826924 0.11050403 6.5473919e-39
1.0226671 -0.17576922 0.11050403 6.1825569e-39
1.0176671 -0.18076923 0.11800403 5.8998169e-39
1.0151671 -0.17826924 0.12050404 6.6377322e-39
1.0151671 -0.17576922 0.12050404 6.0849172e-39
1.0176671 -0.17826924 0.11800403 7.6490129e-39
1.0176671 -0.17576922 0.11800403 8.4787736e-39
1.0201671 -0.18326923 0.11300404 9.8606584e-39
1.0201671 -0.18326923 0.11550403 9.0312467e-39
1.0201671 -0.18076923 0.11300404 8.200777e-39
1.0201671 -0.18076923 0.11550403 7.6483122e-39
1.0226671 -0.18326923 0.11300404 9.5840673e-39
1.0226671 -0.18076923 0.11300404 7.9245474e-39
1.0201671 -0.18326923 0.11800403 6.6402952e-39
1.0201671 -0.18326923 0.12050404 6.6391812e-39
1.0201671 -0.18076923 0.11800403 5.9916622e-39
1.0201671 -0.18076923 0.12050404 5.9016161e-39
1.0226671 -0.18326923 0.11800403 6.2718588e-39
1.0226671 -0.18326923 0.12050404 5.9956475e-39
1.0226671 -0.18076923 0.11800403 5.7179423e-39
1.0201671 -0.17826924 0.11550403 7.4664195e-39
1.0201671 -0.17576922 0.11550403 7.6508122e-39
1.0226671 -0.17826924 0.11300404 7.4660902e-39
1.0226671 -0.17576922 0.11300404 7.2838471e-39
1.0201671 -0.17826924 0.11800403 7.6490129e-39
1.0201671 -0.17826924 0.12050404 5.9923656e-39
1.0201671 -0.17576922 0.11800403 8.2936634e-39
1.0201671 -0.17576922 0.12050404 5.9923656e-39
1.0251671 -0.19326924 0.10300403 9.3502201e-40
1.0251671 -0.19076923 0.10300403 4.7656199e-40
1.027667 -0.19326924 0.10550404 7.5206007e-40
1.027667 -0.19076923 0.10550404 1.0275708e-39
1.0251671 -0.19326924 0.10800403 5.6766461e-40
1.0251671 -0.19076923 0.10800403 1.0275708e-39
1.027667 -0.19326924 0.11050403 1.027568e-39
1.027667 -0.19076923 0.11050403 1.3038045e-39
1.0251671 -0.18826923 0.10300403 1.1194133e-39
1.0251671 -0.18576923 0.10300403 9.3502201e-40
1.027667 -0.18576923 0.10550404 3.8292442e-40
1.0251671 -0.18826923 0.10800403 1.1197664e-39
1.0251671 -0.18576923 0.10800403 5.6730868e-40
1.027667 -0.18576923 0.11050403 8.573535e-39
1.0251671 -0.19326924 0.11550403 1.4874699e-39
1.0251671 -0.19076923 0.11550403 1.7626177e-39
1.0251671 -0.19326924 0.12050404 1.9459271e-39
1.0251671 -0.19076923 0.11800403 2.0381228e-39
1.0251671 -0.19076923 0.12050404 2.5887798e-39
1.0251671 -0.18826923 0.11550403 2.0381256e-39
1.0251671 -0.18576923 0.11550403 4.2432046e-39
1.0251671 -0.18826923 0.11800403 2.4965828e-39
1.0251671 -0.18826923 0.12050404 2.4965828e-39
1.0251671 -0.18576923 0.12050404 4.6119871e-39
1.0251671 -0.17576922 0.10800403 8.4711995e-40
1.0251671 -0.18326923 0.12050404 6.3637041e-39
1.0226671 -0.19326924 0.12550403 1.5220904e-41
1.0226671 -0.19076923 0.12550403 1.4500637e-41
1.0176671 -0.17826924 0.12300403 6.1828707e-39
1.0176671 -0.17826924 0.12550403 7.6537269e-39
1.0176671 -0.17576922 0.12300403 1.4012985e-45
1.0176671 -0.17576922 0.12550403 5.0446745e-44
1.0201671 -0.18326923 0.12300403 6.6395651e-39
1.0201671 -0.18076923 0.12300403 9.0370116e-39
1.0226671 -0.18326923 0.12550403 6.2689903e-39
1.0226671 -0.18076923 0.12550403 8.5738825e-39
1.0201671 -0.17826924 0.12300403 7.7459225e-39
1.0201671 -0.17576922 0.12300403 4.5921532e-40
1.0226671 -0.17826924 0.12550403 6.083464e-39
1.0226671 -0.17576922 0.12550403 0
1.0226671 -0.18076923 0.13300404 1.2151836e-39
1.0226671 -0.17826924 0.13300404 9.3645133e-40
1.0226671 -0.17576922 0.13300404 7.5206007e-40
1.0251671 -0.19326924 0.12300403 1.9437663e-39
1.0251671 -0.19326924 0.12550403 1.4496433e-41
1.0251671 -0.19076923 0.12300403 2.6788076e-39
1.0251671 -0.19076923 0.12550403 1.2706974e-41
1.027667 -0.19326924 0.12550403 4.0700279e-39
1.027667 -0.19076923 0.12550403 2.97016e-39
1.0251671 -0.19326924 0.12800403 3.2453049e-39
1.0251671 -0.19326924 0.13050403 8.5850691e-39
1.0251671 -0.19076923 0.12800403 3.2453049e-39
1.0251671 -0.19076923 0.13050403 8.4928734e-39
1.027667 -0.19326924 0.12800403 9.3201174e-39
1.027667 -0.19076923 0.12800403 8.6751165e-39
1.0251671 -0.18826923 0.12300403 2.6788076e-39
1.0251671 -0.18826923 0.12550403 1.3787376e-41
1.0251671 -0.18576923 0.12300403 4.2432046e-39
1.0251671 -0.18576923 0.12550403 3.5110374e-39
1.027667 -0.18826923 0.12550403 3.2471056e-39
1.027667 -0.18576923 0.12550403 9.9597092e-39
1.027667 -0.18826923 0.12800403 8.7673121e-39
1.027667 -0.18576923 0.12800403 1.0974247e-38
1.0301671 -0.19326924 0.13050403 2.5977649e-39
1.0301671 -0.19076923 0.13050403 6.2776826e-39
1.0301671 -0.18826923 0.13050403 6.185487e-39
1.0301671 -0.18576923 0.13050403 6.1847653e-39
1.0301671 -0.19326924 0.13300404 1.0193045e-41
1.0301671 -0.19076923 0.13300404 1.2719586e-41
1.0301671 -0.18826923 0.13300404 1.1280453e-41
1.0301671 -0.18576923 0.13300404 1.6305509e-41
1.032667 -0.18576923 0.13550404 6.8243698e-39
1.0251671 -0.18326923 0.12300403 6.9168779e-39
1.0251671 -0.18326923 0.12550403 4.7092218e-39
1.027667 -0.18326923 0.12550403 1.1434839e-38
1.0251671 -0.18326923 0.12800403 1.2258834e-38
1.0251671 -0.18326923 0.13050403 1.3462046e-38
1.0251671 -0.18076923 0.12800403 1.1706019e-38
1.0251671 -0.18076923 0.13050403 1.3185458e-38
1.027667 -0.18326923 0.12800403 1.1711812e-38
1.0251671 -0.17826924 0.12800403 1.1338286e-38
1.0251671 -0.17826924 0.13050403 1.3277303e-38
1.0251671 -0.17576922 0.12800403 1.0692916e-38
1.0251671 -0.17576922 0.13050403 1.2631934e-38
1.0301671 -0.18326923 0.13050403 5.9081784e-39
1.0251671 -0.18076923 0.13550404 1.5942573e-41
1.027667 -0.18326923 0.13300404 1.0304378e-39
1.027667 -0.18326923 0.13550404 1.0850394e-40
1.027667 -0.18076923 0.13300404 7.5421106e-40
1.027667 -0.18076923 0.13550404 1.4509044e-41
1.0251671 -0.17826924 0.13550404 1.0670608e-40
1.0251671 -0.17576922 0.13550404 1.2709777e-41
1.027667 -0.17826924 0.13300404 5.698142e-40
1.027667 -0.17826924 0.13550404 1.4506242e-41
1.027667 -0.17576922 0.13300404 7.5420546e-40
1.027667 -0.17576922 0.13550404 1.3787376e-41
1.0251671 -0.17826924 0.13800403 7.1953005e-39
1.0251671 -0.17576922 0.13800403 7.2874975e-39
1.0301671 -0.18326923 0.13300404 1.5585242e-41
1.0301671 -0.18076923 0.13550404 7.469742e-39
1.032667 -0.18326923 0.13550404 7.0087624e-39
1.0301671 -0.17576922 0.13550404 7.5619362e-39
1.0176671 -0.17326923 0.070504032 6.5843512e-40
1.0176671 -0.17076923 0.070504032 1.0850114e-40
1.0176671 -0.16826923 0.070504032 9.3502201e-40
1.0201671 -0.17326923 0.070504032 1.3952771e-39
1.0201671 -0.17076923 0.070504032 1.3952771e-39
1.0226671 -0.17076923 0.070504032 9.350192e-40
1.0201671 -0.16826923 0.070504032 1.3952771e-39
1.0201671 -0.16576923 0.070504032 1.1194105e-39
1.0226671 -0.16826923 0.070504032 1.0272148e-39
1.0226671 -0.16576923 0.070504032 1.211962e-39
1.0176671 -0.17326923 0.075504035 9.3681987e-40
1.0176671 -0.17326923 0.078004032 9.3681987e-40
1.0176671 -0.17076923 0.078004032 9.3681987e-40
1.0176671 -0.16826923 0.078004032 6.6130638e-40
1.0201671 -0.17326923 0.073004037 1.3949212e-39
1.0201671 -0.17326923 0.075504035 8.4426831e-40
1.0201671 -0.17076923 0.073004037 1.3949212e-39
1.0201671 -0.17076923 0.075504035 9.3681987e-40
1.0226671 -0.17326923 0.075504035 8.4426831e-40
1.0226671 -0.17076923 0.075504035 6.5988406e-40
1.0201671 -0.17326923 0.08050403 8.4462424e-40
1.0201671 -0.17076923 0.08050403 9.3681987e-40
1.0226671 -0.17326923 0.078004032 8.4426831e-40
1.0226671 -0.17076923 0.078004032 8.4426831e-40
1.0201671 -0.16826923 0.073004037 1.3952771e-39
1.0201671 -0.16826923 0.075504035 6.6130918e-40
1.0201671 -0.16576923 0.073004037 1.3952771e-39
1.0201671 -0.16576923 0.075504035 6.6130918e-40
1.0226671 -0.16826923 0.075504035 6.6130918e-40
1.0226671 -0.16576923 0.075504035 8.4462424e-40
1.0201671 -0.16826923 0.08050403 6.6095325e-40
1.0201671 -0.16576923 0.08050403 1.0272148e-39
1.0226671 -0.16826923 0.078004032 6.6023719e-40
1.0226671 -0.16576923 0.078004032 8.4462144e-40
1.0201671 -0.16326924 0.070504032 1.1194105e-39
1.0226671 -0.16326924 0.070504032 1.2112432e-39
1.0226671 -0.16076922 0.070504032 1.3952743e-39
1.0226671 -0.15826923 0.070504032 1.1201195e-39
1.0226671 -0.15576923 0.070504032 1.1201195e-39
1.0201671 -0.16326924 0.073004037 1.3952771e-39
1.0201671 -0.16326924 0.075504035 6.6130918e-40
1.0201671 -0.16076922 0.075504035 6.6130918e-40
1.0226671 -0.16326924 0.075504035 9.3681987e-40
1.0226671 -0.16076922 0.075504035 1.2112432e-39
1.0201671 -0.16326924 0.08050403 1.1194105e-39
1.0201671 -0.16076922 0.08050403 1.211962e-39
1.0226671 -0.16326924 0.078004032 9.3681707e-40
1.0226671 -0.16076922 0.078004032 1.1197664e-39
1.0226671 -0.15826923 0.075504035 1.4874699e-39
1.0226671 -0.15576923 0.075504035 1.3952743e-39
1.0201671 -0.15826923 0.08050403 9.350164e-40
1.0226671 -0.15826923 0.078004032 1.3952771e-39
1.0226671 -0.15576923 0.078004032 1.3952771e-39
1.0251671 -0.17326923 0.08050403 8.4391518e-40
1.0251671 -0.16576923 0.08050403 8.4462424e-40
1.0251671 -0.16326924 0.073004037 1.3952771e-39
1.0251671 -0.16076922 0.073004037 6.6130918e-40
1.0251671 -0.16326924 0.08050403 9.3681987e-40
1.0251671 -0.16076922 0.08050403 9.3681987e-40
1.0251671 -0.15826923 0.073004037 1.3041577e-39
1.0251671 -0.15826923 0.075504035 1.3952743e-39
1.0251671 -0.15576923 0.073004037 1.0275708e-39
1.0251671 -0.15576923 0.075504035 1.3952771e-39
1.0251671 -0.15826923 0.08050403 1.3952743e-39
1.0251671 -0.15576923 0.08050403 1.4874699e-39
1.0176671 -0.17326923 0.085504033 5.6804156e-40
1.0176671 -0.17076923 0.085504033 6.6023719e-40
1.0176671 -0.17076923 0.090504035 9.3466608e-40
1.0176671 -0.16826923 0.085504033 1.1194133e-39
1.0176671 -0.16576923 0.085504033 5.6911355e-40
1.0176671 -0.16826923 0.090504035 1.0272148e-39
1.0176671 -0.16576923 0.090504035 1.1194105e-39
1.0201671 -0.17326923 0.085504033 4.7656479e-40
1.0201671 -0.17076923 0.085504033 4.7656479e-40
1.0226671 -0.17326923 0.083004035 1.0264988e-39
1.0226671 -0.17326923 0.085504033 4.7656479e-40
1.0226671 -0.17076923 0.083004035 1.21089e-39
1.0226671 -0.17076923 0.085504033 4.7656479e-40
1.0201671 -0.17326923 0.08800403 1.0268617e-39
1.0201671 -0.17076923 0.08800403 9.3466608e-40
1.0226671 -0.17326923 0.090504035 1.0268617e-39
1.0226671 -0.17076923 0.090504035 1.1183441e-39
1.0201671 -0.16826923 0.085504033 5.6768843e-40
1.0201671 -0.16576923 0.085504033 6.5988406e-40
1.0226671 -0.16826923 0.083004035 6.5988406e-40
1.0226671 -0.16826923 0.085504033 6.6095605e-40
1.0226671 -0.16576923 0.083004035 1.21089e-39
1.0226671 -0.16576923 0.085504033 4.7691792e-40
1.0201671 -0.16826923 0.08800403 1.1186944e-39
1.0201671 -0.16576923 0.08800403 1.21089e-39
1.0226671 -0.16826923 0.090504035 1.1194105e-39
1.0201671 -0.17326923 0.093004033 9.350164e-40
1.0201671 -0.17326923 0.095504031 1.0275708e-39
1.0201671 -0.17076923 0.093004033 1.0268617e-39
1.0201671 -0.17076923 0.095504031 1.0268617e-39
1.0201671 -0.17326923 0.098004036 6.6130918e-40
1.0201671 -0.17326923 0.10050403 1.0275708e-39
1.0201671 -0.17076923 0.10050403 5.6875762e-40
1.0226671 -0.17326923 0.098004036 6.5986304e-40
1.0226671 -0.17076923 0.098004036 9.3502201e-40
1.0201671 -0.16826923 0.093004033 9.350164e-40
1.0201671 -0.16826923 0.095504031 1.0275708e-39
1.0201671 -0.16576923 0.093004033 9.350164e-40
1.0201671 -0.16576923 0.095504031 1.0275708e-39
1.0201671 -0.16826923 0.098004036 4.7656199e-40
1.0201671 -0.16826923 0.10050403 6.6130638e-40
1.0201671 -0.16576923 0.098004036 4.7656199e-40
1.0201671 -0.16576923 0.10050403 5.6911075e-40
1.0226671 -0.16826923 0.098004036 1.1186944e-39
1.0226671 -0.16576923 0.098004036 1.3949212e-39
1.0176671 -0.16326924 0.085504033 6.6130918e-40
1.0176671 -0.16326924 0.090504035 6.6130918e-40
1.0176671 -0.16076922 0.090504035 9.350192e-40
1.0201671 -0.16326924 0.085504033 4.7656479e-40
1.0201671 -0.16076922 0.085504033 1.0272148e-39
1.0226671 -0.16326924 0.083004035 1.3949212e-39
1.0226671 -0.16326924 0.085504033 6.6130918e-40
1.0226671 -0.16076922 0.083004035 1.2112432e-39
1.0226671 -0.16076922 0.085504033 6.6130918e-40
1.0201671 -0.16326924 0.08800403 6.6130918e-40
1.0201671 -0.16076922 0.08800403 6.6130918e-40
1.0226671 -0.16326924 0.090504035 1.3949212e-39
1.0226671 -0.16076922 0.090504035 6.6130918e-40
1.0201671 -0.15826923 0.085504033 1.0272148e-39
1.0226671 -0.15826923 0.083004035 1.3952743e-39
1.0226671 -0.15826923 0.085504033 1.1194105e-39
1.0226671 -0.15576923 0.083004035 6.6130918e-40
1.0226671 -0.15576923 0.085504033 1.1194105e-39
1.0201671 -0.15826923 0.08800403 6.6130918e-40
1.0201671 -0.15576923 0.08800403 1.3952771e-39
1.0226671 -0.15826923 0.090504035 6.6130918e-40
1.0226671 -0.15576923 0.090504035 9.3681987e-40
1.0201671 -0.16326924 0.093004033 1.0272148e-39
1.0201671 -0.16326924 0.095504031 1.21089e-39
1.0201671 -0.16076922 0.093004033 6.6130638e-40
1.0201671 -0.16076922 0.095504031 1.1197636e-39
1.0201671 -0.16326924 0.098004036 6.5988406e-40
1.0201671 -0.16326924 0.10050403 6.6023719e-40
1.0201671 -0.16076922 0.098004036 9.3645133e-40
1.0201671 -0.16076922 0.10050403 4.7799131e-40
1.0226671 -0.16326924 0.098004036 1.0275708e-39
1.0226671 -0.16076922 0.098004036 6.6130638e-40
1.0201671 -0.15826923 0.093004033 1.0275708e-39
1.0201671 -0.15826923 0.095504031 1.027568e-39
1.0201671 -0.15576923 0.093004033 1.0275708e-39
1.0201671 -0.15576923 0.095504031 5.6911075e-40
1.0201671 -0.15826923 0.098004036 7.5206007e-40
1.0201671 -0.15826923 0.10050403 3.8579568e-40
1.0201671 -0.15576923 0.098004036 5.6911075e-40
1.0201671 -0.15576923 0.10050403 6.6130638e-40
1.0226671 -0.15576923 0.098004036 1.1197664e-39
1.0251671 -0.17326923 0.08800403 6.5843792e-40
1.0251671 -0.17326923 0.093004033 1.0272148e-39
1.0251671 -0.17326923 0.10050403 1.0275708e-39
1.0251671 -0.17076923 0.10050403 1.1197664e-39
1.0251671 -0.16826923 0.10050403 1.0272148e-39
1.0251671 -0.16576923 0.10050403 1.1194105e-39
1.0251671 -0.16326924 0.10050403 1.2119648e-39
1.0251671 -0.15826923 0.093004033 1.1194105e-39
1.0226671 -0.15326923 0.070504032 1.3941897e-39
1.0226671 -0.15076923 0.070504032 1.302357e-39
1.0226671 -0.14826924 0.070504032 1.1179643e-39
1.0226671 -0.14576922 0.070504032 1.2105145e-39
1.0226671 -0.15326923 0.075504035 1.0275708e-39
1.0226671 -0.15326923 0.078004032 1.211962e-39
1.0226671 -0.15076923 0.078004032 1.0275708e-39
1.0226671 -0.14326923 0.070504032 6.5986024e-40
1.0226671 -0.14326923 0.078004032 1.0272148e-39
1.027667 -0.14826924 0.070504032 9.3502201e-40
1.027667 -0.14576922 0.070504032 1.2105145e-39
1.0251671 -0.15326923 0.073004037 1.0275708e-39
1.0251671 -0.15326923 0.075504035 1.0275708e-39
1.0251671 -0.15076923 0.073004037 9.350164e-40
1.0251671 -0.15076923 0.075504035 9.350164e-40
1.027667 -0.15326923 0.075504035 1.0275708e-39
1.027667 -0.15076923 0.075504035 1.1197636e-39
1.0251671 -0.15326923 0.08050403 1.1197664e-39
1.0251671 -0.15076923 0.08050403 1.0275708e-39
1.0251671 -0.14826924 0.073004037 1.0275708e-39
1.0251671 -0.14826924 0.075504035 1.0275708e-39
1.0251671 -0.14576922 0.073004037 1.3941897e-39
1.0251671 -0.14576922 0.075504035 1.5778677e-39
1.027667 -0.14826924 0.075504035 1.0275708e-39
1.027667 -0.14576922 0.075504035 1.3938366e-39
1.0251671 -0.14826924 0.08050403 1.0275708e-39
1.0251671 -0.14576922 0.08050403 1.0275708e-39
1.027667 -0.14826924 0.078004032 1.1183441e-39
1.027667 -0.14576922 0.078004032 7.5206007e-40
1.027667 -0.14326923 0.070504032 1.3938366e-39
1.027667 -0.14076923 0.070504032 1.3938366e-39
1.027667 -0.13826923 0.070504032 8.4354945e-40
1.027667 -0.13576923 0.070504032 2.9037567e-40
1.0251671 -0.14326923 0.073004037 1.5782208e-39
1.0251671 -0.14326923 0.075504035 1.5778677e-39
1.0251671 -0.14076923 0.075504035 1.3016409e-39
1.027667 -0.14326923 0.075504035 1.5778677e-39
1.027667 -0.14076923 0.075504035 1.0275708e-39
1.0251671 -0.14326923 0.08050403 9.350164e-40
1.0251671 -0.14076923 0.08050403 1.027568e-39
1.027667 -0.14326923 0.078004032 1.0275708e-39
1.027667 -0.14076923 0.078004032 7.5206007e-40
1.0251671 -0.13826923 0.073004037 1.2116089e-39
1.0251671 -0.13826923 0.075504035 1.3949212e-39
1.0251671 -0.13576923 0.073004037 9.3502201e-40
1.0251671 -0.13576923 0.075504035 1.3949212e-39
1.027667 -0.13826923 0.075504035 1.4878258e-39
1.027667 -0.13576923 0.073004037 2.0144506e-40
1.027667 -0.13576923 0.075504035 1.5800215e-39
1.0251671 -0.13826923 0.08050403 1.3952743e-39
1.0251671 -0.13576923 0.08050403 1.3952743e-39
1.027667 -0.13826923 0.078004032 1.3956274e-39
1.027667 -0.13576923 0.078004032 1.487823e-39
1.0226671 -0.15326923 0.083004035 1.1197636e-39
1.0226671 -0.15326923 0.085504033 1.1194105e-39
1.0226671 -0.15076923 0.085504033 1.0272148e-39
1.0226671 -0.15326923 0.090504035 1.1194105e-39
1.0226671 -0.15076923 0.090504035 1.1197664e-39
1.0226671 -0.14826924 0.085504033 6.6130918e-40
1.0226671 -0.14576922 0.085504033 9.350164e-40
1.0226671 -0.14826924 0.090504035 1.4874699e-39
1.0226671 -0.14576922 0.090504035 1.0275708e-39
1.0201671 -0.15326923 0.093004033 1.2123151e-39
1.0201671 -0.15326923 0.095504031 1.1197664e-39
1.0201671 -0.15076923 0.093004033 1.3952743e-39
1.0201671 -0.15076923 0.095504031 1.0275708e-39
1.0201671 -0.15326923 0.098004036 6.6130638e-40
1.0201671 -0.15326923 0.10050403 6.6130638e-40
1.0201671 -0.15076923 0.098004036 1.1194105e-39
1.0201671 -0.15076923 0.10050403 1.0272148e-39
1.0226671 -0.15326923 0.098004036 1.1197664e-39
1.0226671 -0.15076923 0.098004036 1.0275708e-39
1.0201671 -0.14826924 0.093004033 1.1194105e-39
1.0201671 -0.14826924 0.095504031 1.3952743e-39
1.0201671 -0.14576922 0.093004033 1.5778677e-39
1.0201671 -0.14576922 0.095504031 1.3952743e-39
1.0201671 -0.14826924 0.098004036 1.1194105e-39
1.0201671 -0.14826924 0.10050403 1.3952771e-39
1.0201671 -0.14576922 0.10050403 1.3952771e-39
1.0226671 -0.14826924 0.098004036 1.3952743e-39
1.0226671 -0.14576922 0.098004036 1.3952743e-39
1.0176671 -0.13826923 0.090504035 1.5782208e-39
1.0176671 -0.13576923 0.090504035 1.6704164e-39
1.0226671 -0.14326923 0.085504033 1.0275708e-39
1.0226671 -0.14076923 0.085504033 7.5206007e-40
1.0226671 -0.14326923 0.090504035 1.1197664e-39
1.0226671 -0.14076923 0.090504035 1.0275708e-39
1.0226671 -0.13826923 0.085504033 1.1197664e-39
1.0226671 -0.13576923 0.085504033 1.1197664e-39
1.0201671 -0.13826923 0.08800403 1.6704164e-39
1.0201671 -0.13576923 0.08800403 1.7626121e-39
1.0226671 -0.13826923 0.090504035 1.0275708e-39
1.0226671 -0.13576923 0.090504035 9.350164e-40
1.0176671 -0.13576923 0.098004036 7.5206007e-40
1.0201671 -0.14326923 0.093004033 1.3952743e-39
1.0201671 -0.14326923 0.095504031 1.1197664e-39
1.0201671 -0.14076923 0.093004033 1.2123151e-39
1.0201671 -0.14076923 0.095504031 1.2123151e-39
1.0201671 -0.14326923 0.10050403 1.3952743e-39
1.0201671 -0.14076923 0.10050403 1.7626121e-39
1.0226671 -0.14326923 0.098004036 1.3952743e-39
1.0226671 -0.14076923 0.098004036 1.1201195e-39
1.0201671 -0.13826923 0.093004033 1.2119592e-39
1.0201671 -0.13826923 0.095504031 1.2123151e-39
1.0201671 -0.13576923 0.093004033 1.027568e-39
1.0201671 -0.13576923 0.095504031 1.3941869e-39
1.0201671 -0.13826923 0.098004036 1.2123151e-39
1.0201671 -0.13826923 0.10050403 1.7626121e-39
1.0201671 -0.13576923 0.098004036 1.3941897e-39
1.0201671 -0.13576923 0.10050403 1.3941897e-39
1.0226671 -0.13826923 0.098004036 7.5206007e-40
1.0251671 -0.15076923 0.08800403 1.1194105e-39
1.0251671 -0.15076923 0.090504035 1.2112432e-39
1.0251671 -0.14826924 0.083004035 1.0272148e-39
1.0251671 -0.14576922 0.083004035 1.027568e-39
1.027667 -0.14826924 0.085504033 1.1194105e-39
1.0251671 -0.14826924 0.08800403 1.1194105e-39
1.0251671 -0.14576922 0.08800403 1.5778677e-39
1.0251671 -0.15076923 0.093004033 1.2123151e-39
1.0251671 -0.14826924 0.093004033 1.1190475e-39
1.0251671 -0.14576922 0.093004033 1.3952743e-39
1.0251671 -0.14576922 0.095504031 1.6704192e-39
1.0251671 -0.14326923 0.083004035 1.3016381e-39
1.0251671 -0.14076923 0.083004035 7.5206007e-40
1.0251671 -0.14326923 0.08800403 1.5778677e-39
1.0251671 -0.14076923 0.08800403 1.1197664e-39
1.0251671 -0.13826923 0.083004035 1.211962e-39
1.0251671 -0.13576923 0.083004035 1.1197664e-39
1.0251671 -0.13576923 0.08800403 1.5782208e-39
1.0251671 -0.14326923 0.093004033 1.1197664e-39
1.0251671 -0.14076923 0.093004033 1.0275708e-39
1.0251671 -0.14326923 0.10050403 1.3045108e-39
1.0226671 -0.17326923 0.10300403 1.1194105e-39
1.0226671 -0.17326923 0.10550404 1.0850394e-40
1.0226671 -0.17076923 0.10300403 6.5843792e-40
1.0226671 -0.17076923 0.10550404 1.0743475e-40
1.0226671 -0.16826923 0.10300403 1.2119592e-39
1.0226671 -0.16826923 0.10550404 1.0778227e-40
1.0226671 -0.16576923 0.10300403 1.027568e-39
1.0226671 -0.16576923 0.10550404 4.7656479e-40
1.0226671 -0.16576923 0.11050403 6.9197449e-39
1.0151671 -0.17326923 0.12050404 6.1767317e-39
1.0176671 -0.17326923 0.11800403 8.3865779e-39
1.0201671 -0.17076923 0.11550403 7.6504226e-39
1.0226671 -0.17326923 0.11300404 7.5582648e-39
1.0226671 -0.17076923 0.11300404 7.466051e-39
1.0201671 -0.17326923 0.11800403 7.7415645e-39
1.0201671 -0.17326923 0.12050404 6.5451709e-39
1.0201671 -0.17076923 0.11800403 6.72813e-39
1.0201671 -0.17076923 0.12050404 5.8987603e-39
1.0226671 -0.17326923 0.11800403 7.3752776e-39
1.0226671 -0.17076923 0.11800403 5.9898615e-39
1.0226671 -0.17076923 0.12050404 6.3668542e-39
1.0201671 -0.16826923 0.11550403 7.0050532e-39
1.0201671 -0.16576923 0.11550403 7.7459197e-39
1.0226671 -0.16826923 0.11300404 8.5739007e-39
1.0226671 -0.16576923 0.11300404 8.3895094e-39
1.0201671 -0.16826923 0.11800403 4.7920218e-39
1.0201671 -0.16826923 0.12050404 3.7782608e-39
1.0201671 -0.16576923 0.11800403 7.8381335e-39
1.0201671 -0.16576923 0.12050404 6.6392386e-39
1.0226671 -0.16826923 0.11800403 6.4548277e-39
1.0226671 -0.16826923 0.12050404 1.203906e-39
1.0226671 -0.16576923 0.11800403 7.7455666e-39
1.0226671 -0.16576923 0.12050404 7.6562604e-39
1.0176671 -0.15576923 0.11050403 1.0293686e-39
1.0226671 -0.16326924 0.10300403 1.2112432e-39
1.0226671 -0.16326924 0.10550404 1.3952771e-39
1.0226671 -0.16076922 0.10300403 1.211962e-39
1.0226671 -0.16076922 0.10550404 1.4874699e-39
1.0201671 -0.16326924 0.10800403 1.4874699e-39
1.0201671 -0.16076922 0.10800403 1.3952771e-39
1.0226671 -0.16326924 0.11050403 2.3172348e-39
1.0226671 -0.16076922 0.11050403 1.3952771e-39
1.0226671 -0.15826923 0.10300403 1.0275708e-39
1.0226671 -0.15826923 0.10550404 1.4874699e-39
1.0226671 -0.15576923 0.10300403 1.0275708e-39
1.0226671 -0.15576923 0.10550404 1.211962e-39
1.0201671 -0.15826923 0.10800403 1.0272148e-39
1.0201671 -0.15576923 0.10800403 1.1197664e-39
1.0226671 -0.15826923 0.11050403 1.6707696e-39
1.0226671 -0.15576923 0.11050403 1.3956274e-39
1.0176671 -0.15576923 0.11300404 1.3952743e-39
1.0226671 -0.16326924 0.11300404 2.1339225e-39
1.0226671 -0.16076922 0.11300404 7.5098668e-40
1.0201671 -0.16326924 0.11800403 3.6054555e-39
1.0201671 -0.16326924 0.12050404 2.6856474e-39
1.0201671 -0.16076922 0.11800403 2.6813286e-39
1.0201671 -0.16076922 0.12050404 1.487823e-39
1.0226671 -0.16326924 0.11800403 2.9604392e-39
1.0226671 -0.16326924 0.12050404 2.5023351e-39
1.0226671 -0.16076922 0.11800403 2.0381228e-39
1.0201671 -0.15826923 0.11550403 1.5785711e-39
1.0201671 -0.15576923 0.11550403 1.5800215e-39
1.0226671 -0.15826923 0.11300404 1.487823e-39
1.0226671 -0.15576923 0.11300404 1.5800215e-39
1.0201671 -0.15826923 0.11800403 1.6725716e-39
1.0201671 -0.15826923 0.12050404 1.8569629e-39
1.0201671 -0.15576923 0.11800403 1.6722185e-39
1.0201671 -0.15576923 0.12050404 2.0377598e-39
1.0226671 -0.15826923 0.11800403 1.8566098e-39
1.0226671 -0.15576923 0.11800403 1.7633309e-39
1.0251671 -0.17076923 0.10300403 1.5778677e-39
1.0251671 -0.17326923 0.10800403 2.5034015e-39
1.0251671 -0.17076923 0.10800403 2.7807114e-39
1.027667 -0.17326923 0.11050403 7.2838471e-39
1.027667 -0.17076923 0.11050403 7.7423071e-39
1.0251671 -0.16826923 0.10800403 2.3222542e-39
1.0251671 -0.16576923 0.10800403 1.7694392e-39
1.027667 -0.16826923 0.11050403 8.2065601e-39
1.027667 -0.16576923 0.11050403 7.9299564e-39
1.0251671 -0.17326923 0.11550403 8.0181555e-39
1.0251671 -0.17076923 0.11550403 7.0965608e-39
1.027667 -0.17326923 0.11300404 7.6504618e-39
1.027667 -0.17076923 0.11300404 7.6497191e-39
1.0251671 -0.17076923 0.12050404 7.8369789e-39
1.0251671 -0.16826923 0.11550403 4.5150831e-39
1.0251671 -0.16576923 0.11550403 8.3891535e-39
1.027667 -0.16826923 0.11300404 6.639212e-39
1.027667 -0.16576923 0.11300404 7.6537241e-39
1.0251671 -0.16826923 0.11800403 6.2711553e-39
1.0251671 -0.16826923 0.12050404 3.8725668e-39
1.0251671 -0.16576923 0.11800403 7.6540898e-39
1.0251671 -0.16576923 0.12050404 8.0232296e-39
1.0251671 -0.16326924 0.10300403 1.3952771e-39
1.0251671 -0.16326924 0.10800403 2.3179537e-39
1.027667 -0.16326924 0.11050403 3.2373988e-39
1.0251671 -0.16326924 0.11550403 3.6958392e-39
1.0251671 -0.16076922 0.11550403 1.0268617e-39
1.0251671 -0.16326924 0.11800403 3.0551558e-39
1.0251671 -0.16326924 0.12050404 2.1353448e-39
1.0251671 -0.15826923 0.11550403 1.6722185e-39
1.0176671 -0.17326923 0.12300403 4.4257812e-39
1.0176671 -0.17326923 0.12550403 5.2533909e-39
1.0201671 -0.17326923 0.12300403 9.217803e-39
1.0201671 -0.17076923 0.12300403 7.9273766e-39
1.0226671 -0.17326923 0.12550403 5.0635976e-39
1.0226671 -0.17076923 0.12550403 5.3479953e-39
1.0201671 -0.16826923 0.12300403 4.1473558e-39
1.0201671 -0.16576923 0.12300403 7.561541e-39
1.0226671 -0.16826923 0.12550403 3.0427683e-39
1.0226671 -0.16576923 0.12550403 7.1005657e-39
1.0201671 -0.16326924 0.12300403 2.6849285e-39
1.0201671 -0.16076922 0.12300403 1.5782208e-39
1.0226671 -0.16326924 0.12550403 2.223593e-39
1.0226671 -0.16076922 0.12550403 1.3016381e-39
1.0201671 -0.15826923 0.12300403 1.6725716e-39
1.0201671 -0.15576923 0.12300403 1.9480823e-39
1.0226671 -0.15826923 0.12550403 9.350164e-40
1.0226671 -0.15576923 0.12550403 9.3429613e-40
1.0201671 -0.15826923 0.12800403 1.8455101e-41
1.0201671 -0.15826923 0.13050403 6.3713047e-39
1.0201671 -0.15576923 0.12800403 1.9172566e-41
1.0201671 -0.15576923 0.13050403 6.1879897e-39
1.0226671 -0.15826923 0.13050403 8.5821992e-39
1.0226671 -0.15576923 0.13050403 8.307057e-39
1.0226671 -0.15826923 0.13300404 4.7121491e-39
1.0226671 -0.15576923 0.13300404 3.9760331e-39
1.0251671 -0.17326923 0.12800403 1.0786576e-38
1.0251671 -0.17326923 0.13050403 1.2357142e-38
1.0251671 -0.17076923 0.12800403 1.1890382e-38
1.0251671 -0.17076923 0.13050403 1.2906376e-38
1.0251671 -0.16576923 0.12300403 7.5618942e-39
1.0251671 -0.16576923 0.12550403 7.7444707e-39
1.027667 -0.16826923 0.12550403 1.1988382e-38
1.0251671 -0.16826923 0.12800403 1.2351359e-38
1.0251671 -0.16826923 0.13050403 1.2906376e-38
1.0251671 -0.16576923 0.12800403 1.2170256e-38
1.0251671 -0.16576923 0.13050403 1.2818509e-38
1.027667 -0.16826923 0.12800403 1.2633778e-38
1.0301671 -0.16826923 0.13050403 4.619585e-39
1.027667 -0.17326923 0.13300404 1.3970567e-39
1.027667 -0.17326923 0.13550404 7.4883288e-40
1.027667 -0.17076923 0.13300404 1.2108676e-39
1.027667 -0.17076923 0.13550404 5.6444162e-40
1.027667 -0.16826923 0.13300404 1.2108676e-39
1.027667 -0.16576923 0.13300404 1.2108648e-39
1.0301671 -0.17326923 0.13550404 7.838879e-39
1.0251671 -0.16326924 0.12800403 5.3629108e-39
1.0251671 -0.16326924 0.13050403 8.6758227e-39
1.0251671 -0.16076922 0.12800403 5.3629108e-39
1.0251671 -0.16076922 0.13050403 8.3070402e-39
1.0251671 -0.15826923 0.12800403 6.3731026e-39
1.0251671 -0.15826923 0.13050403 8.8580602e-39
1.0251671 -0.15576923 0.12800403 6.3727467e-39
1.0251671 -0.15576923 0.13050403 8.0308289e-39
1.027667 -0.16326924 0.13300404 1.5785613e-39
1.027667 -0.16076922 0.13300404 2.223572e-39
1.027667 -0.15826923 0.13300404 1.8580321e-39
1.027667 -0.15576923 0.13300404 3.8579568e-40
1.0176671 -0.15326923 0.11050403 1.4874699e-39
1.0176671 -0.15076923 0.11050403 1.1194105e-39
1.0226671 -0.15326923 0.10300403 1.1197664e-39
1.0226671 -0.15076923 0.10300403 1.1194105e-39
1.0226671 -0.15076923 0.10550404 1.3952771e-39
1.0201671 -0.15326923 0.10800403 1.1197664e-39
1.0201671 -0.15076923 0.10800403 1.0272148e-39
1.0226671 -0.15326923 0.11050403 1.0293686e-39
1.0226671 -0.15076923 0.11050403 1.4874699e-39
1.0226671 -0.14826924 0.10300403 1.3952771e-39
1.0226671 -0.14826924 0.10550404 1.211246e-39
1.0226671 -0.14576922 0.10300403 1.3952771e-39
1.0226671 -0.14576922 0.10550404 1.3952771e-39
1.0201671 -0.14826924 0.10800403 1.3952771e-39
1.0201671 -0.14576922 0.10800403 1.3952771e-39
1.0226671 -0.14826924 0.11050403 1.211962e-39
1.0226671 -0.14576922 0.11050403 1.1197664e-39
1.0176671 -0.15326923 0.11300404 1.487823e-39
1.0176671 -0.15076923 0.11300404 1.4874699e-39
1.0176671 -0.15076923 0.11800403 1.6722185e-39
1.0176671 -0.14826924 0.11800403 2.1306729e-39
1.0176671 -0.14576922 0.11800403 2.0384759e-39
1.0201671 -0.15326923 0.11300404 2.0381228e-39
1.0201671 -0.15326923 0.11550403 1.4874699e-39
1.0201671 -0.15076923 0.11300404 1.5800215e-39
1.0201671 -0.15076923 0.11550403 1.5785964e-39
1.0226671 -0.15326923 0.11300404 1.4878258e-39
1.0226671 -0.15076923 0.11300404 1.7629806e-39
1.0201671 -0.15326923 0.11800403 1.6722185e-39
1.0201671 -0.15326923 0.12050404 1.9480823e-39
1.0201671 -0.15076923 0.11800403 1.8551776e-39
1.0201671 -0.15076923 0.12050404 2.4983792e-39
1.0226671 -0.15326923 0.11800403 1.5800215e-39
1.0226671 -0.15076923 0.11800403 1.5800215e-39
1.0201671 -0.14826924 0.11550403 1.5796655e-39
1.0201671 -0.14576922 0.11550403 1.4874699e-39
1.0226671 -0.14826924 0.11300404 1.5800215e-39
1.0226671 -0.14576922 0.11300404 1.4878258e-39
1.0201671 -0.14826924 0.11800403 2.1306729e-39
1.0201671 -0.14826924 0.12050404 2.1306729e-39
1.0201671 -0.14576922 0.11800403 2.1306729e-39
1.0201671 -0.14576922 0.12050404 2.2232273e-39
1.0226671 -0.14576922 0.11800403 1.3048639e-39
1.0176671 -0.13576923 0.10300403 1.3941897e-39
1.0176671 -0.13576923 0.10550404 1.0279211e-39
1.0226671 -0.14326923 0.10300403 1.4874699e-39
1.0226671 -0.14326923 0.10550404 1.4874699e-39
1.0226671 -0.14076923 0.10300403 1.7626149e-39
1.0226671 -0.14076923 0.10550404 1.4874699e-39
1.0201671 -0.14326923 0.10800403 1.4874699e-39
1.0201671 -0.14076923 0.10800403 1.3041577e-39
1.0226671 -0.14326923 0.11050403 1.2123151e-39
1.0226671 -0.14076923 0.11050403 1.3045108e-39
1.0226671 -0.13826923 0.10300403 1.7626149e-39
1.0226671 -0.13826923 0.10550404 1.3952743e-39
1.0226671 -0.13576923 0.10300403 1.3941897e-39
1.0226671 -0.13576923 0.10550404 1.7626149e-39
1.0201671 -0.13576923 0.10800403 1.5800215e-39
1.0226671 -0.13826923 0.11050403 1.4878258e-39
1.0226671 -0.13576923 0.11050403 1.487823e-39
1.0176671 -0.14326923 0.11800403 1.487823e-39
1.0176671 -0.14076923 0.11800403 1.6725716e-39
1.0201671 -0.14326923 0.11550403 1.3967036e-39
1.0201671 -0.14076923 0.11550403 1.6725716e-39
1.0226671 -0.14326923 0.11300404 1.3048639e-39
1.0226671 -0.14076923 0.11300404 1.487823e-39
1.0201671 -0.14326923 0.11800403 1.6732877e-39
1.0201671 -0.14326923 0.12050404 1.8569629e-39
1.0201671 -0.14076923 0.11800403 1.3956246e-39
1.0201671 -0.14076923 0.12050404 2.040278e-39
1.0226671 -0.14326923 0.11800403 1.7651204e-39
1.0226671 -0.14326923 0.12050404 1.8569629e-39
1.0226671 -0.14076923 0.11800403 1.6725716e-39
1.0226671 -0.14076923 0.12050404 1.9480823e-39
1.0226671 -0.13826923 0.11300404 1.5800187e-39
1.0226671 -0.13576923 0.11300404 1.5803746e-39
1.0201671 -0.13826923 0.11800403 1.6722185e-39
1.0226671 -0.13826923 0.11800403 1.8569629e-39
1.0226671 -0.13826923 0.12050404 2.040278e-39
1.0226671 -0.13576923 0.11800403 1.8569629e-39
1.0226671 -0.13576923 0.12050404 1.8569629e-39
1.0251671 -0.14576922 0.10800403 1.2112432e-39
1.0251671 -0.14326923 0.10800403 1.4874699e-39
1.0251671 -0.14076923 0.10800403 1.2123151e-39
1.0251671 -0.13826923 0.10800403 1.1197664e-39
1.0251671 -0.13576923 0.10800403 1.2123151e-39
1.027667 -0.13826923 0.11050403 1.487823e-39
1.0251671 -0.13826923 0.11550403 1.6725716e-39
1.0251671 -0.13576923 0.11550403 2.3154229e-39
1.0251671 -0.13826923 0.12050404 1.9477292e-39
1.0251671 -0.13576923 0.11800403 2.3150698e-39
1.0251671 -0.13576923 0.12050404 2.040278e-39
1.027667 -0.13576923 0.11800403 2.3154229e-39
1.0176671 -0.15326923 0.12550403 1.027568e-39
1.0176671 -0.15076923 0.12550403 5.6911075e-40
1.0201671 -0.15326923 0.12300403 2.040278e-39
1.0201671 -0.15076923 0.12300403 2.1324736e-39
1.0226671 -0.15326923 0.12550403 1.3952743e-39
1.0226671 -0.15076923 0.12550403 1.0275708e-39
1.0201671 -0.15326923 0.12800403 1.8812432e-41
1.0201671 -0.15326923 0.13050403 6.2801853e-39
1.0201671 -0.15076923 0.12800403 1.8455101e-41
1.0201671 -0.15076923 0.13050403 6.4635004e-39
1.0226671 -0.15326923 0.13050403 8.0308289e-39
1.0226671 -0.15076923 0.13050403 8.2141439e-39
1.0201671 -0.14826924 0.12300403 1.9480823e-39
1.0201671 -0.14576922 0.12300403 2.040278e-39
1.0226671 -0.14826924 0.12550403 1.0268519e-39
1.0226671 -0.14576922 0.12550403 1.3952743e-39
1.0201671 -0.14826924 0.12800403 1.8455101e-41
1.0201671 -0.14826924 0.13050403 6.4635004e-39
1.0201671 -0.14576922 0.12800403 1.8455101e-41
1.0201671 -0.14576922 0.13050403 6.3723809e-39
1.0226671 -0.14826924 0.13050403 7.1999934e-39
1.0226671 -0.14576922 0.13050403 7.4747782e-39
1.0226671 -0.15326923 0.13300404 3.6076093e-39
1.0226671 -0.15076923 0.13300404 4.5263174e-39
1.0226671 -0.14826924 0.13300404 4.2497291e-39
1.0226671 -0.14576922 0.13300404 4.0671357e-39
1.0176671 -0.14326923 0.12550403 1.2112432e-39
1.0176671 -0.14076923 0.12550403 1.4874699e-39
1.0201671 -0.14326923 0.12300403 2.040278e-39
1.0201671 -0.14076923 0.12300403 1.9480823e-39
1.0226671 -0.14326923 0.12550403 7.5350201e-40
1.0226671 -0.14076923 0.12550403 7.5350201e-40
1.0201671 -0.14326923 0.12800403 1.7376101e-41
1.0201671 -0.14326923 0.13050403 6.4631444e-39
1.0201671 -0.14076923 0.12800403 1.8816636e-41
1.0201671 -0.14076923 0.13050403 6.5556988e-39
1.0226671 -0.14326923 0.13050403 7.751012e-39
1.0226671 -0.14076923 0.13050403 7.6588164e-39
1.0201671 -0.13826923 0.12300403 1.8583978e-39
1.0201671 -0.13576923 0.12300403 2.4090535e-39
1.0226671 -0.13826923 0.12550403 6.6130638e-40
1.0226671 -0.13576923 0.12550403 1.4878258e-39
1.0226671 -0.14326923 0.13300404 4.3415758e-39
1.0226671 -0.14076923 0.13300404 4.6152844e-39
