# .PCD v0.7 - Point Cloud Data file format
VERSION 0.7
FIELDS x y z rgb
SIZE 4 4 4 4
TYPE F F F F
COUNT 1 1 1 1
WIDTH 991
HEIGHT 1
VIEWPOINT 0 0 0 1 0 0 0
POINTS 991
DATA ascii
0.87307894 0.021632206 0.095757775 7.7574832e-39
0.87307894 0.021632206 0.098257773 5.0866938e-39
0.87307894 0.026632207 0.090757772 4.3451491e-39
0.87307894 0.026632207 0.09325777 3.7019475e-39
0.87307894 0.029132206 0.090757772 5.7183221e-39
0.87307894 0.029132206 0.09325777 5.5360916e-39
0.87057894 0.031632207 0.080757774 1.1801783e-38
0.87307894 0.031632207 0.080757774 1.1986173e-38
0.87307894 0.031632207 0.083257772 1.2170564e-38
0.87307894 0.031632207 0.08575777 1.5114318e-38
0.87307894 0.0041322061 0.10075777 5.0877938e-39
0.87307894 0.006632206 0.10075777 5.4562176e-39
0.87307894 0.0091322064 0.10075777 5.5484034e-39
0.86807895 0.011632206 0.10075777 5.9164783e-39
0.86807895 0.011632206 0.10325778 6.0990535e-39
0.87307894 0.011632206 0.10075777 6.1915994e-39
0.87307894 0.011632206 0.10325778 4.4377371e-39
0.87307894 0.014132206 0.10075777 5.8202988e-39
0.87307894 0.014132206 0.10325778 4.0678784e-39
0.87307894 0.016632207 0.10075777 5.267125e-39
0.87307894 0.016632207 0.10325778 2.8722246e-39
0.87307894 0.019132206 0.10325778 2.5956392e-39
0.87307894 0.016632207 0.10825777 2.7814611e-39
0.87307894 0.019132206 0.10825777 2.5967112e-39
0.87307894 0.016632207 0.11075778 3.2399128e-39
0.87307894 0.019132206 0.11075778 3.1477171e-39
0.87307894 0.021632206 0.10325778 3.7912747e-39
0.87307894 0.024132205 0.10325778 5.456205e-39
0.87307894 0.021632206 0.10825777 3.1484388e-39
0.87307894 0.024132205 0.10825777 4.6257185e-39
0.87307894 0.026632207 0.10325778 5.9088763e-39
0.87307894 0.029132206 0.10325778 7.2918107e-39
0.87307894 0.021632206 0.11075778 3.5150549e-39
0.87307894 0.024132205 0.11075778 4.5317264e-39
0.87557894 -0.085867792 0.11575777 4.3440925e-39
0.87557894 -0.090867795 0.12075777 5.3607303e-39
0.87557894 -0.090867795 0.12325777 9.966556e-39
0.87557894 -0.088367797 0.12075777 3.0583759e-39
0.87557894 -0.088367797 0.12325777 8.3967219e-39
0.87557894 -0.085867792 0.12075777 4.1618466e-39
0.87557894 -0.043367796 0.068257771 3.8784074e-39
0.87557894 -0.040867794 0.068257771 3.6950951e-39
0.87557894 -0.038367793 0.068257771 3.4195971e-39
0.87557894 -0.035867795 0.068257771 3.2352016e-39
0.87807894 -0.038367793 0.065757774 3.6028995e-39
0.87807894 -0.035867795 0.065757774 3.5103437e-39
0.87807894 -0.035867795 0.068257771 2.7778038e-39
0.87557894 -0.033367794 0.068257771 3.3277517e-39
0.87557894 -0.030867795 0.068257771 3.4181509e-39
0.87807894 -0.033367794 0.065757774 3.5110528e-39
0.87807894 -0.033367794 0.068257771 3.4206564e-39
0.87807894 -0.030867795 0.065757774 3.4184984e-39
0.87807894 -0.030867795 0.068257771 3.4199474e-39
0.88057894 -0.030867795 0.065757774 2.9621964e-39
0.88057894 -0.030867795 0.068257771 3.0540417e-39
0.87807894 -0.033367794 0.070757776 3.2380756e-39
0.87807894 -0.030867795 0.070757776 3.5125017e-39
0.87557894 -0.028367793 0.068257771 3.5110528e-39
0.87557894 -0.025867794 0.068257771 3.1437122e-39
0.87807894 -0.028367793 0.065757774 3.3266587e-39
0.87807894 -0.028367793 0.068257771 2.7770947e-39
0.87557894 -0.023367794 0.068257771 3.3255994e-39
0.87557894 -0.020867795 0.068257771 2.957177e-39
0.88057894 -0.028367793 0.065757774 2.7778038e-39
0.88057894 -0.028367793 0.068257771 3.4199474e-39
0.87807894 -0.028367793 0.070757776 2.7770947e-39
0.87557894 -0.033367794 0.090757772 7.4845117e-39
0.87557894 -0.030867795 0.090757772 7.6689029e-39
0.87557894 -0.018367793 0.068257771 2.7731346e-39
0.87557894 -0.015867794 0.068257771 2.8656834e-39
0.87557894 -0.013367794 0.068257771 2.773129e-39
0.87557894 -0.010867794 0.068257771 3.3263028e-39
0.87807894 -0.013367794 0.065757774 2.6812893e-39
0.87807894 -0.010867794 0.065757774 3.5985765e-39
0.87557894 -0.0083677936 0.068257771 3.4188544e-39
0.87557894 -0.0058677942 0.068257771 2.9578776e-39
0.87807894 -0.0083677936 0.065757774 3.2312205e-39
0.87807894 -0.0083677936 0.068257771 3.0500732e-39
0.87807894 -0.0058677942 0.065757774 3.2301485e-39
0.87807894 -0.0058677942 0.068257771 3.0500732e-39
0.87557894 -0.003367794 0.068257771 3.5067312e-39
0.87807894 -0.003367794 0.065757774 2.7705983e-39
0.87807894 -0.003367794 0.068257771 3.0500732e-39
0.87807894 -0.00086779404 0.065757774 3.0471768e-39
0.87807894 -0.00086779404 0.068257771 3.5992799e-39
0.87557894 -0.0083677936 0.073257774 3.143006e-39
0.87557894 -0.0058677942 0.073257774 2.9603971e-39
0.87807894 -0.0083677936 0.070757776 3.235905e-39
0.87807894 -0.0058677942 0.070757776 3.4188544e-39
0.87557894 -0.003367794 0.073257774 3.1422745e-39
0.87557894 -0.00086779404 0.073257774 3.3263028e-39
0.87807894 -0.003367794 0.070757776 3.51105e-39
0.87807894 -0.003367794 0.073257774 3.4188544e-39
0.87807894 -0.00086779404 0.070757776 3.4188544e-39
0.87557894 -0.003367794 0.095757775 8.2199243e-39
0.87557894 -0.00086779404 0.095757775 8.2199243e-39
0.87807894 -0.003367794 0.095757775 5.3625829e-39
0.87807894 -0.00086779404 0.095757775 5.2703872e-39
0.87557894 0.0041322061 0.068257771 3.7840285e-39
0.87807894 0.001632206 0.065757774 3.0460908e-39
0.87807894 0.001632206 0.068257771 3.0504264e-39
0.87807894 0.0041322061 0.068257771 3.3266531e-39
0.87557894 0.006632206 0.068257771 3.7840285e-39
0.87807894 0.006632206 0.068257771 3.0504292e-39
0.87807894 0.0091322064 0.068257771 3.7836726e-39
0.88057894 0.0041322061 0.065757774 3.4159677e-39
0.88057894 0.0091322064 0.065757774 3.1426248e-39
0.88057894 0.0091322064 0.068257771 3.4188544e-39
0.87557894 0.001632206 0.073257774 2.9603971e-39
0.87807894 0.001632206 0.070757776 3.4188544e-39
0.87557894 0.0091322064 0.073257774 2.8682015e-39
0.87807894 0.0091322064 0.070757776 3.4188544e-39
0.88057894 0.011632206 0.065757774 3.0504292e-39
0.88057894 0.011632206 0.068257771 3.4188544e-39
0.88307893 0.011632206 0.068257771 3.3266587e-39
0.88307893 0.014132206 0.068257771 3.4188544e-39
0.88307893 0.016632207 0.068257771 3.4192075e-39
0.88307893 0.019132206 0.068257771 3.1426248e-39
0.87557894 0.011632206 0.073257774 3.5110528e-39
0.87807894 0.011632206 0.073257774 3.5110528e-39
0.87807894 0.014132206 0.073257774 3.6032498e-39
0.87557894 0.014132206 0.075757772 4.1549943e-39
0.87557894 0.014132206 0.078257769 4.2500612e-39
0.87807894 0.016632207 0.073257774 4.0627987e-39
0.87807894 0.019132206 0.073257774 3.5114003e-39
0.87557894 0.016632207 0.075757772 3.4199474e-39
0.87557894 0.016632207 0.078257769 4.2500612e-39
0.87557894 0.019132206 0.075757772 3.9723785e-39
0.87557894 0.019132206 0.078257769 4.341168e-39
0.88057894 0.016632207 0.070757776 3.5110528e-39
0.88057894 0.019132206 0.070757776 4.7059806e-39
0.88557893 0.011632206 0.065757774 2.9578776e-39
0.88557893 0.014132206 0.065757774 3.0500732e-39
0.88557893 0.016632207 0.065757774 4.1521034e-39
0.88557893 0.019132206 0.065757774 4.4272484e-39
0.87557894 0.001632206 0.095757775 5.5476944e-39
0.87807894 0.001632206 0.095757775 6.5589722e-39
0.87807894 0.001632206 0.098257773 3.6159078e-39
0.87807894 0.0041322061 0.098257773 4.9955982e-39
0.87557894 0.006632206 0.095757775 6.1916176e-39
0.87807894 0.006632206 0.098257773 5.4562176e-39
0.88057894 0.001632206 0.095757775 4.442793e-39
0.88057894 0.001632206 0.098257773 4.9033998e-39
0.88057894 0.0041322061 0.095757775 4.7200875e-39
0.88057894 0.0041322061 0.098257773 4.9948765e-39
0.88057894 0.006632206 0.095757775 5.1803566e-39
0.88057894 0.006632206 0.098257773 5.3632989e-39
0.87557894 0.016632207 0.088257775 4.2522444e-39
0.87557894 0.019132206 0.088257775 4.5284613e-39
0.87557894 0.014132206 0.09325777 6.198442e-39
0.87557894 0.014132206 0.095757775 8.6801808e-39
0.87807894 0.011632206 0.098257773 5.639869e-39
0.87807894 0.014132206 0.098257773 5.9121413e-39
0.87557894 0.016632207 0.09325777 7.1171543e-39
0.87557894 0.019132206 0.09325777 6.8416408e-39
0.87557894 0.016632207 0.095757775 7.6681967e-39
0.87557894 0.019132206 0.095757775 8.3106752e-39
0.87807894 0.016632207 0.098257773 5.0823806e-39
0.87807894 0.019132206 0.098257773 5.2671376e-39
0.88057894 0.014132206 0.098257773 3.6101428e-39
0.88307893 0.011632206 0.098257773 4.901232e-39
0.88307893 0.014132206 0.098257773 2.9651237e-39
0.88557893 0.014132206 0.098257773 2.7818241e-39
0.89057893 0.014132206 0.098257773 2.4141178e-39
0.89057893 0.016632207 0.098257773 3.2402687e-39
0.87807894 0.026632207 0.068257771 2.8591786e-39
0.88057894 0.021632206 0.068257771 3.9665771e-39
0.88057894 0.024132205 0.065757774 2.9484623e-39
0.88057894 0.024132205 0.068257771 3.3179861e-39
0.88307893 0.021632206 0.068257771 3.7836726e-39
0.88057894 0.026632207 0.065757774 3.2254429e-39
0.88057894 0.026632207 0.068257771 2.1277078e-39
0.88057894 0.029132206 0.065757774 4.5161818e-39
0.88057894 0.029132206 0.068257771 2.4889261e-39
0.88307893 0.029132206 0.068257771 2.0351534e-39
0.87557894 0.021632206 0.073257774 4.9775074e-39
0.87557894 0.024132205 0.073257774 3.5027375e-39
0.87807894 0.021632206 0.073257774 4.8903719e-39
0.87807894 0.024132205 0.070757776 2.125191e-39
0.87557894 0.021632206 0.075757772 3.9727316e-39
0.87557894 0.021632206 0.078257769 4.2503919e-39
0.87557894 0.024132205 0.078257769 3.4213697e-39
0.87557894 0.026632207 0.073257774 3.5052542e-39
0.87557894 0.029132206 0.073257774 4.4246868e-39
0.87807894 0.026632207 0.070757776 6.5870557e-40
0.87807894 0.026632207 0.073257774 2.8617121e-39
0.87807894 0.029132206 0.073257774 4.3324855e-39
0.87557894 0.026632207 0.078257769 4.5287963e-39
0.87557894 0.029132206 0.078257769 5.8094331e-39
0.88057894 0.029132206 0.070757776 4.2417403e-39
0.87557894 0.031632207 0.078257769 1.4655508e-38
0.88557893 0.021632206 0.065757774 4.0584672e-39
0.88557893 0.024132205 0.065757774 4.1481069e-39
0.87557894 0.021632206 0.088257775 4.7128554e-39
0.87557894 0.024132205 0.088257775 4.8050524e-39
0.87557894 0.029132206 0.083257772 6.2700469e-39
0.87557894 0.026632207 0.088257775 4.2529535e-39
0.87557894 0.029132206 0.088257775 5.8094331e-39
0.87557894 0.021632206 0.09325777 6.6536496e-39
0.87557894 0.024132205 0.090757772 4.5299103e-39
0.87557894 0.024132205 0.09325777 5.1788796e-39
0.87807894 0.024132205 0.09325777 6.0954381e-39
0.87557894 0.021632206 0.095757775 7.5741639e-39
0.87557894 0.024132205 0.095757775 6.9277225e-39
0.87807894 0.021632206 0.098257773 5.1763741e-39
0.87807894 0.024132205 0.095757775 5.6412997e-39
0.87807894 0.024132205 0.098257773 5.8235428e-39
0.87557894 0.026632207 0.090757772 3.4250145e-39
0.87557894 0.026632207 0.09325777 4.253329e-39
0.87557894 0.029132206 0.090757772 5.7179662e-39
0.87557894 0.029132206 0.09325777 5.5357385e-39
0.87807894 0.026632207 0.09325777 4.6203066e-39
0.87807894 0.029132206 0.09325777 1.0330271e-38
0.87557894 0.026632207 0.095757775 3.7977585e-39
0.87557894 0.029132206 0.095757775 5.3527948e-39
0.87807894 0.026632207 0.095757775 4.9959303e-39
0.87807894 0.026632207 0.098257773 5.3632835e-39
0.87807894 0.029132206 0.095757775 9.2264574e-39
0.87807894 0.029132206 0.098257773 6.2765672e-39
0.88057894 0.029132206 0.095757775 6.8293738e-39
0.87557894 0.031632207 0.083257772 1.2078013e-38
0.87557894 0.034132205 0.083257772 1.6406859e-38
0.87557894 0.031632207 0.08575777 1.4839903e-38
0.87557894 0.031632207 0.088257775 1.5021754e-38
0.87557894 0.034132205 0.08575777 1.6314295e-38
0.87557894 0.034132205 0.088257775 1.677421e-38
0.87807894 0.031632207 0.088257775 1.493065e-38
0.87807894 0.034132205 0.08575777 1.6865667e-38
0.87807894 0.034132205 0.088257775 1.6683449e-38
0.87807894 0.036632206 0.08575777 1.7693276e-38
0.88057894 0.034132205 0.083257772 1.677421e-38
0.88057894 0.034132205 0.088257775 1.6959314e-38
0.88307893 0.034132205 0.08575777 1.6959674e-38
0.88057894 0.036632206 0.083257772 1.7418471e-38
0.88057894 0.036632206 0.088257775 1.8061336e-38
0.88307893 0.036632206 0.08575777 1.7970572e-38
0.87557894 0.031632207 0.090757772 1.5022497e-38
0.87807894 0.031632207 0.090757772 1.5114671e-38
0.87807894 0.031632207 0.09325777 1.4562594e-38
0.87807894 0.034132205 0.090757772 1.7327386e-38
0.87807894 0.034132205 0.09325777 1.6961478e-38
0.87557894 0.031632207 0.095757775 1.3919377e-38
0.87807894 0.031632207 0.095757775 1.3919377e-38
0.87807894 0.031632207 0.098257773 1.4010845e-38
0.87807894 0.034132205 0.095757775 1.742245e-38
0.87807894 0.034132205 0.098257773 1.7974541e-38
0.88057894 0.034132205 0.09325777 1.7512131e-38
0.88057894 0.031632207 0.095757775 1.4010492e-38
0.88057894 0.031632207 0.098257773 1.3734981e-38
0.88057894 0.034132205 0.095757775 1.7974905e-38
0.88057894 0.034132205 0.098257773 1.8160371e-38
0.88307893 0.034132205 0.098257773 1.7792665e-38
0.88057894 0.036632206 0.09325777 1.9536819e-38
0.88307893 0.036632206 0.09325777 1.9811961e-38
0.88057894 0.036632206 0.095757775 1.9629724e-38
0.88057894 0.036632206 0.098257773 1.9354596e-38
0.88307893 0.036632206 0.098257773 1.9538624e-38
0.88307893 0.039132208 0.098257773 2.0644614e-38
0.88557893 0.036632206 0.095757775 1.999815e-38
0.87557894 0.001632206 0.10075777 3.8914156e-39
0.87557894 0.0091322064 0.10075777 4.9955954e-39
0.87557894 0.011632206 0.10075777 5.1763867e-39
0.87557894 0.011632206 0.10325778 3.4250299e-39
0.87557894 0.014132206 0.10075777 4.0678756e-39
0.87557894 0.014132206 0.10325778 3.3321084e-39
0.87807894 0.011632206 0.10075777 4.9934248e-39
0.87807894 0.014132206 0.10075777 3.2395624e-39
0.87557894 0.016632207 0.10075777 3.3303133e-39
0.87557894 0.016632207 0.10325778 3.1477171e-39
0.87557894 0.019132206 0.10075777 4.9919828e-39
0.87557894 0.019132206 0.10325778 2.5041624e-39
0.87807894 0.016632207 0.10075777 3.1477171e-39
0.87807894 0.019132206 0.10075777 3.5150605e-39
0.87807894 0.019132206 0.10325778 2.9651237e-39
0.87557894 0.016632207 0.10575777 3.5179318e-39
0.87557894 0.016632207 0.10825777 2.8718533e-39
0.87557894 0.019132206 0.10575777 3.3317609e-39
0.87557894 0.019132206 0.10825777 2.5967112e-39
0.87807894 0.016632207 0.10575777 2.9647706e-39
0.87807894 0.019132206 0.10575777 2.9647706e-39
0.88057894 0.011632206 0.10075777 5.0856246e-39
0.88057894 0.011632206 0.10325778 3.4250271e-39
0.88057894 0.014132206 0.10075777 3.0573194e-39
0.88057894 0.014132206 0.10325778 3.425383e-39
0.88307893 0.014132206 0.10075777 2.8743714e-39
0.88057894 0.016632207 0.10075777 3.3317581e-39
0.88057894 0.016632207 0.10325778 3.425383e-39
0.88057894 0.019132206 0.10075777 2.9640517e-39
0.88057894 0.019132206 0.10325778 3.2417148e-39
0.88307893 0.016632207 0.10075777 2.8743714e-39
0.88307893 0.016632207 0.10325778 3.1477171e-39
0.88307893 0.019132206 0.10075777 2.9640545e-39
0.88307893 0.019132206 0.10325778 2.5967112e-39
0.87557894 0.019132206 0.11075778 2.5970643e-39
0.87557894 0.019132206 0.11325777 2.229002e-39
0.87807894 0.019132206 0.11075778 2.6892599e-39
0.88557893 0.011632206 0.10075777 4.8090335e-39
0.88557893 0.011632206 0.10325778 3.9800015e-39
0.88557893 0.014132206 0.10075777 3.1495164e-39
0.88557893 0.014132206 0.10325778 2.5045127e-39
0.88807893 0.011632206 0.10075777 3.8885192e-39
0.88807893 0.014132206 0.10075777 2.9651237e-39
0.88557893 0.016632207 0.10075777 3.0573194e-39
0.88557893 0.016632207 0.10325778 2.9651237e-39
0.88557893 0.019132206 0.10075777 2.7814611e-39
0.88807893 0.016632207 0.10075777 3.0573194e-39
0.89057893 0.014132206 0.10075777 2.5970671e-39
0.89057893 0.016632207 0.10075777 2.5970615e-39
0.89307892 0.016632207 0.10325778 2.5970643e-39
0.87557894 0.0091322064 0.13325778 1.3952771e-39
0.87557894 0.0091322064 0.13575777 1.1197664e-39
0.88057894 0.0091322064 0.13575777 1.0275708e-39
0.88307893 0.0091322064 0.13575777 5.6911075e-40
0.87807894 0.011632206 0.13325778 9.3681987e-40
0.88307893 0.011632206 0.13325778 1.4874699e-39
0.88307893 0.011632206 0.13575777 7.5350201e-40
0.88557893 0.0091322064 0.13825777 1.0275652e-39
0.88557893 0.011632206 0.13325778 1.4874699e-39
0.88557893 0.014132206 0.13075778 1.3952743e-39
0.88557893 0.014132206 0.13325778 1.5796655e-39
0.88807893 0.014132206 0.13325778 7.5350201e-40
0.88557893 0.011632206 0.13825777 1.2123151e-39
0.88807893 0.011632206 0.13575777 1.2112404e-39
0.88807893 0.011632206 0.13825777 1.3952743e-39
0.88807893 0.014132206 0.13575777 8.4605637e-40
0.88807893 0.014132206 0.13825777 1.4874699e-39
0.88557893 0.016632207 0.13325778 1.027568e-39
0.88807893 0.016632207 0.13075778 1.5796655e-39
0.88807893 0.016632207 0.13325778 1.1215643e-39
0.89057893 0.011632206 0.13575777 1.1194105e-39
0.89057893 0.011632206 0.13825777 1.3952743e-39
0.89057893 0.014132206 0.13575777 1.3952771e-39
0.89057893 0.014132206 0.13825777 1.21089e-39
0.89057893 0.016632207 0.13075778 1.5800215e-39
0.89057893 0.016632207 0.13325778 1.3045136e-39
0.89057893 0.019132206 0.13075778 1.4874699e-39
0.89057893 0.019132206 0.13325778 2.010527e-40
0.89307892 0.016632207 0.13075778 1.4874699e-39
0.89307892 0.019132206 0.13075778 1.3952743e-39
0.89057893 0.016632207 0.13575777 1.4874699e-39
0.89057893 0.016632207 0.13825777 1.21089e-39
0.89307892 0.016632207 0.13575777 1.5800215e-39
0.87557894 0.021632206 0.10075777 4.9937807e-39
0.87557894 0.021632206 0.10325778 3.1487891e-39
0.87557894 0.024132205 0.10325778 6.3727523e-39
0.87807894 0.021632206 0.10075777 3.4264522e-39
0.87807894 0.021632206 0.10325778 2.8743742e-39
0.87807894 0.024132205 0.10075777 5.8235428e-39
0.87807894 0.024132205 0.10325778 4.1651103e-39
0.87557894 0.021632206 0.10575777 2.7821744e-39
0.87557894 0.021632206 0.10825777 2.8729281e-39
0.87557894 0.024132205 0.10575777 4.9037375e-39
0.87557894 0.024132205 0.10825777 4.257659e-39
0.87807894 0.021632206 0.10575777 3.0562277e-39
0.87807894 0.024132205 0.10575777 6.0025348e-39
0.87557894 0.026632207 0.10325778 5.3632835e-39
0.87557894 0.029132206 0.10325778 6.2769385e-39
0.87807894 0.026632207 0.10075777 5.4558351e-39
0.87807894 0.026632207 0.10325778 5.3625604e-39
0.87807894 0.029132206 0.10075777 6.4609612e-39
0.87807894 0.029132206 0.10325778 5.1724056e-39
0.87557894 0.026632207 0.10575777 5.6326607e-39
0.87557894 0.026632207 0.10825777 4.6228472e-39
0.87557894 0.029132206 0.10575777 6.3705859e-39
0.87557894 0.029132206 0.10825777 3.3349852e-39
0.87807894 0.026632207 0.10575777 4.9037375e-39
0.87807894 0.029132206 0.10575777 4.713954e-39
0.88057894 0.021632206 0.10075777 3.7912718e-39
0.88057894 0.021632206 0.10325778 3.6079764e-39
0.88057894 0.024132205 0.10325778 5.2667873e-39
0.88307893 0.021632206 0.10075777 3.2424309e-39
0.88057894 0.021632206 0.10825777 3.5161297e-39
0.88057894 0.024132205 0.10825777 4.4380874e-39
0.88057894 0.026632207 0.10325778 5.5462356e-39
0.88057894 0.026632207 0.10825777 3.7974053e-39
0.88057894 0.029132206 0.10825777 2.5995824e-39
0.87557894 0.021632206 0.11075778 3.3317328e-39
0.87557894 0.021632206 0.11325777 3.1487891e-39
0.87557894 0.024132205 0.11325777 3.9774778e-39
0.87807894 0.021632206 0.11075778 3.1480674e-39
0.87807894 0.021632206 0.11325777 2.8729281e-39
0.87807894 0.024132205 0.11075778 3.7974053e-39
0.87807894 0.024132205 0.11325777 2.876891e-39
0.87807894 0.021632206 0.11575777 2.6896158e-39
0.87807894 0.021632206 0.11825778 2.5956181e-39
0.87807894 0.024132205 0.11575777 3.2424309e-39
0.87807894 0.024132205 0.11825778 3.0576725e-39
0.87557894 0.026632207 0.11325777 2.9669258e-39
0.87807894 0.026632207 0.11075778 3.6126581e-39
0.87807894 0.026632207 0.11325777 2.5985118e-39
0.87807894 0.029132206 0.11075778 1.4921615e-39
0.87807894 0.029132206 0.11325777 9.4006668e-40
0.87807894 0.026632207 0.11575777 3.1502353e-39
0.88057894 0.021632206 0.11075778 2.6899788e-39
0.88057894 0.021632206 0.11325777 2.6896158e-39
0.88057894 0.024132205 0.11075778 2.9669258e-39
0.88057894 0.024132205 0.11325777 3.7934425e-39
0.88307893 0.024132205 0.11325777 2.9651237e-39
0.88057894 0.021632206 0.11575777 2.2293552e-39
0.88057894 0.021632206 0.11825778 2.2293552e-39
0.88057894 0.024132205 0.11575777 3.5179262e-39
0.88057894 0.024132205 0.11825778 3.0576725e-39
0.88307893 0.024132205 0.11825778 2.7814331e-39
0.88057894 0.026632207 0.11075778 4.0714713e-39
0.88057894 0.026632207 0.11325777 2.3215564e-39
0.88057894 0.029132206 0.11075778 2.598509e-39
0.88057894 0.029132206 0.11325777 9.4006668e-40
0.88307893 0.026632207 0.11325777 3.5175786e-39
0.88307893 0.029132206 0.11325777 2.1386099e-39
0.88057894 0.026632207 0.11575777 3.1498723e-39
0.88057894 0.026632207 0.11825778 3.1498695e-39
0.88057894 0.029132206 0.11575777 8.4571725e-40
0.88057894 0.029132206 0.11825778 1.3956512e-39
0.88307893 0.026632207 0.11825778 3.1505744e-39
0.88307893 0.029132206 0.11825778 1.6751066e-39
0.87557894 0.031632207 0.10325778 1.3918646e-38
0.87807894 0.031632207 0.10075777 1.3459826e-38
0.87807894 0.031632207 0.10325778 1.3182163e-38
0.87807894 0.034132205 0.10075777 1.8528428e-38
0.87807894 0.034132205 0.10325778 1.9081249e-38
0.87557894 0.031632207 0.10575777 1.2811953e-38
0.87557894 0.031632207 0.10825777 1.2074751e-38
0.87807894 0.031632207 0.10575777 1.2812306e-38
0.87807894 0.034132205 0.10575777 1.9081249e-38
0.88057894 0.031632207 0.10325778 1.2814467e-38
0.88057894 0.034132205 0.10075777 1.8528431e-38
0.88057894 0.034132205 0.10325778 1.8805738e-38
0.88307893 0.034132205 0.10075777 1.8529874e-38
0.88307893 0.034132205 0.10325778 1.91738e-38
0.88057894 0.031632207 0.10575777 1.1983984e-38
0.88057894 0.031632207 0.10825777 1.1521933e-38
0.88057894 0.034132205 0.10575777 1.9083051e-38
0.88057894 0.034132205 0.10825777 1.9542237e-38
0.88307893 0.031632207 0.10825777 1.1429732e-38
0.88307893 0.034132205 0.10825777 1.954294e-38
0.88057894 0.036632206 0.10075777 1.9630464e-38
0.88307893 0.036632206 0.10075777 2.0276552e-38
0.88307893 0.036632206 0.10325778 2.0644614e-38
0.87557894 0.031632207 0.11325777 1.9635854e-38
0.87557894 0.034132205 0.11325777 2.1843152e-38
0.87807894 0.031632207 0.11075778 1.0047876e-38
0.87807894 0.031632207 0.11325777 9.2177511e-39
0.87807894 0.034132205 0.11075778 1.9359993e-38
0.87807894 0.034132205 0.11325777 1.9635499e-38
0.87807894 0.031632207 0.11575777 2.009648e-38
0.87807894 0.034132205 0.11575777 2.1752041e-38
0.88057894 0.031632207 0.11075778 1.032374e-38
0.88057894 0.031632207 0.11325777 9.2170421e-39
0.88057894 0.034132205 0.11075778 1.9543659e-38
0.88057894 0.034132205 0.11325777 2.0003931e-38
0.88307893 0.031632207 0.11325777 9.4010634e-39
0.88307893 0.034132205 0.11325777 2.1659486e-38
0.88057894 0.031632207 0.11575777 9.4003571e-39
0.88057894 0.031632207 0.11825778 9.3071077e-39
0.88057894 0.034132205 0.11575777 2.0187606e-38
0.88057894 0.034132205 0.11825778 2.0740795e-38
0.88307893 0.031632207 0.11825778 8.5723537e-39
0.88307893 0.034132205 0.11825778 1.8068864e-38
0.88057894 0.036632206 0.11825778 2.1381082e-38
0.88307893 0.036632206 0.11825778 1.7418455e-38
0.88557893 0.024132205 0.11075778 2.9651209e-39
0.88557893 0.024132205 0.11325777 2.5974174e-39
0.88557893 0.024132205 0.11575777 3.0573166e-39
0.88557893 0.024132205 0.11825778 2.964758e-39
0.88557893 0.026632207 0.11575777 3.0573166e-39
0.88557893 0.026632207 0.11825778 2.964758e-39
0.88557893 0.029132206 0.11575777 2.594193e-39
0.88557893 0.029132206 0.11825778 2.320476e-39
0.88807893 0.029132206 0.11575777 1.6722311e-39
0.89057893 0.024132205 0.11575777 2.6881627e-39
0.89307892 0.024132205 0.11575777 2.3201074e-39
0.89307892 0.024132205 0.11825778 2.6888703e-39
0.88557893 0.036632206 0.10075777 2.0274754e-38
0.88557893 0.036632206 0.10325778 2.1198136e-38
0.88557893 0.039132208 0.10075777 2.0643893e-38
0.88807893 0.034132205 0.11325777 2.3129928e-38
0.88557893 0.031632207 0.11575777 9.4925696e-39
0.88557893 0.031632207 0.11825778 8.8489462e-39
0.88557893 0.034132205 0.11575777 2.0647172e-38
0.88557893 0.034132205 0.11825778 1.990523e-38
0.88807893 0.031632207 0.11575777 8.295771e-39
0.88807893 0.034132205 0.11575777 1.7607888e-38
0.88807893 0.034132205 0.11825778 6.5411659e-39
0.88807893 0.036632206 0.11325777 2.1839189e-38
0.88557893 0.036632206 0.11575777 2.1931022e-38
0.88557893 0.036632206 0.11825778 1.7876925e-38
0.88807893 0.036632206 0.11575777 1.769361e-38
0.88807893 0.036632206 0.11825778 5.4348184e-39
0.89057893 0.034132205 0.11825778 6.6362875e-39
0.89057893 0.036632206 0.11325777 2.2945897e-38
0.89057893 0.036632206 0.11575777 1.9720835e-38
0.89057893 0.036632206 0.11825778 6.4497508e-39
0.89307892 0.036632206 0.11825778 6.7263307e-39
0.88057894 0.029132206 0.12325777 3.2416854e-39
0.88307893 0.026632207 0.12075777 2.966546e-39
0.88307893 0.029132206 0.12075777 2.322257e-39
0.88307893 0.029132206 0.12325777 3.7926914e-39
0.88057894 0.031632207 0.12325777 4.7066785e-39
0.88307893 0.031632207 0.12075777 4.0628015e-39
0.88307893 0.031632207 0.12325777 5.8115841e-39
0.88307893 0.034132205 0.12075777 4.4312252e-39
0.88307893 0.036632206 0.12075777 4.6075758e-39
0.88557893 0.024132205 0.12075777 3.0540725e-39
0.88557893 0.026632207 0.12075777 2.9651083e-39
0.88557893 0.026632207 0.12325777 3.0555061e-39
0.88557893 0.029132206 0.12075777 3.6083099e-39
0.88557893 0.029132206 0.12325777 4.0674832e-39
0.88807893 0.026632207 0.12075777 3.3320888e-39
0.88807893 0.026632207 0.12325777 3.4239187e-39
0.88807893 0.029132206 0.12075777 2.7828624e-39
0.88807893 0.029132206 0.12325777 2.7799912e-39
0.88807893 0.026632207 0.12575777 5.0816575e-39
0.88807893 0.026632207 0.12825777 7.0163182e-39
0.88807893 0.029132206 0.12575777 4.8950957e-39
0.88807893 0.029132206 0.12825777 7.0163182e-39
0.89057893 0.024132205 0.12075777 2.5026826e-39
0.89307892 0.024132205 0.12325777 3.2362876e-39
0.89307892 0.021632206 0.12575777 1.0290295e-39
0.89307892 0.024132205 0.12575777 6.6130918e-40
0.89057893 0.026632207 0.12325777 4.8061468e-39
0.89057893 0.029132206 0.12325777 4.9876612e-39
0.89307892 0.026632207 0.12325777 5.3575186e-39
0.89307892 0.029132206 0.12325777 4.5291872e-39
0.89057893 0.026632207 0.12575777 6.7400901e-39
0.89057893 0.026632207 0.12825777 6.5574981e-39
0.89057893 0.029132206 0.12575777 6.5553457e-39
0.89057893 0.029132206 0.12825777 7.4812452e-39
0.89307892 0.026632207 0.12575777 7.1081481e-39
0.89307892 0.029132206 0.12575777 7.0159553e-39
0.89057893 0.029132206 0.13075778 7.3872461e-39
0.88557893 0.031632207 0.12075777 4.615915e-39
0.88557893 0.031632207 0.12325777 5.7193885e-39
0.88557893 0.034132205 0.12075777 4.5237193e-39
0.88557893 0.034132205 0.12325777 6.7339005e-39
0.88807893 0.031632207 0.12325777 5.8112338e-39
0.88807893 0.034132205 0.12075777 5.3509591e-39
0.88807893 0.034132205 0.12325777 6.4594772e-39
0.88557893 0.031632207 0.12825777 7.2907023e-39
0.88557893 0.034132205 0.12825777 7.2849065e-39
0.88807893 0.031632207 0.12575777 5.9055972e-39
0.88807893 0.031632207 0.12825777 7.2910554e-39
0.88807893 0.034132205 0.12575777 6.458771e-39
0.88807893 0.034132205 0.12825777 5.7233696e-39
0.88557893 0.036632206 0.12075777 6.2671546e-39
0.88557893 0.039132208 0.12075777 6.7263307e-39
0.88807893 0.036632206 0.12075777 8.2947326e-39
0.88807893 0.036632206 0.12825777 7.4671496e-39
0.89057893 0.031632207 0.12325777 5.5400545e-39
0.89057893 0.034132205 0.12325777 5.3556632e-39
0.89057893 0.031632207 0.12575777 7.383251e-39
0.89057893 0.031632207 0.12825777 6.9247938e-39
0.89057893 0.034132205 0.12575777 5.7233696e-39
0.89057893 0.034132205 0.12825777 4.89649e-39
0.89307892 0.034132205 0.12575777 6.0903766e-39
0.88557893 0.031632207 0.13075778 6.7396991e-39
0.88557893 0.034132205 0.13075778 7.6515282e-39
0.89057893 0.031632207 0.13075778 6.5546016e-39
0.89057893 0.034132205 0.13075778 5.5404497e-39
0.89057893 0.036632206 0.13075778 7.4671496e-39
0.89557892 0.016632207 0.12825777 1.4878258e-39
0.89557892 0.019132206 0.12575777 1.5796655e-39
0.89557892 0.019132206 0.12825777 1.5789467e-39
0.89807898 0.019132206 0.12575777 1.7633365e-39
0.89807898 0.019132206 0.12825777 1.9477292e-39
0.90057898 0.019132206 0.12825777 9.3502201e-40
0.89557892 0.011632206 0.13325778 1.2123151e-39
0.89557892 0.014132206 0.13325778 1.6722185e-39
0.89557892 0.011632206 0.13575777 1.0275708e-39
0.89557892 0.014132206 0.13575777 1.4878258e-39
0.89557892 0.016632207 0.13325778 8.464193e-40
0.89557892 0.019132206 0.13325778 7.5098948e-40
0.89807898 0.016632207 0.13075778 1.4874699e-39
0.89807898 0.016632207 0.13325778 1.5800215e-39
0.89807898 0.019132206 0.13075778 1.0290155e-39
0.89807898 0.019132206 0.13325778 8.4570324e-40
0.89557892 0.016632207 0.13575777 1.4878258e-39
0.90307897 0.014132206 0.13325778 1.5800215e-39
0.90057898 0.016632207 0.13325778 1.4874699e-39
0.90057898 0.019132206 0.13075778 2.010527e-40
0.90057898 0.019132206 0.13325778 5.7055549e-40
0.90307897 0.016632207 0.13075778 1.5800215e-39
0.90307897 0.016632207 0.13325778 1.3952771e-39
0.90307897 0.019132206 0.13075778 8.4642211e-40
0.90307897 0.019132206 0.13325778 9.37173e-40
0.90557897 0.019132206 0.12825777 5.6731428e-40
0.90807897 0.019132206 0.12825777 7.5387335e-40
0.91057897 0.019132206 0.12825777 9.3826601e-40
0.91307896 0.019132206 0.12825777 1.3952743e-39
0.90557897 0.019132206 0.13075778 1.5945375e-41
0.89557892 0.021632206 0.11825778 1.7676511e-39
0.89557892 0.024132205 0.11575777 1.8598468e-39
0.89557892 0.024132205 0.11825778 2.5019792e-39
0.89807898 0.024132205 0.11575777 2.5019792e-39
0.89807898 0.026632207 0.11575777 2.6867194e-39
0.89557892 0.021632206 0.12075777 2.1339253e-39
0.89557892 0.021632206 0.12325777 1.4914258e-39
0.89557892 0.024132205 0.12075777 1.8569783e-39
0.89557892 0.024132205 0.12325777 5.6911075e-40
0.89807898 0.021632206 0.12075777 1.8580475e-39
0.89807898 0.021632206 0.12325777 9.3896946e-40
0.89807898 0.024132205 0.12075777 1.8580475e-39
0.89807898 0.024132205 0.12325777 9.3681707e-40
0.89557892 0.021632206 0.12575777 7.5352022e-40
0.89557892 0.021632206 0.12825777 2.1303086e-39
0.89557892 0.024132205 0.12575777 1.3794382e-41
0.89807898 0.021632206 0.12575777 3.8761317e-40
0.89807898 0.021632206 0.12825777 1.3974127e-39
0.89807898 0.024132205 0.12575777 2.0140302e-40
0.89557892 0.026632207 0.12075777 5.2649698e-39
0.89557892 0.026632207 0.12325777 7.0159553e-39
0.89807898 0.026632207 0.12325777 6.283072e-39
0.89557892 0.026632207 0.12575777 6.0064907e-39
0.89557892 0.026632207 0.12825777 7.7542364e-39
0.89557892 0.029132206 0.12575777 7.4812452e-39
0.89557892 0.029132206 0.12825777 8.2173655e-39
0.89807898 0.026632207 0.12575777 8.2155635e-39
0.89807898 0.029132206 0.12575777 8.1248112e-39
0.89807898 0.029132206 0.12825777 7.1150005e-39
0.90307897 0.021632206 0.12325777 7.5638868e-40
0.90057898 0.021632206 0.12575777 6.6097427e-40
0.90057898 0.021632206 0.12825777 8.4636325e-40
0.90057898 0.024132205 0.12575777 1.3974127e-39
0.90057898 0.024132205 0.12825777 3.3356439e-39
0.90057898 0.026632207 0.12575777 7.3868958e-39
0.90057898 0.026632207 0.12825777 8.4918168e-39
0.90057898 0.029132206 0.12575777 7.1150005e-39
0.90057898 0.029132206 0.12825777 7.4801859e-39
0.90307897 0.026632207 0.12575777 8.4921672e-39
0.90307897 0.029132206 0.12575777 7.0246027e-39
0.89807898 0.021632206 0.13075778 1.4888614e-39
0.90057898 0.021632206 0.13075778 8.4675982e-40
0.90307897 0.021632206 0.13075778 7.5385794e-40
0.89557892 0.031632207 0.12575777 6.8329667e-39
0.89557892 0.031632207 0.12825777 6.7396991e-39
0.89557892 0.034132205 0.12575777 4.987629e-39
0.89557892 0.034132205 0.12825777 5.4489603e-39
0.89807898 0.031632207 0.12575777 6.8322577e-39
0.89807898 0.031632207 0.12825777 5.7273366e-39
0.89807898 0.034132205 0.12575777 5.9085119e-39
0.89807898 0.034132205 0.12825777 6.6496517e-39
0.89807898 0.036632206 0.12575777 7.4674971e-39
0.89807898 0.036632206 0.12825777 8.206853e-39
0.90057898 0.031632207 0.12575777 4.8104685e-39
0.90057898 0.031632207 0.12825777 4.4380902e-39
0.90057898 0.034132205 0.12575777 6.7414942e-39
0.90057898 0.034132205 0.12825777 7.8435257e-39
0.90307897 0.031632207 0.12575777 4.6275177e-39
0.90307897 0.036632206 0.12325777 7.0083098e-39
0.90057898 0.036632206 0.12575777 8.2072033e-39
0.90057898 0.036632206 0.12825777 9.4039542e-39
0.90307897 0.036632206 0.12575777 6.9164645e-39
0.90307897 0.034132205 0.13075778 8.3026808e-39
0.90307897 0.036632206 0.13075778 9.9553147e-39
0.90557897 0.021632206 0.12825777 4.7834444e-40
0.90557897 0.024132205 0.12825777 5.3625604e-39
0.90807897 0.021632206 0.12825777 1.5582439e-41
0.90807897 0.024132205 0.12825777 4.3505609e-39
0.90557897 0.026632207 0.12825777 5.5419168e-39
0.90557897 0.029132206 0.12825777 6.9295358e-39
0.90807897 0.026632207 0.12575777 8.2159404e-39
0.90807897 0.026632207 0.12825777 6.7444201e-39
0.90807897 0.029132206 0.12825777 6.4671101e-39
0.91057897 0.021632206 0.12825777 2.0374039e-39
0.91057897 0.024132205 0.12825777 7.2000088e-39
0.91307896 0.021632206 0.12825777 4.7367812e-40
0.91057897 0.026632207 0.12575777 7.2053968e-39
0.91057897 0.026632207 0.12825777 7.1110208e-39
0.91057897 0.029132206 0.12575777 6.2845167e-39
0.91057897 0.029132206 0.12825777 6.1887086e-39
0.90557897 0.031632207 0.12825777 3.8870814e-39
0.90807897 0.031632207 0.12825777 4.0703839e-39
0.90557897 0.036632206 0.12825777 7.6518645e-39
0.90557897 0.039132208 0.12825777 8.2947172e-39
0.91057897 0.031632207 0.12575777 3.7030391e-39
0.91057897 0.031632207 0.12825777 6.3730998e-39
0.91307896 0.031632207 0.12825777 5.5476551e-39
0.90557897 0.034132205 0.13075778 7.1026732e-39
0.90557897 0.036632206 0.13075778 8.6634955e-39
0.90807897 0.036632206 0.13075778 6.0816493e-39
0.91307896 0.031632207 0.13075778 7.5665213e-39
0.91307896 0.034132205 0.13075778 3.6943048e-39
0.91557896 0.019132206 0.12825777 9.371702e-40
0.91807896 0.019132206 0.12575777 7.5422648e-40
0.91807896 0.019132206 0.12825777 3.8579568e-40
0.92307895 0.016632207 0.12325777 1.1215643e-39
0.92307895 0.019132206 0.12325777 1.3952743e-39
0.92057896 0.016632207 0.12575777 1.5800215e-39
0.92057896 0.019132206 0.12575777 4.7799131e-40
0.92557895 0.016632207 0.12575777 1.5796655e-39
0.92557895 0.016632207 0.12825777 1.9470131e-39
0.92557895 0.019132206 0.12575777 2.9360005e-40
0.92557895 0.019132206 0.12825777 1.3023472e-39
0.92807895 0.019132206 0.12575777 3.8579568e-40
0.92807895 0.019132206 0.12825777 2.1281422e-39
0.93057895 0.019132206 0.12075777 1.4874699e-39
0.93057895 0.019132206 0.12325777 1.301994e-39
0.93307894 0.019132206 0.12075777 7.5492993e-40
0.92807895 0.014132206 0.13075778 1.6722185e-39
0.91557896 0.021632206 0.12825777 1.4855165e-41
0.91557896 0.024132205 0.12825777 7.0181217e-39
0.91807896 0.021632206 0.12825777 2.0140302e-40
0.91807896 0.024132205 0.12825777 7.6620436e-39
0.91557896 0.026632207 0.12575777 7.7563874e-39
0.91557896 0.026632207 0.12825777 4.4431279e-39
0.91557896 0.029132206 0.12575777 6.0975919e-39
0.91557896 0.029132206 0.12825777 5.1756272e-39
0.91807896 0.026632207 0.12575777 6.2866817e-39
0.91807896 0.026632207 0.12825777 6.9280911e-39
0.91807896 0.029132206 0.12575777 4.4431279e-39
0.91807896 0.029132206 0.12825777 4.8997872e-39
0.92057896 0.021632206 0.12575777 1.1219174e-39
0.92057896 0.024132205 0.12575777 3.4214005e-39
0.92307895 0.024132205 0.12825777 4.8997704e-39
0.92057896 0.026632207 0.12575777 7.2028829e-39
0.92057896 0.029132206 0.12575777 4.8979922e-39
0.92307895 0.026632207 0.12825777 7.0177504e-39
0.92307895 0.029132206 0.12825777 4.07073e-39
0.91807896 0.026632207 0.13075778 4.6203038e-39
0.91807896 0.029132206 0.13075778 6.1840072e-39
0.92057896 0.024132205 0.13075778 8.2152117e-39
0.92057896 0.026632207 0.13075778 7.5698423e-39
0.92057896 0.029132206 0.13075778 3.9778309e-39
0.91557896 0.031632207 0.12575777 6.0053963e-39
0.91557896 0.031632207 0.12825777 5.913551e-39
0.91557896 0.034132205 0.12575777 8.2090012e-39
0.91557896 0.034132205 0.12825777 7.1051942e-39
0.91807896 0.031632207 0.12575777 6.7397145e-39
0.91807896 0.031632207 0.12825777 6.8315416e-39
0.91807896 0.031632207 0.13075778 7.0134077e-39
0.91807896 0.031632207 0.13325778 7.2863639e-39
0.92057896 0.031632207 0.13075778 7.0130546e-39
0.92557895 0.021632206 0.12575777 2.010527e-40
0.92557895 0.021632206 0.12825777 4.1600516e-39
0.92557895 0.024132205 0.12825777 5.4522351e-39
0.92807895 0.021632206 0.12575777 4.5277579e-39
0.92807895 0.021632206 0.12825777 7.4751286e-39
0.92807895 0.024132205 0.12575777 5.8184841e-39
0.92807895 0.024132205 0.12825777 7.7513805e-39
0.92557895 0.026632207 0.12825777 6.2845041e-39
0.92557895 0.029132206 0.12825777 3.8870576e-39
0.92807895 0.026632207 0.12825777 6.0039473e-39
0.92807895 0.029132206 0.12825777 5.9085091e-39
0.93057895 0.021632206 0.12325777 4.5270418e-39
0.93307894 0.021632206 0.12325777 4.3422946e-39
0.93057895 0.021632206 0.12575777 7.4754817e-39
0.93057895 0.024132205 0.12575777 7.6591695e-39
0.93057895 0.026632207 0.12575777 6.8315416e-39
0.92557895 0.031632207 0.12825777 7.3789168e-39
0.93557894 0.019132206 0.11825778 1.6722185e-39
0.93557894 0.016632207 0.12075777 1.5800215e-39
0.93557894 0.019132206 0.12075777 1.6722185e-39
0.93807894 0.016632207 0.12325777 1.2123278e-39
0.93557894 0.016632207 0.12575777 1.0293686e-39
0.93557894 0.019132206 0.12575777 2.0359423e-39
0.93807894 0.019132206 0.12575777 1.4867777e-41
0.94057894 0.014132206 0.12325777 1.6722185e-39
0.94307894 0.014132206 0.12575777 2.0381228e-39
0.94057894 0.016632207 0.12325777 1.2137585e-39
0.94057894 0.019132206 0.12325777 1.4144707e-41
0.94307894 0.016632207 0.12575777 4.7764099e-40
0.94307894 0.019132206 0.12575777 1.6655834e-41
0.94557893 0.014132206 0.12575777 1.0275708e-39
0.94557893 0.014132206 0.12825777 1.5945375e-41
0.94807893 0.014132206 0.12825777 5.6730868e-40
0.94557893 0.019132206 0.12325777 2.907316e-40
0.94807893 0.016632207 0.12325777 1.304508e-39
0.94807893 0.019132206 0.12325777 1.2123123e-39
0.94557893 0.016632207 0.12575777 2.4976632e-39
0.94557893 0.016632207 0.12825777 2.4958261e-39
0.94557893 0.019132206 0.12575777 4.1571831e-39
0.94557893 0.019132206 0.12825777 6.9219422e-39
0.94807893 0.016632207 0.12825777 2.8639079e-39
0.94807893 0.019132206 0.12825777 7.4747782e-39
0.95057893 0.014132206 0.12825777 9.3898488e-40
0.95307893 0.014132206 0.12825777 1.0293686e-39
0.95057893 0.016632207 0.12575777 9.3502201e-40
0.95057893 0.016632207 0.12825777 1.0275708e-39
0.95057893 0.019132206 0.12575777 7.0130546e-39
0.95057893 0.019132206 0.12825777 7.9350305e-39
0.95307893 0.016632207 0.12825777 1.0670327e-40
0.95307893 0.019132206 0.12825777 9.0438822e-39
0.94807893 0.019132206 0.13075778 8.3978065e-39
0.95307893 0.019132206 0.13075778 8.308136e-39
0.93557894 0.021632206 0.12075777 2.1299583e-39
0.93807894 0.021632206 0.12325777 2.7724256e-39
0.93807894 0.024132205 0.12325777 7.5677025e-39
0.93557894 0.021632206 0.12575777 8.1187085e-39
0.93557894 0.024132205 0.12575777 7.9361165e-39
0.93807894 0.021632206 0.12575777 8.3970877e-39
0.93807894 0.024132205 0.12575777 7.7564042e-39
0.93807894 0.029132206 0.12325777 4.8976012e-39
0.93557894 0.026632207 0.12575777 7.1059957e-39
0.93557894 0.026632207 0.12825777 4.4373601e-39
0.93807894 0.026632207 0.12575777 5.3575256e-39
0.93807894 0.029132206 0.12575777 4.7132029e-39
0.94057894 0.021632206 0.12325777 3.324177e-39
0.94057894 0.021632206 0.12825777 8.8587945e-39
0.94057894 0.024132205 0.12825777 6.9262708e-39
0.94307894 0.021632206 0.12575777 4.0638945e-39
0.94307894 0.021632206 0.12825777 8.3956682e-39
0.94307894 0.024132205 0.12575777 8.0301002e-39
0.94307894 0.024132205 0.12825777 7.7517028e-39
0.94057894 0.026632207 0.12825777 4.3447932e-39
0.94057894 0.029132206 0.12825777 6.7371754e-39
0.94307894 0.026632207 0.12575777 4.9876444e-39
0.94307894 0.026632207 0.12825777 6.9219422e-39
0.94307894 0.029132206 0.12575777 7.1012691e-39
0.94307894 0.029132206 0.12825777 6.3633356e-39
0.94057894 0.026632207 0.13075778 6.8300899e-39
0.94307894 0.026632207 0.13075778 6.5549533e-39
0.94307894 0.026632207 0.13325778 9.1267214e-39
0.94307894 0.029132206 0.13075778 3.8765479e-39
0.94307894 0.029132206 0.13325778 7.8218603e-39
0.93807894 0.031632207 0.12325777 7.7476979e-39
0.93807894 0.031632207 0.12575777 7.3774805e-39
0.94057894 0.031632207 0.12325777 7.4682342e-39
0.94307894 0.031632207 0.12575777 7.4667698e-39
0.94307894 0.031632207 0.12825777 7.8319622e-39
0.94307894 0.034132205 0.12575777 5.9948837e-39
0.94557893 0.021632206 0.12325777 3.8798689e-39
0.94557893 0.021632206 0.12575777 5.5404707e-39
0.94557893 0.021632206 0.12825777 7.6581031e-39
0.94807893 0.021632206 0.12825777 8.3020404e-39
0.94807893 0.024132205 0.12825777 7.0144909e-39
0.95057893 0.021632206 0.12825777 8.3078039e-39
0.95057893 0.024132205 0.12825777 6.6377897e-39
0.94557893 0.021632206 0.13075778 7.1056482e-39
0.94557893 0.024132205 0.13075778 7.0137819e-39
0.94557893 0.024132205 0.13325778 7.9213062e-39
0.94807893 0.021632206 0.13075778 5.2653496e-39
0.94807893 0.024132205 0.13075778 7.0051359e-39
0.94807893 0.024132205 0.13575777 8.7517549e-39
0.94557893 0.026632207 0.13075778 6.8293906e-39
0.94557893 0.026632207 0.13325778 1.4190979e-38
0.94557893 0.029132206 0.13075778 4.4257406e-39
0.94557893 0.029132206 0.13325778 1.648786e-38
0.94807893 0.026632207 0.13075778 9.8649772e-39
0.94807893 0.029132206 0.13075778 1.2615683e-38
0.94807893 0.026632207 0.13575777 1.4007625e-38
0.94807893 0.029132206 0.13575777 1.7685666e-38
0.95057893 0.021632206 0.13075778 1.0380048e-39
0.95057893 0.021632206 0.13325778 6.37023e-39
0.95057893 0.024132205 0.13075778 7.5528922e-39
0.95057893 0.024132205 0.13325778 9.0279789e-39
0.95307893 0.021632206 0.13075778 5.2786437e-39
0.95307893 0.021632206 0.13325778 7.3847126e-39
0.95307893 0.024132205 0.13075778 7.5532397e-39
0.95307893 0.024132205 0.13325778 9.2123729e-39
0.95057893 0.026632207 0.13075778 1.4835253e-38
0.95057893 0.026632207 0.13325778 1.4190934e-38
0.95057893 0.029132206 0.13075778 1.7775373e-38
0.95057893 0.029132206 0.13325778 1.7871142e-38
0.95307893 0.026632207 0.13325778 1.3732462e-38
0.95057893 0.026632207 0.13575777 1.1609447e-38
0.94557893 0.031632207 0.13075778 7.2708515e-39
0.96807897 -0.10086779 0.068257771 8.860214e-39
0.97057897 -0.10086779 0.068257771 8.7680184e-39
0.99057895 -0.095867798 0.073257774 9.4119627e-39
0.99307895 -0.095867798 0.075757772 8.1273573e-39
0.99307895 -0.095867798 0.078257769 5.4558519e-39
0.99057895 -0.093367793 0.073257774 6.8430813e-39
0.99057895 -0.090867795 0.073257774 1.5204088e-41
0.99307895 -0.093367793 0.070757776 1.1215615e-39
0.99307895 -0.093367793 0.073257774 6.5664958e-39
0.99307895 -0.090867795 0.070757776 1.6660878e-39
0.99307895 -0.090867795 0.073257774 4.6970964e-40
0.99307895 -0.093367793 0.075757772 6.6576152e-39
0.99307895 -0.093367793 0.078257769 4.5363927e-39
0.99307895 -0.090867795 0.075757772 1.4127891e-41
0.99307895 -0.090867795 0.078257769 1.3773363e-41
0.99307895 -0.095867798 0.08575777 3.3324615e-39
0.99307895 -0.093367793 0.08575777 1.7669337e-39
0.99057895 -0.095867798 0.090757772 7.5350201e-40
0.99057895 -0.095867798 0.09325777 1.30587e-41
0.99307895 -0.098367795 0.090757772 6.9302519e-39
0.99307895 -0.095867798 0.090757772 1.3055898e-41
0.99057895 -0.093367793 0.090757772 5.6190807e-40
0.99057895 -0.093367793 0.09325777 6.551757e-40
0.99307895 -0.093367793 0.090757772 5.6190807e-40
0.99307895 -0.090867795 0.090757772 1.6682542e-39
0.96307898 -0.11086779 0.12575777 7.8359097e-39
0.96307898 -0.11086779 0.13075778 9.0279662e-39
0.96307898 -0.10836779 0.12325777 7.6511625e-39
0.96307898 -0.1058678 0.12325777 6.9197744e-39
0.96307898 -0.10836779 0.12575777 6.913952e-39
0.96307898 -0.1058678 0.12575777 5.9074175e-39
0.96307898 -0.10336779 0.12325777 8.9480782e-39
0.96307898 -0.10836779 0.13075778 8.2882362e-39
0.96307898 -0.1058678 0.13075778 7.1009384e-39
0.96557897 -0.11086779 0.12325777 8.755694e-39
0.96807897 -0.1133678 0.12075777 8.9386825e-39
0.96807897 -0.11086779 0.12075777 8.6638725e-39
0.96807897 -0.11086779 0.12325777 8.3869184e-39
0.96557897 -0.11086779 0.12825777 9.0254481e-39
0.96807897 -0.11086779 0.12575777 8.6606285e-39
0.97057897 -0.11086779 0.12825777 9.7608201e-39
0.97307897 -0.11086779 0.12825777 9.3967418e-39
0.96807897 -0.11086779 0.13075778 1.2991295e-38
0.97057897 -0.11086779 0.13075778 1.2441349e-38
0.96807897 -0.10836779 0.12075777 7.926306e-39
0.96807897 -0.10836779 0.12325777 7.3745742e-39
0.96807897 -0.1058678 0.12325777 6.3648027e-39
0.96557897 -0.10836779 0.12575777 7.2809408e-39
0.96557897 -0.10836779 0.12825777 7.9230564e-39
0.96557897 -0.1058678 0.12575777 6.272956e-39
0.96557897 -0.1058678 0.12825777 7.469721e-39
0.96807897 -0.10836779 0.12575777 7.2809408e-39
0.96807897 -0.10836779 0.12825777 7.8304923e-39
0.96807897 -0.1058678 0.12575777 1.0053707e-38
0.96807897 -0.1058678 0.12825777 1.1066076e-38
0.96557897 -0.10336779 0.12575777 1.0052977e-38
0.96807897 -0.10336779 0.12575777 9.3212286e-39
0.97057897 -0.1058678 0.12325777 9.3147027e-39
0.97057897 -0.10836779 0.12575777 8.0119926e-39
0.97057897 -0.10836779 0.12825777 8.3847254e-39
0.97057897 -0.1058678 0.12575777 1.1249742e-38
0.97057897 -0.1058678 0.12825777 7.5630082e-39
0.97307897 -0.10836779 0.12825777 8.38295e-39
0.97307897 -0.1058678 0.12825777 1.1249391e-38
0.97057897 -0.10336779 0.12325777 8.6765626e-39
0.97057897 -0.10336779 0.12575777 8.1277133e-39
0.96807897 -0.10836779 0.13075778 1.1516525e-38
0.96807897 -0.1058678 0.13075778 9.1317857e-39
0.96807897 -0.1058678 0.13325778 9.2243316e-39
0.97057897 -0.10836779 0.13075778 1.1335002e-38
0.97057897 -0.1058678 0.13075778 8.673676e-39
0.98807895 -0.10336779 0.11825778 8.0358806e-39
0.98807895 -0.10086779 0.11825778 4.8057937e-39
0.99307895 -0.10336779 0.11575777 4.4395279e-39
0.99307895 -0.10086779 0.11575777 2.5080888e-39
0.97807896 -0.11086779 0.12825777 1.2901605e-38
0.97557896 -0.1058678 0.12325777 1.1250108e-38
0.97557896 -0.10836779 0.12575777 7.5571522e-39
0.97557896 -0.1058678 0.12575777 1.1158638e-38
0.97807896 -0.10836779 0.12825777 1.3637371e-38
0.97807896 -0.1058678 0.12825777 1.0425392e-38
0.97557896 -0.10336779 0.12325777 8.2195558e-39
0.97807896 -0.10086779 0.12325777 4.4391748e-39
0.97557896 -0.10336779 0.12575777 8.4017736e-39
0.97807896 -0.10336779 0.12575777 9.3212146e-39
0.97807896 -0.10336779 0.12825777 8.2181054e-39
0.97807896 -0.10086779 0.12575777 4.7121491e-39
0.98057896 -0.10836779 0.12575777 1.1242805e-38
0.98057896 -0.10836779 0.12825777 1.3454412e-38
0.98057896 -0.1058678 0.12575777 1.0792027e-38
0.98057896 -0.1058678 0.12825777 9.6856587e-39
0.98307896 -0.10836779 0.12575777 9.4090662e-39
0.98307896 -0.1058678 0.12575777 1.1068244e-38
0.98057896 -0.10336779 0.12075777 8.2195558e-39
0.98057896 -0.10086779 0.12075777 4.2551437e-39
0.98307896 -0.10336779 0.12075777 7.5774206e-39
0.98307896 -0.10336779 0.12325777 8.9545802e-39
0.98307896 -0.10086779 0.12075777 3.7977585e-39
0.98307896 -0.10086779 0.12325777 4.4373601e-39
0.98057896 -0.10336779 0.12575777 8.8616784e-39
0.98057896 -0.10336779 0.12825777 8.8634776e-39
0.98307896 -0.10336779 0.12575777 8.9538712e-39
0.98307896 -0.10086779 0.12575777 3.977105e-39
0.97557896 -0.10836779 0.13075778 1.3454059e-38
0.97557896 -0.1058678 0.13075778 9.9615211e-39
0.97807896 -0.10836779 0.13075778 1.4463558e-38
0.97807896 -0.1058678 0.13075778 8.1219455e-39
0.98557895 -0.10836779 0.12825777 8.4903567e-39
0.98557895 -0.1058678 0.12575777 1.0883852e-38
0.98557895 -0.1058678 0.12825777 9.3201174e-39
0.98807895 -0.10836779 0.12825777 8.8580658e-39
0.98807895 -0.1058678 0.12825777 9.5034352e-39
0.98557895 -0.10086779 0.12325777 2.4148086e-39
0.98807895 -0.10086779 0.12075777 2.7814359e-39
0.98557895 -0.10336779 0.12575777 7.9451171e-39
0.98557895 -0.10336779 0.12825777 5.7378296e-39
0.98557895 -0.10086779 0.12575777 1.9524011e-39
0.98807895 -0.10336779 0.12825777 6.1037352e-39
0.99307895 -0.10836779 0.12325777 8.2134195e-39
0.99307895 -0.1058678 0.12325777 9.4119627e-39
0.99057895 -0.10836779 0.12575777 8.2134195e-39
0.99057895 -0.1058678 0.12575777 9.1353758e-39
0.99307895 -0.10836779 0.12825777 7.5701955e-39
0.99307895 -0.1058678 0.12825777 8.6769017e-39
0.99057895 -0.10086779 0.12325777 1.3974295e-39
0.99307895 -0.10336779 0.12325777 5.8300266e-39
0.99307895 -0.10086779 0.12325777 7.4990487e-40
0.99057895 -0.10336779 0.12575777 6.0115424e-39
0.99057895 -0.10086779 0.12575777 1.8099171e-41
0.99307895 -0.10336779 0.12825777 4.8165767e-39
0.99307895 -0.10086779 0.12825777 1.7371897e-41
0.99307895 -0.098367795 0.11575777 1.4486624e-41
0.99307895 -0.098367795 0.11825778 1.0740392e-40
0.99307895 -0.095867798 0.11575777 2.1285051e-39
0.99307895 -0.095867798 0.11825778 1.6704038e-39
1.005579 -0.10086779 0.095757775 4.2529787e-39
