# .PCD v0.7 - Point Cloud Data file format
VERSION 0.7
FIELDS x y z rgb
SIZE 4 4 4 4
TYPE F F F F
COUNT 1 1 1 1
WIDTH 993
HEIGHT 1
VIEWPOINT 0 0 0 1 0 0 0
POINTS 993
DATA ascii
0.92439806 0.02219489 0.12624721 2.9360005e-40
0.92439806 0.024694892 0.12624721 7.6656379e-39
0.92689806 0.02219489 0.12624721 4.2522444e-39
0.92689806 0.02219489 0.12874721 7.8435608e-39
0.92689806 0.024694892 0.12874721 6.8312039e-39
0.91939807 0.027194891 0.12874721 5.5426357e-39
0.91939807 0.029694891 0.12874721 6.1843897e-39
0.92189807 0.027194891 0.12624721 7.4787439e-39
0.92189807 0.027194891 0.12874721 7.0191909e-39
0.92189807 0.029694891 0.12624721 5.8170324e-39
0.92189807 0.029694891 0.12874721 5.9999789e-39
0.91939807 0.03219489 0.12874721 6.8315388e-39
0.92189807 0.03219489 0.12624721 7.4751286e-39
0.92439806 0.027194891 0.12624721 6.3752704e-39
0.92439806 0.029694891 0.12624721 3.978184e-39
0.92439806 0.029694891 0.12874721 7.5633011e-39
0.92689806 0.027194891 0.12874721 6.6460756e-39
0.92689806 0.029694891 0.12874721 5.9085091e-39
0.92439806 0.03219489 0.12624721 6.6453483e-39
0.92689806 0.03219489 0.12874721 7.0101273e-39
0.92189807 0.029694891 0.13124722 7.5629507e-39
0.92689806 0.029694891 0.13124722 7.3774861e-39
0.93689805 0.014694891 0.12374721 1.6722185e-39
0.94189805 0.014694891 0.12374721 1.6722185e-39
0.94189805 0.012194891 0.12624721 1.3952743e-39
0.94189805 0.014694891 0.12624721 1.5818179e-39
0.94439805 0.014694891 0.12374721 1.9480823e-39
0.94689804 0.014694891 0.12374721 1.9480823e-39
0.94439805 0.012194891 0.12874721 9.3861634e-40
0.94439805 0.014694891 0.12624721 1.3045108e-39
0.94439805 0.014694891 0.12874721 1.0885427e-40
0.94689804 0.014694891 0.12624721 7.5098668e-40
0.94689804 0.014694891 0.12874721 1.2137613e-39
0.92939806 0.017194891 0.12374721 1.1215643e-39
0.93189806 0.017194891 0.12374721 1.0272148e-39
0.93189806 0.019694891 0.12374721 1.6700535e-39
0.92939806 0.019694891 0.12624721 2.8671477e-39
0.93189806 0.017194891 0.12624721 1.030812e-39
0.93189806 0.019694891 0.12874721 2.9557546e-39
0.93189806 0.02219489 0.12374721 4.6199535e-39
0.92939806 0.02219489 0.12624721 7.9339585e-39
0.92939806 0.024694892 0.12624721 7.4747754e-39
0.93189806 0.02219489 0.12624721 7.2918107e-39
0.93189806 0.02219489 0.12874721 8.4871323e-39
0.93189806 0.024694892 0.12624721 7.4747754e-39
0.93189806 0.024694892 0.12874721 8.6700816e-39
0.93439806 0.019694891 0.12374721 2.4965702e-39
0.93689805 0.019694891 0.12124722 1.7615205e-39
0.93689805 0.019694891 0.12374721 3.8293003e-40
0.93439806 0.019694891 0.12624721 2.9561176e-39
0.93439806 0.02219489 0.12374721 7.4751314e-39
0.93439806 0.024694892 0.12374721 7.3843805e-39
0.93689805 0.02219489 0.12124722 4.619585e-39
0.93689805 0.02219489 0.12374721 7.107774e-39
0.93689805 0.024694892 0.12374721 7.4747754e-39
0.93439806 0.02219489 0.12624721 7.8442866e-39
0.93439806 0.024694892 0.12624721 8.027229e-39
0.93689805 0.02219489 0.12874721 8.8569938e-39
0.93689805 0.024694892 0.12874721 4.4370112e-39
0.92939806 0.027194891 0.12624721 7.3818413e-39
0.92939806 0.029694891 0.12624721 6.3676894e-39
0.93189806 0.027194891 0.12624721 7.0152098e-39
0.93189806 0.027194891 0.12874721 5.9999789e-39
0.93189806 0.029694891 0.12874721 5.5408e-39
0.93439806 0.027194891 0.12374721 6.739346e-39
0.93689805 0.027194891 0.12374721 6.3716523e-39
0.93439806 0.027194891 0.12624721 6.1843743e-39
0.93439806 0.029694891 0.12624721 5.8155918e-39
0.93689805 0.027194891 0.12874721 5.1691462e-39
0.93689805 0.029694891 0.12874721 6.0921773e-39
0.93939805 0.019694891 0.12124722 2.3136026e-39
0.94189805 0.017194891 0.12374721 9.3969113e-40
0.94189805 0.019694891 0.12374721 1.5934165e-41
0.93939805 0.019694891 0.12624721 1.6294299e-41
0.94189805 0.017194891 0.12624721 8.4607038e-40
0.94189805 0.019694891 0.12624721 5.6305125e-39
0.93939805 0.02219489 0.12624721 8.7662457e-39
0.93939805 0.02219489 0.12874721 9.502729e-39
0.93939805 0.024694892 0.12624721 8.4911036e-39
0.93939805 0.024694892 0.12874721 8.0301002e-39
0.94189805 0.02219489 0.12624721 7.6652876e-39
0.94189805 0.024694892 0.12624721 8.5832936e-39
0.94439805 0.017194891 0.12374721 1.2126809e-39
0.94439805 0.019694891 0.12374721 3.4196125e-39
0.94689804 0.017194891 0.12374721 8.4607318e-40
0.94689804 0.019694891 0.12374721 1.5942573e-41
0.94439805 0.017194891 0.12624721 2.2239405e-39
0.94439805 0.017194891 0.12874721 2.1292114e-39
0.94439805 0.019694891 0.12624721 3.6994293e-39
0.94439805 0.019694891 0.12874721 7.6573744e-39
0.94689804 0.017194891 0.12624721 2.3136026e-39
0.94689804 0.017194891 0.12874721 3.049388e-39
0.94689804 0.019694891 0.12624721 6.4624046e-39
0.94689804 0.019694891 0.12874721 7.6591695e-39
0.94439805 0.02219489 0.12874721 8.6715264e-39
0.94439805 0.024694892 0.12874721 8.3037906e-39
0.94689804 0.02219489 0.12624721 8.3970877e-39
0.94689804 0.02219489 0.12874721 7.1056454e-39
0.94689804 0.024694892 0.12874721 7.3803966e-39
0.94689804 0.02219489 0.13124722 4.9909137e-39
0.94689804 0.024694892 0.13124722 7.281364e-39
0.94689804 0.024694892 0.13374722 7.1851705e-39
0.93939805 0.027194891 0.12124722 7.2907443e-39
0.93939805 0.029694891 0.12124722 5.5408028e-39
0.94189805 0.027194891 0.12374721 7.0134344e-39
0.94189805 0.029694891 0.12374721 5.6333487e-39
0.93939805 0.027194891 0.12624721 5.9041959e-39
0.93939805 0.027194891 0.12874721 6.7324936e-39
0.93939805 0.029694891 0.12624721 6.5495653e-39
0.93939805 0.029694891 0.12874721 7.2856674e-39
0.94189805 0.027194891 0.12624721 4.987664e-39
0.94189805 0.029694891 0.12624721 6.3680383e-39
0.93939805 0.03219489 0.12124722 7.0133769e-39
0.94189805 0.03219489 0.12374721 7.2867198e-39
0.94189805 0.03219489 0.12624721 7.9302731e-39
0.94439805 0.027194891 0.12874721 7.1978032e-39
0.94439805 0.029694891 0.12874721 6.7314104e-39
0.94689804 0.027194891 0.12874721 7.4725922e-39
0.94689804 0.029694891 0.12874721 5.253353e-39
0.94439805 0.03219489 0.12874721 8.3825968e-39
0.94689804 0.027194891 0.13124722 9.4940591e-39
0.94689804 0.027194891 0.13374722 1.455867e-38
0.94689804 0.029694891 0.13124722 8.096299e-39
0.94689804 0.029694891 0.13374722 1.6945593e-38
0.94689804 0.03219489 0.13124722 8.7398355e-39
0.94689804 0.03219489 0.13374722 1.6854479e-38
0.94939804 0.014694891 0.12374721 1.6722185e-39
0.94939804 0.014694891 0.12624721 7.5098668e-40
0.95189804 0.014694891 0.12874721 4.7835986e-40
0.95439804 0.014694891 0.12874721 1.5582439e-41
0.94939804 0.014694891 0.13124722 1.0308148e-39
0.96689808 0.012194891 0.12124722 1.8569629e-39
0.96689808 0.012194891 0.12374721 1.6725716e-39
0.96689808 0.014694891 0.12124722 5.7090861e-40
0.96689808 0.014694891 0.12374721 2.2225028e-39
0.96689808 0.012194891 0.12624721 1.0275708e-39
0.96689808 0.014694891 0.12624721 1.8537007e-39
0.94939804 0.017194891 0.12124722 9.3862194e-40
0.94939804 0.017194891 0.12374721 2.3154173e-39
0.94939804 0.019694891 0.12374721 3.9749372e-39
0.94939804 0.017194891 0.12624721 2.4047094e-39
0.94939804 0.019694891 0.12624721 7.0144909e-39
0.95189804 0.017194891 0.12874721 2.2225182e-39
0.95189804 0.019694891 0.12874721 8.1230385e-39
0.95189804 0.02219489 0.12874721 8.6762123e-39
0.95439804 0.017194891 0.12874721 3.2370037e-39
0.95439804 0.019694891 0.12874721 8.3095738e-39
0.95439804 0.02219489 0.12874721 4.8198333e-39
0.94939804 0.019694891 0.13124722 8.3999589e-39
0.95189804 0.019694891 0.13124722 8.2159432e-39
0.94939804 0.02219489 0.13124722 6.3698824e-39
0.94939804 0.024694892 0.13124722 8.0127802e-39
0.94939804 0.024694892 0.13374722 8.935786e-39
0.95189804 0.02219489 0.13124722 6.7451389e-39
0.95189804 0.02219489 0.13374722 8.0261163e-39
0.95189804 0.024694892 0.13374722 1.0410904e-38
0.94939804 0.024694892 0.13874722 1.2437352e-38
0.95189804 0.02219489 0.13624722 8.7629653e-39
0.95189804 0.024694892 0.13624722 1.2162207e-38
0.95689803 0.017194891 0.13124722 6.2787532e-39
0.95689803 0.019694891 0.13124722 8.2134223e-39
0.95689803 0.02219489 0.13124722 7.6630973e-39
0.95689803 0.024694892 0.13124722 8.936837e-39
0.94939804 0.027194891 0.13124722 9.4944123e-39
0.94939804 0.027194891 0.13374722 1.8149161e-38
0.94939804 0.029694891 0.13374722 1.7961545e-38
0.95189804 0.027194891 0.13374722 1.1793092e-38
0.94939804 0.027194891 0.13624722 1.1701642e-38
0.94939804 0.027194891 0.13874722 1.1054416e-38
0.95189804 0.027194891 0.13624722 1.105586e-38
0.95939803 0.017194891 0.12874721 6.5546268e-39
0.95939803 0.019694891 0.12874721 8.213788e-39
0.96189803 0.017194891 0.12874721 6.8305004e-39
0.95939803 0.02219489 0.12874721 7.7531434e-39
0.95939803 0.024694892 0.12874721 8.9361336e-39
0.96439809 0.017194891 0.12374721 1.5220904e-41
0.96689808 0.017194891 0.12124722 1.6294299e-41
0.96689808 0.017194891 0.12374721 3.2366533e-39
0.96439809 0.017194891 0.12624721 3.2366533e-39
0.96439809 0.017194891 0.12874721 7.2922045e-39
0.96439809 0.019694891 0.12874721 7.1081635e-39
0.96689808 0.017194891 0.12624721 5.6337201e-39
0.96689808 0.017194891 0.12874721 7.2925548e-39
0.96689808 0.019694891 0.12874721 6.2780497e-39
0.96439809 0.02219489 0.12874721 7.6576925e-39
0.96439809 0.024694892 0.12874721 8.2105076e-39
0.96689808 0.02219489 0.12874721 6.917231e-39
0.96689808 0.024694892 0.12874721 9.1320911e-39
0.95939803 0.019694891 0.13124722 7.475151e-39
0.95939803 0.02219489 0.13124722 7.748456e-39
0.95939803 0.024694892 0.13124722 1.0502354e-38
0.96189803 0.02219489 0.13124722 9.8674912e-39
0.96189803 0.024694892 0.13124722 1.2714267e-38
0.96439809 0.019694891 0.13124722 5.9099889e-39
0.96689808 0.017194891 0.13124722 6.9323917e-39
0.96689808 0.019694891 0.13124722 3.2442063e-39
0.96439809 0.02219489 0.13124722 6.3658691e-39
0.96439809 0.024694892 0.13124722 1.2346223e-38
0.96439809 0.024694892 0.13374722 9.1270591e-39
0.96689808 0.02219489 0.13124722 5.9949258e-39
0.96689808 0.024694892 0.13124722 8.5764034e-39
0.95939803 0.027194891 0.13124722 1.161015e-38
0.97189808 -0.10030511 0.068747215 8.8609175e-39
0.98689806 -0.095305108 0.076247215 9.1386198e-39
0.98689806 -0.09280511 0.076247215 6.7519759e-39
0.99689806 -0.095305108 0.068747215 9.4141179e-39
0.99189806 -0.095305108 0.073747218 9.1389729e-39
0.98939806 -0.095305108 0.076247215 8.40394e-39
0.98939806 -0.095305108 0.078747213 8.4936217e-39
0.99189806 -0.095305108 0.076247215 8.0358778e-39
0.99439806 -0.095305108 0.076247215 8.4025023e-39
0.99439806 -0.095305108 0.078747213 6.4678318e-39
0.99689806 -0.095305108 0.076247215 6.0086529e-39
0.99689806 -0.095305108 0.078747213 3.4293431e-39
0.99689806 -0.09280511 0.068747215 1.1240796e-39
0.99689806 -0.090305112 0.068747215 1.3005423e-39
0.99689806 -0.087805107 0.068747215 2.2185525e-39
0.99189806 -0.09280511 0.073747218 6.3839052e-39
0.98939806 -0.09280511 0.076247215 6.2906376e-39
0.98939806 -0.09280511 0.078747213 4.7225888e-39
0.99189806 -0.09280511 0.076247215 5.6452654e-39
0.99439806 -0.09280511 0.073747218 5.736382e-39
0.99689806 -0.09280511 0.07124722 1.6281687e-41
0.99689806 -0.090305112 0.07124722 5.6261433e-40
0.99439806 -0.09280511 0.076247215 1.4490827e-41
0.99439806 -0.09280511 0.078747213 4.445646e-39
0.99439806 -0.090305112 0.076247215 9.3320452e-40
0.99439806 -0.090305112 0.078747213 1.5753369e-39
0.99689806 -0.09280511 0.076247215 4.3509266e-39
0.99689806 -0.09280511 0.078747213 2.9683453e-39
0.99689806 -0.090305112 0.076247215 2.2210595e-39
0.99689806 -0.090305112 0.078747213 1.3023472e-39
0.99689806 -0.087805107 0.076247215 2.4972862e-39
0.99689806 -0.087805107 0.078747213 1.6707696e-39
0.99689806 -0.08530511 0.078747213 1.7626121e-39
1.0018981 -0.095305108 0.068747215 6.7526849e-39
0.99939805 -0.095305108 0.07124722 5.6441864e-39
0.99939805 -0.095305108 0.073747218 4.5378416e-39
1.0018981 -0.095305108 0.076247215 4.6278723e-39
1.0018981 -0.095305108 0.078747213 1.8620034e-39
1.0018981 -0.09280511 0.068747215 1.5211095e-41
1.0018981 -0.090305112 0.068747215 6.5553863e-40
1.0018981 -0.087805107 0.068747215 2.1310288e-39
1.0018981 -0.08530511 0.068747215 2.4969331e-39
0.99939805 -0.09280511 0.07124722 1.4490827e-41
0.99939805 -0.09280511 0.073747218 1.4853764e-41
0.99939805 -0.090305112 0.07124722 1.1172328e-39
0.99939805 -0.090305112 0.073747218 2.0363123e-39
1.0018981 -0.09280511 0.07124722 1.5212496e-41
1.0018981 -0.090305112 0.07124722 1.4827854e-39
1.0018981 -0.09280511 0.076247215 1.5569827e-41
0.99939805 -0.087805107 0.07124722 2.1310288e-39
0.99939805 -0.087805107 0.073747218 2.5894861e-39
0.99939805 -0.08530511 0.073747218 1.8551608e-39
1.0018981 -0.087805107 0.07124722 2.2232217e-39
1.0018981 -0.08530511 0.07124722 2.2235776e-39
1.0018981 -0.087805107 0.076247215 2.6816789e-39
1.0018981 -0.08530511 0.076247215 1.8551608e-39
1.0018981 -0.08530511 0.078747213 2.3125488e-39
1.0043981 -0.087805107 0.07124722 2.1310288e-39
1.0043981 -0.087805107 0.073747218 1.947711e-39
1.0043981 -0.08530511 0.07124722 1.7629652e-39
1.0043981 -0.08530511 0.073747218 1.7629652e-39
1.0043981 -0.08530511 0.076247215 1.6704164e-39
0.99189806 -0.095305108 0.081247218 6.5603834e-39
0.99189806 -0.095305108 0.088747218 1.1219118e-39
0.99439806 -0.095305108 0.081247218 4.2551437e-39
0.99689806 -0.097805113 0.083747216 8.0358806e-39
0.99689806 -0.095305108 0.081247218 3.6101246e-39
0.99689806 -0.095305108 0.083747216 3.4246585e-39
0.99439806 -0.095305108 0.086247213 3.0555033e-39
0.99689806 -0.095305108 0.088747218 1.4906971e-39
0.99439806 -0.097805113 0.091247216 6.1948392e-39
0.99439806 -0.097805113 0.093747213 5.0884945e-39
0.99439806 -0.095305108 0.091247216 1.6291496e-41
0.99439806 -0.095305108 0.093747213 1.449363e-41
0.99689806 -0.097805113 0.091247216 6.8398457e-39
0.99689806 -0.097805113 0.093747213 4.6275205e-39
0.99689806 -0.095305108 0.091247216 1.0920459e-40
0.99689806 -0.095305108 0.093747213 1.1615363e-41
0.99689806 -0.097805113 0.096247219 3.7034062e-39
0.99689806 -0.097805113 0.098747216 2.7821618e-39
0.99689806 -0.095305108 0.096247219 1.1258032e-41
0.99689806 -0.095305108 0.098747216 1.2692961e-41
0.99189806 -0.09280511 0.081247218 4.8119076e-39
0.99189806 -0.09280511 0.088747218 2.8748479e-40
0.99439806 -0.09280511 0.081247218 1.6644623e-41
0.99439806 -0.090305112 0.081247218 2.1288582e-39
0.99689806 -0.09280511 0.081247218 1.859481e-39
0.99689806 -0.09280511 0.083747216 1.3063072e-39
0.99689806 -0.090305112 0.081247218 2.1285051e-39
0.99689806 -0.090305112 0.083747216 1.5785711e-39
0.99439806 -0.09280511 0.086247213 5.6479475e-40
0.99689806 -0.09280511 0.088747218 1.9707161e-40
0.99689806 -0.090305112 0.088747218 1.6707724e-39
0.99439806 -0.087805107 0.081247218 2.4976394e-39
0.99689806 -0.087805107 0.081247218 2.3132551e-39
0.99689806 -0.087805107 0.083747216 1.5785711e-39
0.99689806 -0.08530511 0.083747216 1.6704164e-39
0.99439806 -0.09280511 0.091247216 2.8891131e-40
0.99439806 -0.09280511 0.093747213 8.3991728e-40
0.99689806 -0.09280511 0.091247216 6.5732809e-40
0.99689806 -0.09280511 0.093747213 1.0232323e-39
0.99689806 -0.090305112 0.091247216 1.8555139e-39
0.99689806 -0.09280511 0.096247219 1.2994703e-39
0.99689806 -0.087805107 0.091247216 1.6707696e-39
0.99939805 -0.095305108 0.081247218 3.6094211e-39
0.99939805 -0.097805113 0.086247213 8.4014233e-39
0.99939805 -0.095305108 0.086247213 3.0555061e-39
1.0018981 -0.10030511 0.098747216 3.7941585e-39
0.99939805 -0.097805113 0.093747213 4.0754187e-39
0.99939805 -0.095305108 0.093747213 1.3407624e-41
0.99939805 -0.097805113 0.096247219 3.7977557e-39
0.99939805 -0.097805113 0.098747216 2.044594e-39
0.99939805 -0.095305108 0.096247219 1.3773363e-41
0.99939805 -0.095305108 0.098747216 1.4842553e-41
1.0018981 -0.097805113 0.096247219 2.4151743e-39
1.0018981 -0.097805113 0.098747216 1.9527514e-39
1.0018981 -0.095305108 0.096247219 1.4846757e-41
1.0018981 -0.095305108 0.098747216 1.4842553e-41
0.99939805 -0.09280511 0.081247218 1.5569827e-41
0.99939805 -0.090305112 0.081247218 2.1285051e-39
1.0018981 -0.09280511 0.083747216 1.2105145e-39
1.0018981 -0.090305112 0.083747216 2.4972862e-39
0.99939805 -0.09280511 0.086247213 6.5769383e-40
0.99939805 -0.090305112 0.086247213 1.7633211e-39
0.99939805 -0.090305112 0.088747218 1.5785739e-39
0.99939805 -0.087805107 0.081247218 2.4972862e-39
0.99939805 -0.08530511 0.081247218 2.1281576e-39
1.0018981 -0.08530511 0.083747216 1.6704164e-39
0.99939805 -0.087805107 0.086247213 1.7633211e-39
0.99939805 -0.087805107 0.088747218 1.8555139e-39
0.99939805 -0.08530511 0.086247213 1.9462775e-39
0.99939805 -0.08530511 0.088747218 2.0384759e-39
1.0018981 -0.08530511 0.086247213 2.0388318e-39
1.0043981 -0.08530511 0.081247218 1.6704164e-39
1.0043981 -0.08530511 0.088747218 2.0384759e-39
0.99939805 -0.09280511 0.093747213 7.4917059e-40
0.99939805 -0.090305112 0.093747213 1.5785739e-39
1.0018981 -0.090305112 0.091247216 1.3945428e-39
0.99939805 -0.09280511 0.096247219 1.2994731e-39
0.99939805 -0.09280511 0.098747216 2.0363095e-39
0.99939805 -0.090305112 0.096247219 1.3945428e-39
0.99939805 -0.090305112 0.098747216 1.9462803e-39
1.0018981 -0.09280511 0.096247219 1.9437607e-39
1.0018981 -0.09280511 0.098747216 1.9441138e-39
1.0018981 -0.090305112 0.096247219 1.3941897e-39
1.0018981 -0.090305112 0.098747216 1.9462803e-39
0.99939805 -0.087805107 0.093747213 1.6707696e-39
1.0018981 -0.087805107 0.091247216 1.6707696e-39
1.0018981 -0.08530511 0.091247216 1.3045108e-39
0.99939805 -0.087805107 0.096247219 1.7629652e-39
0.99939805 -0.087805107 0.098747216 1.9455768e-39
1.0018981 -0.087805107 0.096247219 1.6704164e-39
1.0018981 -0.087805107 0.098747216 2.0384759e-39
1.0018981 -0.08530511 0.096247219 1.4878258e-39
1.0018981 -0.08530511 0.098747216 1.9459271e-39
1.0043981 -0.087805107 0.093747213 1.6704164e-39
1.0043981 -0.08530511 0.093747213 1.9459299e-39
1.0043981 -0.08530511 0.096247219 2.0381228e-39
0.96939808 -0.11280511 0.12124722 8.9393832e-39
0.96939808 -0.11280511 0.12374721 8.1096183e-39
0.96939808 -0.11030511 0.12124722 8.3894366e-39
0.96939808 -0.11030511 0.12374721 7.8366159e-39
0.97189808 -0.11030511 0.12374721 8.0192093e-39
0.96939808 -0.11280511 0.12624721 8.6591795e-39
0.96939808 -0.11280511 0.12874721 9.8530186e-39
0.96939808 -0.11030511 0.12624721 8.9343245e-39
0.96939808 -0.11030511 0.12874721 9.1222905e-39
0.97189808 -0.11280511 0.12874721 9.7604698e-39
0.97189808 -0.11030511 0.12624721 8.9343091e-39
0.97189808 -0.11030511 0.12874721 8.9375461e-39
0.97189808 -0.10780511 0.12374721 6.916159e-39
0.97189808 -0.10530511 0.12374721 1.0790176e-38
0.96939808 -0.10780511 0.12624721 8.1963853e-39
0.96939808 -0.10780511 0.12874721 8.3847254e-39
0.96939808 -0.10530511 0.12624721 6.917273e-39
0.96939808 -0.10530511 0.12874721 7.5622865e-39
0.97189808 -0.10780511 0.12624721 7.5626369e-39
0.97189808 -0.10780511 0.12874721 7.6552066e-39
0.97189808 -0.10530511 0.12624721 1.1342656e-38
0.97189808 -0.10530511 0.12874721 1.1434502e-38
0.97439808 -0.11030511 0.12874721 1.2902687e-38
0.97439808 -0.10530511 0.12374721 1.1434858e-38
0.97439808 -0.10780511 0.12874721 1.1242805e-38
0.97689807 -0.10780511 0.12624721 7.7473868e-39
0.97689807 -0.10530511 0.12624721 1.1342656e-38
0.97189808 -0.11030511 0.13124722 1.2900899e-38
0.97189808 -0.10780511 0.13124722 1.1333933e-38
0.97189808 -0.10530511 0.13124722 8.7647982e-39
0.97439808 -0.11030511 0.13124722 1.5112139e-38
0.97439808 -0.10780511 0.13124722 1.3913596e-38
0.97939807 -0.11030511 0.12874721 1.483771e-38
0.97939807 -0.10530511 0.12374721 1.1434148e-38
0.97939807 -0.10780511 0.12874721 1.4005066e-38
0.97939807 -0.10530511 0.12624721 1.0516158e-38
0.97939807 -0.10530511 0.12874721 1.1345177e-38
0.98189807 -0.10780511 0.12874721 9.5012674e-39
0.98189807 -0.10530511 0.12874721 1.1068595e-38
0.98439807 -0.11030511 0.12874721 1.5198609e-38
0.98689806 -0.11030511 0.12624721 1.4923453e-38
0.98439807 -0.10780511 0.12624721 9.593463e-39
0.98439807 -0.10780511 0.12874721 8.2144943e-39
0.98439807 -0.10530511 0.12624721 1.0884202e-38
0.98439807 -0.10530511 0.12874721 9.4130375e-39
0.98689806 -0.10780511 0.12624721 8.1215798e-39
0.98689806 -0.10530511 0.12624721 9.3197642e-39
0.97939807 -0.10780511 0.13124722 1.492345e-38
0.98689806 -0.10280511 0.11874722 4.2551437e-39
0.98689806 -0.10030511 0.11624721 3.5208128e-39
0.98689806 -0.10030511 0.11874722 3.1505884e-39
0.98689806 -0.097805113 0.11624721 1.233563e-41
0.98689806 -0.097805113 0.11874722 1.4486624e-41
0.97189808 -0.10280511 0.12374721 9.598177e-39
0.97189808 -0.10280511 0.12624721 8.40394e-39
0.97439808 -0.10280511 0.12374721 8.0358834e-39
0.97439808 -0.10030511 0.12374721 7.0166994e-39
0.97689807 -0.10280511 0.12374721 7.7618146e-39
0.97689807 -0.10030511 0.12374721 4.0714713e-39
0.97689807 -0.10280511 0.12624721 9.2304385e-39
0.97939807 -0.10280511 0.12374721 9.0464256e-39
0.97939807 -0.10030511 0.12374721 4.344796e-39
0.98189807 -0.10280511 0.12124722 8.3106696e-39
0.98189807 -0.10280511 0.12374721 4.4373643e-39
0.97939807 -0.10280511 0.12624721 9.229735e-39
0.98189807 -0.10280511 0.12624721 3.6090428e-39
0.98189807 -0.10280511 0.12874721 8.8645496e-39
0.98439807 -0.10280511 0.12124722 4.8972635e-39
0.98439807 -0.10280511 0.12374721 4.6199535e-39
0.98439807 -0.10030511 0.12124722 3.0576725e-39
0.98439807 -0.10280511 0.12624721 8.6805185e-39
0.98439807 -0.10280511 0.12874721 6.1962868e-39
0.98689806 -0.10280511 0.12624721 2.5952468e-39
0.99189806 -0.10780511 0.12624721 7.7538735e-39
0.99189806 -0.10530511 0.12624721 8.9520579e-39
0.99689806 -0.11030511 0.12374721 1.363702e-38
0.99439806 -0.11030511 0.12624721 1.3728864e-38
0.99689806 -0.11030511 0.12624721 1.0230165e-38
0.99439806 -0.10780511 0.12374721 8.6743976e-39
0.99439806 -0.10530511 0.12374721 9.4119627e-39
0.99689806 -0.10780511 0.12374721 8.1222958e-39
0.99689806 -0.10530511 0.12374721 8.9520579e-39
0.99439806 -0.10780511 0.12624721 7.7538679e-39
0.99439806 -0.10530511 0.12624721 8.9524096e-39
0.99689806 -0.10780511 0.12624721 7.1121166e-39
0.99689806 -0.10780511 0.12874721 8.4914483e-39
0.99689806 -0.10530511 0.12624721 7.019921e-39
0.99689806 -0.10530511 0.12874721 7.7538833e-39
1.0018981 -0.11030511 0.12374721 1.3728144e-38
0.99939805 -0.11030511 0.12624721 1.0598236e-38
0.99939805 -0.11030511 0.12874721 1.0598961e-38
1.0018981 -0.10780511 0.12374721 7.7535175e-39
0.99939805 -0.10780511 0.12624721 6.9270163e-39
0.99939805 -0.10780511 0.12874721 8.1233945e-39
0.99939805 -0.10530511 0.12624721 6.7426236e-39
0.99939805 -0.10530511 0.12874721 6.3723837e-39
1.0018981 -0.10780511 0.12874721 5.6341097e-39
1.0018981 -0.10530511 0.12874721 4.6199563e-39
1.0043981 -0.11030511 0.12624721 1.022911e-38
1.0043981 -0.10780511 0.12624721 7.8457286e-39
1.0043981 -0.10780511 0.12874721 5.4518722e-39
1.0043981 -0.10530511 0.12624721 6.3734684e-39
1.0043981 -0.10530511 0.12874721 4.253329e-39
1.0018981 -0.10530511 0.13124722 2.9643768e-39
0.99689806 -0.097805113 0.10374722 1.3050293e-41
0.99689806 -0.095305108 0.10374722 1.9960235e-40
0.99689806 -0.097805113 0.10874721 5.6513106e-40
0.99689806 -0.095305108 0.10874721 1.7633155e-39
0.98939806 -0.10030511 0.11874722 3.2424155e-39
0.99189806 -0.10030511 0.11624721 2.5995628e-39
0.98939806 -0.097805113 0.11874722 1.0740392e-40
0.99189806 -0.097805113 0.11624721 1.448242e-41
0.99189806 -0.097805113 0.11874722 5.6766461e-40
0.99689806 -0.10030511 0.11374722 3.3371348e-39
0.99439806 -0.097805113 0.11124722 1.3773363e-41
0.99689806 -0.097805113 0.11124722 1.1179489e-39
0.99689806 -0.097805113 0.11374722 1.3041885e-41
0.99689806 -0.095305108 0.11124722 1.8555139e-39
0.99689806 -0.095305108 0.11374722 2.4969331e-39
0.99439806 -0.097805113 0.11874722 2.038829e-39
0.99439806 -0.095305108 0.11874722 2.4079717e-39
0.99689806 -0.097805113 0.11624721 2.128861e-39
0.99689806 -0.095305108 0.11624721 2.2232217e-39
0.99689806 -0.09280511 0.11124722 1.5800215e-39
0.99689806 -0.090305112 0.11124722 1.5800215e-39
0.99689806 -0.087805107 0.11124722 2.1310288e-39
0.99689806 -0.08530511 0.11124722 1.8569629e-39
1.0018981 -0.10030511 0.10124721 3.4246641e-39
1.0018981 -0.10030511 0.10374722 1.5585242e-41
1.0018981 -0.10030511 0.10624722 1.4122286e-41
0.99939805 -0.097805113 0.10124721 5.665772e-40
0.99939805 -0.095305108 0.10124721 3.8218594e-40
1.0018981 -0.097805113 0.10124721 7.5060833e-40
1.0018981 -0.097805113 0.10374722 1.482854e-41
1.0018981 -0.095305108 0.10374722 2.910553e-40
0.99939805 -0.097805113 0.10624722 4.725767e-40
0.99939805 -0.095305108 0.10624722 1.5789243e-39
1.0043981 -0.10030511 0.10124721 2.134654e-39
1.006898 -0.10030511 0.10124721 1.3059723e-39
0.99939805 -0.095305108 0.11124722 2.1310288e-39
0.99939805 -0.095305108 0.11374722 2.6816817e-39
0.99939805 -0.097805113 0.11874722 2.4987352e-39
0.99939805 -0.095305108 0.11874722 2.2232273e-39
0.99939805 -0.09280511 0.10124721 1.5789271e-39
0.99939805 -0.090305112 0.10124721 2.0384759e-39
1.0018981 -0.09280511 0.10374722 1.5785739e-39
1.0018981 -0.090305112 0.10374722 2.0384759e-39
0.99939805 -0.09280511 0.10624722 2.0388318e-39
0.99939805 -0.090305112 0.10624722 2.0388318e-39
1.0018981 -0.09280511 0.10874721 1.6722157e-39
1.0018981 -0.090305112 0.10874721 1.6722157e-39
0.99939805 -0.087805107 0.10124721 2.0384759e-39
0.99939805 -0.08530511 0.10124721 1.9459271e-39
1.0018981 -0.087805107 0.10124721 2.0381228e-39
1.0018981 -0.087805107 0.10374722 2.1306729e-39
1.0018981 -0.08530511 0.10124721 1.5796655e-39
1.0018981 -0.08530511 0.10374722 1.5796655e-39
0.99939805 -0.087805107 0.10624722 2.0388318e-39
0.99939805 -0.08530511 0.10624722 1.5796655e-39
1.0018981 -0.087805107 0.10874721 1.5800187e-39
1.0018981 -0.08530511 0.10624722 1.4878258e-39
1.0018981 -0.08530511 0.10874721 1.4878258e-39
1.0043981 -0.09280511 0.10124721 2.0388318e-39
1.0043981 -0.08530511 0.10124721 1.8551776e-39
0.99939805 -0.09280511 0.11124722 1.5792998e-39
0.99939805 -0.09280511 0.11374722 2.2221525e-39
0.99939805 -0.090305112 0.11124722 1.9480823e-39
0.99939805 -0.090305112 0.11374722 2.4983792e-39
1.0018981 -0.09280511 0.11124722 2.1306785e-39
1.0018981 -0.090305112 0.11124722 1.6725716e-39
0.99939805 -0.09280511 0.11624721 2.1306729e-39
0.99939805 -0.09280511 0.11874722 2.3154229e-39
0.99939805 -0.090305112 0.11624721 2.3154229e-39
0.99939805 -0.090305112 0.11874722 2.2232273e-39
1.0018981 -0.09280511 0.11624721 2.2232273e-39
1.0018981 -0.09280511 0.11874722 2.3157732e-39
1.0018981 -0.090305112 0.11624721 2.2232273e-39
1.0018981 -0.090305112 0.11874722 2.040278e-39
0.99939805 -0.087805107 0.11124722 1.6725688e-39
0.99939805 -0.087805107 0.11374722 1.6725688e-39
0.99939805 -0.08530511 0.11124722 1.6725716e-39
0.99939805 -0.08530511 0.11374722 1.6725716e-39
1.0018981 -0.087805107 0.11124722 1.6725716e-39
1.0018981 -0.08530511 0.11124722 1.6722157e-39
0.99939805 -0.087805107 0.11624721 2.2232273e-39
0.99939805 -0.087805107 0.11874722 2.1324708e-39
0.99939805 -0.08530511 0.11624721 2.1310288e-39
1.0018981 -0.087805107 0.11624721 2.3154229e-39
1.0018981 -0.087805107 0.11874722 1.9480823e-39
1.0018981 -0.08530511 0.11624721 1.7647673e-39
1.0018981 -0.08530511 0.11874722 1.9480823e-39
1.0043981 -0.08530511 0.11374722 1.4878258e-39
1.0043981 -0.08530511 0.11624721 1.8566098e-39
1.006898 -0.08530511 0.11624721 1.7644141e-39
0.98939806 -0.10030511 0.12124722 2.8725568e-39
0.98939806 -0.10030511 0.12374721 1.2076432e-39
0.99189806 -0.10030511 0.12374721 1.1165294e-39
0.99189806 -0.10280511 0.12624721 1.7022974e-41
0.99189806 -0.097805113 0.12124722 1.5782208e-39
0.99189806 -0.097805113 0.12374721 2.498382e-39
0.99439806 -0.10280511 0.12374721 1.6298502e-41
0.99439806 -0.10030511 0.12374721 1.4845888e-39
0.99689806 -0.10280511 0.12374721 1.7357884e-41
0.99689806 -0.10030511 0.12374721 2.0352431e-39
0.99439806 -0.10280511 0.12624721 1.7376101e-41
0.99439806 -0.10030511 0.12624721 1.8519196e-39
0.99689806 -0.097805113 0.12124722 2.4076185e-39
0.99689806 -0.097805113 0.12374721 2.6827733e-39
0.99689806 -0.095305108 0.12124722 2.5909308e-39
0.99689806 -0.095305108 0.12374721 2.6831264e-39
1.0018981 -0.10280511 0.12374721 1.584692e-39
1.0018981 -0.10030511 0.12374721 3.2337793e-39
0.99939805 -0.10280511 0.12624721 3.8903829e-40
0.99939805 -0.10280511 0.12874721 4.7125023e-39
0.99939805 -0.10030511 0.12624721 3.6022059e-39
0.99939805 -0.10030511 0.12874721 5.5386672e-39
1.0018981 -0.10280511 0.12874721 5.4479065e-39
0.99939805 -0.097805113 0.12124722 2.6834796e-39
0.99939805 -0.095305108 0.12124722 2.5909336e-39
1.0018981 -0.097805113 0.12374721 3.4185307e-39
1.0018981 -0.095305108 0.12374721 2.6831264e-39
0.99939805 -0.097805113 0.12624721 3.6947602e-39
0.99939805 -0.097805113 0.12874721 5.1702434e-39
0.99939805 -0.095305108 0.12624721 2.2250223e-39
1.0018981 -0.097805113 0.12874721 6.0010775e-39
1.0018981 -0.095305108 0.12874721 5.9106797e-39
1.0043981 -0.10280511 0.12624721 4.4373601e-39
1.0043981 -0.10280511 0.12874721 6.1858219e-39
1.0043981 -0.10030511 0.12624721 5.6315719e-39
1.0043981 -0.10030511 0.12874721 5.2635068e-39
1.0043981 -0.097805113 0.12624721 5.8159632e-39
1.0043981 -0.097805113 0.12874721 6.2780175e-39
1.0043981 -0.095305108 0.12624721 3.6076065e-39
1.0043981 -0.095305108 0.12874721 6.1854659e-39
1.0018981 -0.10280511 0.13124722 4.6195878e-39
1.0018981 -0.097805113 0.13374722 8.7412998e-42
1.0018981 -0.095305108 0.13124722 5.7255668e-39
1.0018981 -0.095305108 0.13374722 9.4713763e-42
1.006898 -0.10280511 0.13124722 1.1629376e-41
1.006898 -0.10030511 0.13124722 1.0551777e-41
1.0043981 -0.097805113 0.13374722 1.5685154e-39
1.0043981 -0.095305108 0.13374722 1.5681637e-39
1.006898 -0.097805113 0.13124722 9.83151e-42
1.006898 -0.097805113 0.13374722 2.2142351e-39
1.006898 -0.095305108 0.13124722 9.1154465e-42
1.006898 -0.095305108 0.13374722 2.2063486e-39
1.0043981 -0.097805113 0.13624722 1.7512145e-38
1.0043981 -0.095305108 0.13624722 1.6959702e-38
1.006898 -0.097805113 0.13874722 2.2395591e-38
1.006898 -0.095305108 0.13874722 2.1656972e-38
0.99939805 -0.09280511 0.12124722 2.775678e-39
0.99939805 -0.090305112 0.12124722 2.775678e-39
1.0018981 -0.09280511 0.12374721 2.6831264e-39
1.0018981 -0.090305112 0.12374721 2.6831264e-39
1.0018981 -0.09280511 0.12874721 5.4500547e-39
1.0018981 -0.090305112 0.12874721 6.2780175e-39
0.99939805 -0.087805107 0.12124722 2.590928e-39
1.0018981 -0.087805107 0.12374721 2.6831264e-39
1.0043981 -0.090305112 0.12124722 2.5909336e-39
1.0043981 -0.090305112 0.12374721 2.6827733e-39
1.0043981 -0.09280511 0.12624721 3.6072533e-39
1.0043981 -0.09280511 0.12874721 5.0820107e-39
1.0043981 -0.090305112 0.12624721 2.8696883e-39
1.0043981 -0.090305112 0.12874721 5.9106741e-39
1.0043981 -0.087805107 0.12124722 2.1324736e-39
1.0043981 -0.087805107 0.12374721 2.5005358e-39
1.0043981 -0.08530511 0.12124722 2.040278e-39
1.0043981 -0.08530511 0.12374721 2.7753221e-39
1.0043981 -0.087805107 0.12624721 2.2275559e-39
1.0043981 -0.087805107 0.12874721 5.7277276e-39
1.0043981 -0.08530511 0.12624721 1.031884e-39
1.0043981 -0.08530511 0.12874721 4.3509168e-39
1.006898 -0.08530511 0.12624721 1.3084737e-39
1.0018981 -0.09280511 0.13124722 5.5415245e-39
1.0018981 -0.09280511 0.13374722 1.1258032e-41
1.0018981 -0.090305112 0.13124722 5.5411685e-39
1.0018981 -0.090305112 0.13374722 8.037848e-42
1.0043981 -0.09280511 0.13374722 8.2915671e-40
1.0043981 -0.090305112 0.13374722 1.1057422e-39
1.006898 -0.09280511 0.13124722 1.0195848e-41
1.006898 -0.09280511 0.13374722 1.2915824e-39
1.006898 -0.090305112 0.13124722 1.0537764e-41
1.006898 -0.090305112 0.13374722 1.4756135e-39
1.0043981 -0.09280511 0.13624722 1.6590564e-38
1.0043981 -0.090305112 0.13624722 1.6129586e-38
1.006898 -0.09280511 0.13874722 2.1379307e-38
1.006898 -0.090305112 0.13874722 2.1287111e-38
1.006898 -0.087805107 0.13124722 1.1993714e-41
1.006898 -0.087805107 0.13374722 1.9134871e-40
1.006898 -0.08530511 0.13124722 1.4867777e-41
1.006898 -0.08530511 0.13374722 8.3881726e-42
1.0043981 -0.087805107 0.13624722 1.4656622e-38
1.0043981 -0.08530511 0.13624722 1.3552793e-38
1.006898 -0.087805107 0.13874722 2.0274038e-38
1.006898 -0.08530511 0.13874722 1.9168765e-38
1.0018981 -0.080305107 0.068747215 1.7626121e-39
1.0018981 -0.077805109 0.068747215 1.9459271e-39
1.0043981 -0.082805112 0.068747215 2.1310288e-39
1.0043981 -0.080305107 0.068747215 2.1310288e-39
1.0043981 -0.077805109 0.068747215 1.7644141e-39
1.0043981 -0.075305112 0.068747215 2.2221553e-39
1.0018981 -0.082805112 0.07124722 2.2232273e-39
1.0018981 -0.080305107 0.07124722 2.2232273e-39
1.0018981 -0.082805112 0.076247215 1.5778677e-39
1.0018981 -0.082805112 0.078747213 1.3956302e-39
1.0018981 -0.080305107 0.076247215 1.670422e-39
1.0018981 -0.080305107 0.078747213 1.4878258e-39
1.0018981 -0.077805109 0.07124722 2.1306785e-39
1.0018981 -0.075305112 0.07124722 1.6722213e-39
1.0018981 -0.077805109 0.076247215 1.5796655e-39
1.0018981 -0.077805109 0.078747213 1.5796655e-39
1.0018981 -0.075305112 0.078747213 1.8555336e-39
1.0043981 -0.082805112 0.07124722 2.1306729e-39
1.0043981 -0.082805112 0.073747218 2.0384759e-39
1.0043981 -0.080305107 0.07124722 2.1306729e-39
1.0043981 -0.080305107 0.073747218 2.1306729e-39
1.0043981 -0.082805112 0.076247215 2.0381228e-39
1.0043981 -0.080305107 0.076247215 2.0381228e-39
1.006898 -0.082805112 0.076247215 1.9459299e-39
1.006898 -0.080305107 0.076247215 2.0381256e-39
1.0043981 -0.077805109 0.07124722 1.5800215e-39
1.0043981 -0.077805109 0.073747218 2.1306785e-39
1.0043981 -0.075305112 0.07124722 1.5796655e-39
1.0043981 -0.075305112 0.073747218 1.8555336e-39
1.006898 -0.077805109 0.07124722 2.1306785e-39
1.006898 -0.075305112 0.07124722 1.5796655e-39
1.006898 -0.075305112 0.073747218 1.5796655e-39
1.0043981 -0.077805109 0.076247215 1.6722185e-39
1.0043981 -0.075305112 0.076247215 1.489272e-39
1.006898 -0.077805109 0.076247215 2.1306785e-39
1.006898 -0.075305112 0.076247215 1.3059569e-39
1.006898 -0.075305112 0.078747213 1.6722213e-39
1.0043981 -0.072805107 0.068747215 2.498382e-39
1.0043981 -0.070305109 0.068747215 2.1324764e-39
1.0043981 -0.067805111 0.068747215 2.0402808e-39
1.0043981 -0.065305106 0.068747215 2.0402808e-39
1.0018981 -0.070305109 0.07124722 1.6722213e-39
1.0018981 -0.072805107 0.078747213 1.947732e-39
1.0018981 -0.070305109 0.078747213 1.1215643e-39
1.0043981 -0.072805107 0.07124722 1.6722213e-39
1.0043981 -0.072805107 0.073747218 1.9477292e-39
1.0043981 -0.070305109 0.07124722 2.0402808e-39
1.0043981 -0.070305109 0.073747218 1.4892692e-39
1.006898 -0.072805107 0.07124722 1.6722185e-39
1.006898 -0.070305109 0.07124722 2.0402808e-39
1.0043981 -0.072805107 0.076247215 1.489272e-39
1.0043981 -0.070305109 0.076247215 1.1215643e-39
1.006898 -0.072805107 0.076247215 1.3059569e-39
1.006898 -0.072805107 0.078747213 1.3059569e-39
1.006898 -0.070305109 0.076247215 1.1215643e-39
1.006898 -0.070305109 0.078747213 1.0293686e-39
1.0043981 -0.067805111 0.07124722 1.7644169e-39
1.0043981 -0.067805111 0.073747218 1.3059569e-39
1.006898 -0.067805111 0.07124722 2.0399248e-39
1.006898 -0.067805111 0.073747218 1.1212111e-39
1.006898 -0.065305106 0.07124722 1.9477292e-39
1.006898 -0.065305106 0.073747218 1.0293686e-39
1.0043981 -0.067805111 0.076247215 1.1215671e-39
1.0043981 -0.065305106 0.076247215 1.6722213e-39
1.006898 -0.067805111 0.076247215 1.1215643e-39
1.006898 -0.067805111 0.078747213 1.1215643e-39
1.006898 -0.065305106 0.076247215 1.1215643e-39
1.006898 -0.065305106 0.078747213 1.0293686e-39
0.99939805 -0.082805112 0.081247218 1.5800215e-39
0.99939805 -0.080305107 0.081247218 2.0381228e-39
1.0018981 -0.082805112 0.083747216 2.1306785e-39
1.0018981 -0.080305107 0.083747216 2.1306729e-39
0.99939805 -0.082805112 0.086247213 2.0381256e-39
0.99939805 -0.082805112 0.088747218 1.4874755e-39
0.99939805 -0.080305107 0.086247213 2.0381228e-39
0.99939805 -0.080305107 0.088747218 2.1306785e-39
1.0018981 -0.082805112 0.086247213 1.5800215e-39
1.0018981 -0.080305107 0.086247213 1.5800215e-39
0.99939805 -0.077805109 0.081247218 1.8551776e-39
0.99939805 -0.075305112 0.081247218 1.3041773e-39
1.0018981 -0.077805109 0.083747216 1.5796655e-39
1.0018981 -0.075305112 0.083747216 1.5796655e-39
0.99939805 -0.077805109 0.086247213 1.3952743e-39
0.99939805 -0.077805109 0.088747218 1.5796655e-39
1.0018981 -0.077805109 0.086247213 1.4878258e-39
1.0018981 -0.075305112 0.086247213 1.5796655e-39
1.0043981 -0.082805112 0.081247218 1.5789495e-39
1.0043981 -0.080305107 0.081247218 1.947732e-39
1.006898 -0.080305107 0.083747216 2.0381256e-39
1.0043981 -0.082805112 0.088747218 1.5803746e-39
1.0043981 -0.080305107 0.088747218 1.6725716e-39
1.006898 -0.080305107 0.086247213 1.4874755e-39
1.0043981 -0.077805109 0.081247218 1.5796655e-39
1.0043981 -0.075305112 0.081247218 1.3059569e-39
1.006898 -0.077805109 0.083747216 1.4874699e-39
1.006898 -0.075305112 0.083747216 1.0290127e-39
1.0043981 -0.077805109 0.088747218 1.5796655e-39
1.0043981 -0.075305112 0.088747218 1.8551776e-39
1.006898 -0.077805109 0.086247213 1.5796655e-39
1.006898 -0.075305112 0.086247213 1.4874699e-39
1.0018981 -0.082805112 0.091247216 1.4878258e-39
1.0018981 -0.080305107 0.091247216 1.4878258e-39
1.0018981 -0.082805112 0.098747216 1.3956302e-39
1.0018981 -0.077805109 0.091247216 1.4874699e-39
1.0018981 -0.075305112 0.091247216 1.0290155e-39
1.0043981 -0.082805112 0.091247216 1.5785992e-39
1.0043981 -0.082805112 0.093747213 1.4874699e-39
1.0043981 -0.080305107 0.091247216 1.5785992e-39
1.0043981 -0.080305107 0.093747213 1.4874699e-39
1.0043981 -0.082805112 0.096247219 1.4874699e-39
1.0043981 -0.080305107 0.096247219 1.3952743e-39
1.006898 -0.082805112 0.098747216 1.6722185e-39
1.006898 -0.080305107 0.098747216 1.4874699e-39
1.0043981 -0.077805109 0.091247216 1.5796655e-39
1.0043981 -0.077805109 0.093747213 1.4874727e-39
1.0043981 -0.075305112 0.091247216 1.0290127e-39
1.0043981 -0.075305112 0.093747213 1.3952743e-39
1.0043981 -0.077805109 0.096247219 1.4874699e-39
1.0043981 -0.075305112 0.096247219 1.0290155e-39
1.006898 -0.077805109 0.098747216 1.0293658e-39
1.0018981 -0.072805107 0.086247213 1.4874699e-39
1.0018981 -0.070305109 0.086247213 1.0293686e-39
1.0018981 -0.067805111 0.086247213 1.0290155e-39
1.0043981 -0.072805107 0.081247218 1.1215643e-39
1.0043981 -0.070305109 0.081247218 1.0293686e-39
1.006898 -0.072805107 0.083747216 1.0290127e-39
1.006898 -0.070305109 0.083747216 1.1215643e-39
1.0043981 -0.072805107 0.088747218 9.3681707e-40
1.0043981 -0.070305109 0.088747218 1.5785992e-39
1.006898 -0.072805107 0.086247213 1.5796655e-39
1.006898 -0.070305109 0.086247213 1.5796655e-39
1.0043981 -0.067805111 0.081247218 1.1215643e-39
1.006898 -0.067805111 0.083747216 1.5796655e-39
1.006898 -0.065305106 0.083747216 1.0290127e-39
1.0043981 -0.067805111 0.088747218 1.5796655e-39
1.006898 -0.067805111 0.086247213 1.5796655e-39
1.006898 -0.065305106 0.086247213 1.5796655e-39
1.0018981 -0.072805107 0.091247216 1.7629806e-39
1.0018981 -0.070305109 0.091247216 1.4874699e-39
1.0018981 -0.072805107 0.098747216 9.3681987e-40
1.0018981 -0.070305109 0.098747216 1.3952743e-39
1.0018981 -0.067805111 0.091247216 1.3952771e-39
1.0043981 -0.072805107 0.093747213 1.4874699e-39
1.0043981 -0.070305109 0.093747213 1.3952743e-39
1.0043981 -0.072805107 0.096247219 9.3681987e-40
1.0043981 -0.070305109 0.096247219 1.3952743e-39
1.0043981 -0.067805111 0.091247216 1.0290127e-39
1.0043981 -0.067805111 0.093747213 1.4874699e-39
1.0043981 -0.065305106 0.091247216 1.0290127e-39
1.0043981 -0.065305106 0.093747213 1.3952771e-39
1.006898 -0.067805111 0.091247216 1.4874699e-39
1.006898 -0.067805111 0.093747213 1.4874699e-39
1.006898 -0.065305106 0.091247216 1.4874699e-39
1.006898 -0.065305106 0.093747213 1.4874699e-39
1.0043981 -0.067805111 0.096247219 1.4874699e-39
1.0043981 -0.065305106 0.096247219 1.4874699e-39
1.006898 -0.067805111 0.098747216 1.0293686e-39
1.006898 -0.065305106 0.096247219 1.3952771e-39
1.006898 -0.065305106 0.098747216 9.3681707e-40
1.0043981 -0.062805109 0.068747215 1.3059569e-39
1.0043981 -0.060305107 0.068747215 1.1215643e-39
1.0043981 -0.05780511 0.068747215 1.1215671e-39
1.006898 -0.062805109 0.07124722 1.2137613e-39
1.006898 -0.062805109 0.073747218 1.1212111e-39
1.006898 -0.060305107 0.07124722 1.0293686e-39
1.006898 -0.060305107 0.073747218 1.0290155e-39
1.0043981 -0.062805109 0.076247215 1.4874755e-39
1.006898 -0.062805109 0.076247215 1.1215643e-39
1.006898 -0.062805109 0.078747213 1.1212111e-39
1.006898 -0.060305107 0.076247215 1.1215643e-39
1.006898 -0.060305107 0.078747213 1.0290155e-39
1.006898 -0.05780511 0.07124722 1.1215643e-39
1.006898 -0.05780511 0.073747218 1.1215643e-39
1.006898 -0.055305108 0.07124722 1.4874755e-39
1.006898 -0.055305108 0.073747218 1.1215671e-39
1.006898 -0.05780511 0.076247215 1.0290155e-39
1.006898 -0.05780511 0.078747213 9.3681987e-40
1.006898 -0.055305108 0.076247215 1.3949212e-39
1.006898 -0.055305108 0.078747213 7.5350761e-40
1.006898 -0.052805111 0.07124722 1.0290155e-39
1.006898 -0.052805111 0.073747218 1.0290127e-39
1.006898 -0.050305109 0.073747218 1.3952771e-39
1.006898 -0.052805111 0.076247215 1.3949212e-39
1.006898 -0.052805111 0.078747213 5.6875762e-40
1.006898 -0.050305109 0.076247215 8.4391518e-40
1.006898 -0.050305109 0.078747213 1.1194105e-39
1.006898 -0.047805108 0.073747218 6.6095325e-40
1.006898 -0.045305111 0.073747218 5.6875762e-40
1.006898 -0.047805108 0.078747213 9.350192e-40
1.006898 -0.045305111 0.078747213 1.0272148e-39
1.0018981 -0.05780511 0.086247213 1.2119746e-39
1.0018981 -0.055305108 0.086247213 8.4570044e-40
1.006898 -0.060305107 0.083747216 9.3681707e-40
1.006898 -0.062805109 0.086247213 1.4874699e-39
1.006898 -0.060305107 0.086247213 1.4874699e-39
1.006898 -0.05780511 0.083747216 9.3681987e-40
1.006898 -0.055305108 0.083747216 1.3952771e-39
1.0043981 -0.05780511 0.088747218 1.3952771e-39
1.0043981 -0.055305108 0.088747218 1.211246e-39
1.006898 -0.05780511 0.086247213 1.3952771e-39
1.006898 -0.055305108 0.086247213 1.3952771e-39
1.0043981 -0.062805109 0.091247216 8.4462144e-40
1.0043981 -0.060305107 0.091247216 9.3681987e-40
1.0043981 -0.060305107 0.093747213 9.3681707e-40
1.006898 -0.062805109 0.091247216 1.211962e-39
1.006898 -0.062805109 0.093747213 1.3952771e-39
1.006898 -0.060305107 0.091247216 1.1197664e-39
1.006898 -0.060305107 0.093747213 1.3952771e-39
1.0043981 -0.062805109 0.096247219 1.0290127e-39
1.0043981 -0.060305107 0.096247219 9.3681707e-40
1.006898 -0.062805109 0.096247219 9.3646955e-40
1.006898 -0.062805109 0.098747216 9.3681987e-40
1.006898 -0.060305107 0.096247219 8.4391518e-40
1.006898 -0.060305107 0.098747216 9.3681987e-40
1.0043981 -0.05780511 0.091247216 1.3952771e-39
1.0043981 -0.05780511 0.093747213 9.3681707e-40
1.0043981 -0.055305108 0.091247216 1.3952771e-39
1.0043981 -0.055305108 0.093747213 7.5350201e-40
1.006898 -0.05780511 0.091247216 1.3952771e-39
1.006898 -0.05780511 0.093747213 1.3952771e-39
1.006898 -0.055305108 0.091247216 1.2119648e-39
1.006898 -0.055305108 0.093747213 7.5350481e-40
1.0043981 -0.05780511 0.096247219 9.3681707e-40
1.0043981 -0.055305108 0.096247219 7.5350201e-40
1.006898 -0.05780511 0.096247219 1.3952771e-39
1.006898 -0.05780511 0.098747216 6.6130918e-40
1.006898 -0.055305108 0.096247219 1.1190475e-39
1.006898 -0.055305108 0.098747216 1.1194105e-39
1.006898 -0.052805111 0.083747216 1.3952771e-39
1.0043981 -0.052805111 0.088747218 1.0268617e-39
1.006898 -0.052805111 0.086247213 1.3952771e-39
1.006898 -0.050305109 0.086247213 1.0272148e-39
1.006898 -0.047805108 0.086247213 6.6095325e-40
1.006898 -0.045305111 0.086247213 5.6875762e-40
1.0043981 -0.052805111 0.091247216 1.3952771e-39
1.006898 -0.052805111 0.091247216 1.1194105e-39
1.006898 -0.052805111 0.093747213 6.6130918e-40
1.006898 -0.050305109 0.091247216 5.6875762e-40
1.006898 -0.050305109 0.093747213 6.6130638e-40
1.0043981 -0.052805111 0.096247219 1.3952771e-39
1.0043981 -0.050305109 0.096247219 1.1194105e-39
1.006898 -0.052805111 0.096247219 1.3952743e-39
1.006898 -0.052805111 0.098747216 1.0272148e-39
1.006898 -0.050305109 0.096247219 6.6166231e-40
1.006898 -0.050305109 0.098747216 4.7691512e-40
1.0043981 -0.047805108 0.091247216 6.6130918e-40
1.0043981 -0.045305111 0.091247216 6.6130918e-40
1.006898 -0.047805108 0.091247216 5.6875762e-40
1.006898 -0.047805108 0.093747213 6.6130918e-40
1.006898 -0.045305111 0.091247216 4.7656199e-40
1.006898 -0.045305111 0.093747213 6.6130918e-40
1.0043981 -0.047805108 0.096247219 1.2116089e-39
1.006898 -0.047805108 0.096247219 5.6911075e-40
1.006898 -0.047805108 0.098747216 4.7691792e-40
1.006898 -0.045305111 0.096247219 6.6130638e-40
1.006898 -0.045305111 0.098747216 6.6130918e-40
0.99689806 -0.082805112 0.11124722 1.6725716e-39
1.0018981 -0.082805112 0.10124721 1.4874699e-39
1.0018981 -0.082805112 0.10374722 1.3952743e-39
1.0018981 -0.080305107 0.10124721 1.4874699e-39
0.99939805 -0.082805112 0.10624722 1.4874699e-39
1.0018981 -0.082805112 0.10624722 1.5796655e-39
1.0018981 -0.082805112 0.10874721 1.5800215e-39
1.0018981 -0.080305107 0.10624722 1.3952771e-39
1.0018981 -0.080305107 0.10874721 1.4874699e-39
1.0018981 -0.077805109 0.10124721 1.4874727e-39
1.0018981 -0.075305112 0.10124721 1.3952771e-39
1.0018981 -0.075305112 0.10374722 9.37173e-40
1.0018981 -0.077805109 0.10624722 1.3949212e-39
1.0018981 -0.077805109 0.10874721 2.0384759e-39
1.0018981 -0.075305112 0.10624722 1.3949212e-39
1.0018981 -0.075305112 0.10874721 1.670422e-39
1.0043981 -0.082805112 0.10124721 1.5796655e-39
1.0043981 -0.080305107 0.10124721 1.4874699e-39
1.0043981 -0.080305107 0.10374722 1.3952743e-39
1.006898 -0.080305107 0.10124721 1.5800215e-39
1.0043981 -0.077805109 0.10124721 1.4874699e-39
1.0043981 -0.077805109 0.10374722 1.3949212e-39
1.0043981 -0.075305112 0.10124721 1.4874699e-39
1.0043981 -0.075305112 0.10374722 1.3949212e-39
1.006898 -0.075305112 0.10374722 1.1194105e-39
1.0043981 -0.077805109 0.10874721 1.5796655e-39
1.0043981 -0.075305112 0.10874721 1.5796655e-39
0.99939805 -0.082805112 0.11124722 1.6725716e-39
0.99939805 -0.082805112 0.11374722 1.6725716e-39
1.0018981 -0.082805112 0.11124722 1.5800187e-39
1.0018981 -0.080305107 0.11124722 1.5800215e-39
0.99939805 -0.082805112 0.11624721 1.5800215e-39
0.99939805 -0.080305107 0.11624721 1.5800215e-39
1.0018981 -0.082805112 0.11624721 1.6722185e-39
1.0018981 -0.082805112 0.11874722 1.9480823e-39
1.0018981 -0.080305107 0.11624721 1.6722185e-39
1.0018981 -0.080305107 0.11874722 1.6725716e-39
1.0018981 -0.077805109 0.11124722 1.5796655e-39
1.0018981 -0.075305112 0.11124722 1.5796655e-39
0.99939805 -0.077805109 0.11624721 1.6725716e-39
1.0018981 -0.077805109 0.11624721 1.6725716e-39
1.0043981 -0.082805112 0.11374722 2.1310288e-39
1.0043981 -0.080305107 0.11374722 1.6725716e-39
1.0043981 -0.082805112 0.11624721 1.6725716e-39
1.0043981 -0.080305107 0.11624721 1.8569629e-39
1.006898 -0.082805112 0.11624721 1.9480823e-39
1.006898 -0.082805112 0.11874722 2.040278e-39
1.006898 -0.080305107 0.11624721 2.040278e-39
1.006898 -0.080305107 0.11874722 2.040278e-39
1.0043981 -0.077805109 0.11374722 1.5796655e-39
1.0043981 -0.075305112 0.11374722 1.5796655e-39
1.006898 -0.075305112 0.11124722 1.5796683e-39
1.006898 -0.075305112 0.11374722 1.5796683e-39
1.0043981 -0.077805109 0.11624721 1.7644141e-39
1.0043981 -0.075305112 0.11624721 1.6722185e-39
1.006898 -0.077805109 0.11624721 2.040278e-39
1.006898 -0.077805109 0.11874722 2.040278e-39
1.006898 -0.075305112 0.11624721 1.9480823e-39
1.006898 -0.075305112 0.11874722 2.040278e-39
1.0018981 -0.072805107 0.10124721 1.3952771e-39
1.0018981 -0.072805107 0.10374722 1.0293686e-39
1.0018981 -0.070305109 0.10124721 8.4461864e-40
1.0018981 -0.072805107 0.10624722 1.4874699e-39
1.0018981 -0.070305109 0.10624722 1.4874699e-39
1.0018981 -0.067805111 0.10124721 1.4874699e-39
1.0018981 -0.067805111 0.10374722 1.4878258e-39
1.0018981 -0.065305106 0.10124721 1.0290127e-39
1.0018981 -0.067805111 0.10624722 1.0293686e-39
1.0018981 -0.065305106 0.10624722 1.0293686e-39
1.0043981 -0.072805107 0.10124721 1.4874699e-39
1.0043981 -0.072805107 0.10374722 1.4874699e-39
1.0043981 -0.070305109 0.10124721 1.2119592e-39
1.0043981 -0.070305109 0.10374722 1.3045108e-39
1.006898 -0.072805107 0.10374722 1.1194105e-39
1.006898 -0.070305109 0.10374722 1.4874699e-39
1.0043981 -0.072805107 0.10874721 1.4874699e-39
1.0043981 -0.070305109 0.10874721 1.5796655e-39
1.006898 -0.072805107 0.10624722 1.4874699e-39
1.006898 -0.070305109 0.10624722 1.4874699e-39
1.0043981 -0.067805111 0.10124721 1.027568e-39
1.0043981 -0.067805111 0.10374722 1.2123151e-39
1.0043981 -0.065305106 0.10124721 1.0293686e-39
