# .PCD v0.7 - Point Cloud Data file format
VERSION 0.7
FIELDS x y z rgb
SIZE 4 4 4 4
TYPE F F F F
COUNT 1 1 1 1
WIDTH 1005
HEIGHT 1
VIEWPOINT 0 0 0 1 0 0 0
POINTS 1005
DATA ascii
1.010579 -0.03467954 0.11575777 1.0740953e-40
1.010579 -0.03467954 0.11825778 1.2090908e-39
1.0130789 -0.037179541 0.11575777 4.5317208e-39
1.0130789 -0.037179541 0.11825778 5.266053e-39
1.0130789 -0.03467954 0.11575777 6.5986304e-40
1.0130789 -0.03467954 0.11825778 1.3016409e-39
1.0080789 -0.032179542 0.10075777 1.0275708e-39
1.0080789 -0.029679541 0.10075777 5.6911075e-40
1.0080789 -0.029679541 0.10825777 9.350164e-40
1.0080789 -0.027179541 0.10075777 5.6911075e-40
1.0080789 -0.027179541 0.10825777 1.0275708e-39
1.010579 -0.032179542 0.10075777 9.350164e-40
1.010579 -0.032179542 0.10325778 9.350164e-40
1.010579 -0.029679541 0.10075777 1.0275708e-39
1.010579 -0.029679541 0.10325778 9.3502201e-40
1.0130789 -0.032179542 0.10325778 1.1197664e-39
1.0130789 -0.029679541 0.10325778 9.350164e-40
1.010579 -0.032179542 0.10575777 1.3041577e-39
1.010579 -0.029679541 0.10575777 1.0275708e-39
1.0130789 -0.032179542 0.10825777 1.4874699e-39
1.0130789 -0.029679541 0.10825777 1.4874699e-39
1.010579 -0.027179541 0.10075777 9.3502201e-40
1.010579 -0.027179541 0.10325778 7.5098948e-40
1.010579 -0.024679542 0.10075777 6.5950991e-40
1.010579 -0.024679542 0.10325778 7.5170694e-40
1.0130789 -0.024679542 0.10325778 6.5915398e-40
1.010579 -0.027179541 0.10575777 1.0275708e-39
1.010579 -0.024679542 0.10575777 1.3938366e-39
1.0080789 -0.029679541 0.11075778 1.0275652e-39
1.0080789 -0.027179541 0.11075778 1.0275708e-39
1.0080789 -0.024679542 0.11075778 1.1197664e-39
1.010579 -0.032179542 0.11075778 3.8471809e-40
1.010579 -0.032179542 0.11325777 1.081326e-40
1.010579 -0.029679541 0.11075778 1.1197664e-39
1.010579 -0.029679541 0.11325777 1.0275708e-39
1.0130789 -0.032179542 0.11075778 1.4849532e-39
1.0130789 -0.029679541 0.11075778 1.9459299e-39
1.010579 -0.032179542 0.11575777 8.4210611e-40
1.010579 -0.032179542 0.11825778 6.5950991e-40
1.010579 -0.029679541 0.11575777 9.350164e-40
1.010579 -0.029679541 0.11825778 1.3952771e-39
1.0130789 -0.032179542 0.11575777 4.7726824e-40
1.0130789 -0.032179542 0.11825778 3.8435235e-40
1.0130789 -0.029679541 0.11575777 1.3952743e-39
1.0130789 -0.029679541 0.11825778 1.1219174e-39
1.010579 -0.027179541 0.11075778 1.0275708e-39
1.010579 -0.027179541 0.11325777 1.0275708e-39
1.010579 -0.024679542 0.11075778 1.1197664e-39
1.010579 -0.024679542 0.11325777 1.1197664e-39
1.010579 -0.027179541 0.11575777 1.0275708e-39
1.010579 -0.027179541 0.11825778 1.3952771e-39
1.010579 -0.024679542 0.11575777 1.1197664e-39
1.010579 -0.024679542 0.11825778 1.762968e-39
1.0130789 -0.027179541 0.11575777 1.4874699e-39
1.0130789 -0.027179541 0.11825778 1.487823e-39
1.0130789 -0.024679542 0.11575777 1.3045108e-39
1.005579 -0.04217954 0.12325777 0
1.0080789 -0.04217954 0.12075777 4.4841551e-44
1.0080789 -0.039679542 0.12075777 3.7822237e-39
1.005579 -0.04217954 0.12575777 3.1331688e-39
1.0080789 -0.04217954 0.12575777 8.6660165e-39
1.0080789 -0.04217954 0.12825777 9.1331505e-39
1.0080789 -0.039679542 0.12575777 8.8555323e-39
1.0080789 -0.039679542 0.12825777 1.0423931e-38
1.0080789 -0.037179541 0.12075777 9.1267242e-39
1.0080789 -0.03467954 0.12075777 1.21089e-39
1.0080789 -0.037179541 0.12575777 9.4083473e-39
1.0080789 -0.037179541 0.12825777 9.1331926e-39
1.010579 -0.04217954 0.12325777 3.2257218e-39
1.010579 -0.039679542 0.12325777 4.2424858e-39
1.010579 -0.04217954 0.12575777 8.3901554e-39
1.010579 -0.039679542 0.12575777 8.3020054e-39
1.0130789 -0.04217954 0.12575777 9.8681946e-39
1.0130789 -0.04217954 0.12825777 4.2551016e-39
1.0130789 -0.039679542 0.12575777 1.0699455e-38
1.0130789 -0.039679542 0.12825777 4.8986956e-39
1.010579 -0.037179541 0.12325777 8.3912891e-39
1.010579 -0.03467954 0.12325777 1.8519561e-39
1.0130789 -0.037179541 0.12075777 5.0831065e-39
1.0130789 -0.037179541 0.12325777 5.4493513e-39
1.0130789 -0.03467954 0.12075777 1.2105145e-39
1.0130789 -0.03467954 0.12325777 1.3927435e-39
1.010579 -0.037179541 0.12575777 5.913586e-39
1.010579 -0.03467954 0.12575777 9.3502201e-40
1.0130789 -0.037179541 0.12575777 6.4667444e-39
1.0130789 -0.037179541 0.12825777 4.7164525e-39
1.0130789 -0.03467954 0.12575777 3.0555061e-39
1.0130789 -0.03467954 0.12825777 4.0710831e-39
1.0080789 -0.04217954 0.13075778 4.2551016e-39
1.0080789 -0.039679542 0.13075778 4.622822e-39
1.0080789 -0.037179541 0.13075778 4.807572e-39
1.010579 -0.04217954 0.13075778 2.0449471e-39
1.010579 -0.039679542 0.13075778 2.5963216e-39
1.0130789 -0.04217954 0.13075778 2.4123031e-39
1.0130789 -0.039679542 0.13075778 2.9654586e-39
1.010579 -0.037179541 0.13075778 2.9651055e-39
1.0130789 -0.037179541 0.13075778 4.5284641e-39
1.0130789 -0.03467954 0.13075778 4.6206598e-39
1.0080789 -0.032179542 0.12075777 1.0268491e-39
1.010579 -0.032179542 0.12325777 8.4210331e-40
1.0130789 -0.032179542 0.12075777 9.3429613e-40
1.0130789 -0.032179542 0.12325777 7.4990487e-40
1.0130789 -0.029679541 0.12075777 1.5800215e-39
1.0130789 -0.029679541 0.12325777 1.3952771e-39
1.010579 -0.032179542 0.12575777 1.6682682e-39
1.0130789 -0.032179542 0.12575777 3.0537222e-39
1.0130789 -0.032179542 0.12825777 4.7128526e-39
1.0130789 -0.027179541 0.12075777 1.5800215e-39
1.0130789 -0.027179541 0.12325777 2.0381256e-39
1.0130789 -0.024679542 0.12075777 1.3967064e-39
1.0130789 -0.024679542 0.12325777 2.0381228e-39
1.015579 -0.054679539 0.13075778 1.1629376e-41
1.015579 -0.054679539 0.13325778 7.7434338e-39
1.015579 -0.052179541 0.13075778 1.3787376e-41
1.015579 -0.052179541 0.13325778 5.5390175e-39
1.015579 -0.04967954 0.13075778 1.1985306e-41
1.015579 -0.04967954 0.13325778 4.5252243e-39
1.015579 -0.047179542 0.13075778 1.1986707e-41
1.015579 -0.047179542 0.13325778 3.051553e-39
1.015579 -0.044679541 0.13075778 1.4867777e-41
1.015579 -0.044679541 0.13325778 1.7651358e-39
1.0180789 -0.044679541 0.13325778 1.4874727e-39
1.020579 -0.047179542 0.13325778 1.3646064e-38
1.020579 -0.044679541 0.13325778 1.2542241e-38
1.0230789 -0.047179542 0.13325778 1.3462396e-38
1.0230789 -0.044679541 0.13325778 1.2726629e-38
1.015579 -0.037179541 0.11075778 3.5150549e-39
1.015579 -0.037179541 0.11325777 4.4352316e-39
1.015579 -0.03467954 0.11075778 8.4138164e-40
1.015579 -0.03467954 0.11325777 8.4138164e-40
1.015579 -0.032179542 0.11075778 1.5782236e-39
1.015579 -0.032179542 0.11325777 9.3536953e-40
1.015579 -0.029679541 0.11075778 1.7626149e-39
1.015579 -0.029679541 0.11325777 1.1201195e-39
1.015579 -0.029679541 0.11575777 8.4605076e-40
1.015579 -0.03467954 0.12825777 4.2547681e-39
1.0180789 -0.037179541 0.12825777 4.8054056e-39
1.0180789 -0.03467954 0.12825777 4.5306137e-39
1.020579 -0.03467954 0.12825777 1.2706974e-41
1.015579 -0.04217954 0.13075778 1.1625172e-41
1.015579 -0.04217954 0.13325778 1.1197664e-39
1.015579 -0.039679542 0.13075778 1.3427242e-41
1.015579 -0.039679542 0.13325778 6.5880506e-40
1.0180789 -0.04217954 0.13325778 1.21089e-39
1.0180789 -0.039679542 0.13075778 1.5225108e-41
1.0180789 -0.039679542 0.13325778 1.2098138e-39
1.015579 -0.037179541 0.13075778 1.4867777e-41
1.015579 -0.037179541 0.13325778 1.9818564e-40
1.015579 -0.03467954 0.13075778 1.2713981e-41
1.0180789 -0.037179541 0.13075778 1.4144707e-41
1.0180789 -0.037179541 0.13325778 1.0528095e-40
1.0180789 -0.03467954 0.13075778 1.2709777e-41
1.0180789 -0.03467954 0.13325778 1.0930128e-41
1.020579 -0.04217954 0.13325778 1.2817027e-38
1.020579 -0.039679542 0.13325778 1.2724831e-38
1.0230789 -0.04217954 0.13325778 1.2542238e-38
1.0230789 -0.039679542 0.13325778 1.2724831e-38
1.020579 -0.037179541 0.13075778 2.8964979e-40
1.020579 -0.037179541 0.13325778 1.2540439e-38
1.020579 -0.03467954 0.13075778 2.8605967e-40
1.020579 -0.03467954 0.13325778 1.1435187e-38
1.0230789 -0.037179541 0.13325778 1.5212282e-38
1.0230789 -0.03467954 0.13325778 1.5303398e-38
1.015579 -0.029679541 0.12075777 1.5800215e-39
1.0180789 -0.029679541 0.12325777 2.8704044e-39
1.015579 -0.032179542 0.12575777 3.238468e-39
1.015579 -0.032179542 0.12825777 3.7051943e-39
1.015579 -0.029679541 0.12575777 2.7774955e-39
1.015579 -0.029679541 0.12825777 5.450419e-39
1.0180789 -0.032179542 0.12825777 5.0809163e-39
1.0180789 -0.029679541 0.12575777 5.1749238e-39
1.0180789 -0.029679541 0.12825777 5.1731119e-39
1.015579 -0.027179541 0.12575777 2.2246846e-39
1.015579 -0.027179541 0.12825777 5.2671222e-39
1.015579 -0.024679542 0.12575777 1.1230132e-39
1.015579 -0.024679542 0.12825777 3.8910079e-39
1.0180789 -0.027179541 0.12825777 5.7255822e-39
1.0180789 -0.024679542 0.12825777 4.9930338e-39
1.020579 -0.032179542 0.12825777 1.4143305e-41
1.020579 -0.029679541 0.12825777 1.2704172e-41
1.0180789 -0.029679541 0.13075778 1.2358051e-41
1.0180789 -0.029679541 0.13325778 1.0553179e-41
1.0180789 -0.027179541 0.13075778 1.4518853e-41
1.0180789 -0.027179541 0.13325778 1.343565e-41
1.0180789 -0.024679542 0.13075778 1.7021572e-41
1.0180789 -0.024679542 0.13325778 1.0930128e-41
1.020579 -0.032179542 0.13075778 1.1992312e-41
1.020579 -0.029679541 0.13075778 1.0911911e-41
1.020579 -0.029679541 0.13325778 1.0605795e-38
1.0230789 -0.032179542 0.13325778 1.1251151e-38
1.0230789 -0.029679541 0.13325778 1.10664e-38
1.020579 -0.027179541 0.13075778 1.1634981e-41
1.020579 -0.027179541 0.13325778 1.0237014e-38
1.020579 -0.024679542 0.13075778 3.8293003e-40
1.020579 -0.024679542 0.13325778 9.9604225e-39
1.0230789 -0.027179541 0.13325778 1.3828661e-38
1.0230789 -0.024679542 0.13325778 9.7778319e-39
1.0280789 -0.039679542 0.13325778 1.5120086e-38
1.0280789 -0.037179541 0.13325778 1.548779e-38
1.0280789 -0.03467954 0.13325778 1.5210852e-38
1.0280789 -0.032179542 0.13325778 1.4288916e-38
1.0280789 -0.029679541 0.13325778 1.4658409e-38
1.010579 -0.02217954 0.070757776 7.5098948e-40
1.010579 -0.02217954 0.073257774 6.5950991e-40
1.010579 -0.019679541 0.073257774 6.5950991e-40
1.0130789 -0.02217954 0.070757776 7.5098948e-40
1.0130789 -0.02217954 0.073257774 6.5950991e-40
1.0130789 -0.019679541 0.070757776 9.3358007e-40
1.0130789 -0.019679541 0.073257774 5.6731428e-40
1.010579 -0.02217954 0.078257769 1.0885427e-40
1.010579 -0.019679541 0.078257769 1.2094439e-39
1.0130789 -0.02217954 0.075757772 6.5950991e-40
1.0130789 -0.019679541 0.075757772 3.8292442e-40
1.0130789 -0.017179541 0.070757776 1.1176112e-39
1.0130789 -0.017179541 0.073257774 6.5986304e-40
1.0130789 -0.014679541 0.070757776 9.3358007e-40
1.0130789 -0.014679541 0.073257774 5.6730868e-40
1.010579 -0.017179541 0.078257769 3.8327755e-40
1.010579 -0.014679541 0.078257769 5.6730868e-40
1.0130789 -0.017179541 0.075757772 5.6731428e-40
1.0130789 -0.014679541 0.075757772 3.8292442e-40
1.0130789 -0.01217954 0.070757776 3.8435235e-40
1.0130789 -0.01217954 0.073257774 1.9924923e-40
1.0130789 -0.009679541 0.070757776 1.9960235e-40
1.0130789 -0.009679541 0.073257774 1.9924923e-40
1.010579 -0.01217954 0.078257769 3.8328035e-40
1.0130789 -0.01217954 0.075757772 2.907316e-40
1.0130789 -0.009679541 0.075757772 1.9853597e-40
1.0130789 -0.007179541 0.070757776 3.8292442e-40
1.0130789 -0.007179541 0.073257774 2.9072879e-40
1.0130789 -0.0046795406 0.070757776 7.4918601e-40
1.0130789 -0.0046795406 0.073257774 2.907316e-40
1.0130789 -0.007179541 0.075757772 2.9072879e-40
1.0130789 -0.0046795406 0.075757772 7.4883568e-40
1.010579 -0.02217954 0.083257772 1.0920739e-40
1.010579 -0.019679541 0.083257772 2.0069817e-40
1.0130789 -0.019679541 0.080757774 7.5098948e-40
1.0130789 -0.019679541 0.083257772 1.0850114e-40
1.010579 -0.02217954 0.08575777 5.6695835e-40
1.010579 -0.019679541 0.08575777 5.6731428e-40
1.0130789 -0.02217954 0.088257775 7.5098948e-40
1.0130789 -0.019679541 0.088257775 5.6731428e-40
1.010579 -0.017179541 0.083257772 6.5950991e-40
1.010579 -0.014679541 0.083257772 5.6731428e-40
1.0130789 -0.017179541 0.080757774 5.6730868e-40
1.0130789 -0.017179541 0.083257772 1.0885427e-40
1.0130789 -0.014679541 0.080757774 6.5986304e-40
1.0130789 -0.014679541 0.083257772 1.0885427e-40
1.010579 -0.017179541 0.08575777 1.6298502e-41
1.010579 -0.014679541 0.08575777 5.6731428e-40
1.0130789 -0.017179541 0.088257775 5.6731428e-40
1.0130789 -0.014679541 0.088257775 5.6731428e-40
1.0080789 -0.019679541 0.098257773 5.6731428e-40
1.0080789 -0.017179541 0.098257773 5.6731428e-40
1.010579 -0.02217954 0.09325777 1.0850114e-40
1.010579 -0.019679541 0.09325777 9.3502201e-40
1.010579 -0.02217954 0.098257773 6.5950991e-40
1.010579 -0.019679541 0.098257773 5.6730868e-40
1.0130789 -0.02217954 0.095757775 3.8436216e-40
1.0130789 -0.02217954 0.098257773 9.350164e-40
1.0130789 -0.019679541 0.095757775 2.010499e-40
1.0130789 -0.019679541 0.098257773 6.5986304e-40
1.010579 -0.017179541 0.09325777 5.6695835e-40
1.010579 -0.017179541 0.098257773 5.6731428e-40
1.010579 -0.014679541 0.098257773 2.9072879e-40
1.0130789 -0.017179541 0.095757775 7.5098668e-40
1.0130789 -0.017179541 0.098257773 7.5098387e-40
1.0130789 -0.014679541 0.095757775 7.5098668e-40
1.0130789 -0.014679541 0.098257773 9.350164e-40
1.010579 -0.01217954 0.083257772 5.6730868e-40
1.010579 -0.009679541 0.083257772 3.8292723e-40
1.0130789 -0.01217954 0.080757774 3.8399922e-40
1.0130789 -0.01217954 0.083257772 5.6730868e-40
1.0130789 -0.009679541 0.080757774 7.4918601e-40
1.0130789 -0.009679541 0.083257772 2.9072879e-40
1.010579 -0.01217954 0.08575777 2.907316e-40
1.010579 -0.009679541 0.08575777 2.9180359e-40
1.0130789 -0.01217954 0.088257775 3.8292442e-40
1.0130789 -0.009679541 0.088257775 3.8293003e-40
1.010579 -0.0046795406 0.083257772 1.9924923e-40
1.0130789 -0.007179541 0.083257772 2.9072879e-40
1.0130789 -0.0046795406 0.083257772 1.070536e-40
1.010579 -0.007179541 0.08575777 5.6695835e-40
1.010579 -0.0046795406 0.08575777 4.7367812e-40
1.0130789 -0.007179541 0.088257775 2.9037567e-40
1.0130789 -0.0046795406 0.088257775 1.9924923e-40
1.010579 -0.01217954 0.098257773 7.4918881e-40
1.0130789 -0.01217954 0.095757775 3.8293003e-40
1.0130789 -0.01217954 0.098257773 3.8292442e-40
1.0130789 -0.009679541 0.095757775 5.6730868e-40
1.0130789 -0.009679541 0.098257773 1.1179643e-39
1.0130789 -0.007179541 0.095757775 5.6695835e-40
1.0130789 -0.007179541 0.098257773 6.5844072e-40
1.0130789 -0.0046795406 0.098257773 5.6766461e-40
0.99557894 0.010320459 0.068257771 2.5009002e-39
0.99557894 0.012820459 0.068257771 2.1324764e-39
1.000579 0.0078204591 0.068257771 2.5927301e-39
1.000579 0.010320459 0.068257771 2.0402808e-39
1.000579 0.012820459 0.068257771 2.0402808e-39
1.000579 0.015320459 0.068257771 2.1324764e-39
0.99807894 0.010320459 0.070757776 2.1324764e-39
0.99807894 0.010320459 0.073257774 1.4878258e-39
0.99807894 0.012820459 0.070757776 2.0402808e-39
0.99807894 0.012820459 0.073257774 1.4878258e-39
1.0030789 0.0078204591 0.070757776 2.040278e-39
1.0030789 0.010320459 0.070757776 1.5796655e-39
1.0030789 0.012820459 0.070757776 1.4874699e-39
1.0030789 0.015320459 0.070757776 1.8555336e-39
1.005579 0.0053204591 0.068257771 2.3175907e-39
1.0130789 -0.0021795409 0.075757772 8.4103131e-40
1.005579 0.010320459 0.068257771 1.4878258e-39
1.005579 0.012820459 0.068257771 1.5800215e-39
1.0130789 0.0078204591 0.070757776 1.2094411e-39
1.010579 -0.0021795409 0.083257772 1.070536e-40
1.0130789 -0.0021795409 0.083257772 1.070536e-40
1.0130789 0.00032045916 0.083257772 4.7367531e-40
1.010579 -0.0021795409 0.08575777 4.7367812e-40
1.0130789 -0.0021795409 0.088257775 1.9924923e-40
1.0130789 0.00032045916 0.088257775 4.7367812e-40
1.0130789 0.0028204592 0.083257772 1.4855165e-41
1.0130789 0.0053204591 0.083257772 1.0740953e-40
1.0130789 0.0028204592 0.088257775 7.4953913e-40
1.0130789 0.0053204591 0.088257775 7.4953913e-40
1.010579 0.0053204591 0.09325777 8.4173757e-40
1.0130789 0.0053204591 0.095757775 5.6766461e-40
1.0080789 0.010320459 0.095757775 1.0275652e-39
1.0080789 0.010320459 0.098257773 9.3537233e-40
1.0080789 0.012820459 0.095757775 1.2123151e-39
1.0080789 0.012820459 0.098257773 1.1201195e-39
1.0080789 0.015320459 0.098257773 1.1219174e-39
1.010579 0.0078204591 0.09325777 1.1183174e-39
1.010579 0.010320459 0.09325777 7.51337e-40
1.010579 0.010320459 0.098257773 7.51337e-40
1.0130789 0.0078204591 0.095757775 1.2105145e-39
1.0130789 0.0078204591 0.098257773 5.6766461e-40
1.0130789 0.010320459 0.095757775 1.027568e-39
1.0130789 0.010320459 0.098257773 9.3536953e-40
1.010579 0.012820459 0.09325777 1.1201195e-39
1.010579 0.012820459 0.098257773 1.7626121e-39
1.010579 0.015320459 0.098257773 1.4878258e-39
1.0130789 0.012820459 0.095757775 1.027568e-39
1.0130789 0.012820459 0.098257773 1.2123151e-39
1.0130789 0.015320459 0.095757775 1.5800187e-39
1.0130789 0.015320459 0.098257773 1.487823e-39
1.015579 -0.02217954 0.070757776 7.5098668e-40
1.015579 -0.02217954 0.073257774 1.3016381e-39
1.015579 -0.019679541 0.070757776 5.6731428e-40
1.015579 -0.019679541 0.073257774 9.339332e-40
1.015579 -0.019679541 0.078257769 1.2094439e-39
1.015579 -0.017179541 0.070757776 6.5950991e-40
1.015579 -0.017179541 0.073257774 5.6731428e-40
1.015579 -0.014679541 0.070757776 5.6731428e-40
1.015579 -0.014679541 0.073257774 5.6731428e-40
1.015579 -0.017179541 0.078257769 1.2098082e-39
1.015579 -0.014679541 0.078257769 1.1176112e-39
1.015579 -0.01217954 0.070757776 2.9180359e-40
1.015579 -0.009679541 0.070757776 1.070536e-40
1.015579 -0.009679541 0.073257774 2.9072879e-40
1.015579 -0.01217954 0.078257769 9.33936e-40
1.015579 -0.009679541 0.075757772 2.9072879e-40
1.015579 -0.009679541 0.078257769 7.4918601e-40
1.0180789 -0.009679541 0.075757772 1.9924923e-40
1.0180789 -0.009679541 0.078257769 2.907316e-40
1.015579 -0.007179541 0.070757776 2.907316e-40
1.015579 -0.007179541 0.073257774 1.070536e-40
1.015579 -0.0046795406 0.070757776 4.7367812e-40
1.015579 -0.0046795406 0.073257774 1.070536e-40
1.015579 -0.007179541 0.075757772 1.4857968e-41
1.015579 -0.007179541 0.078257769 7.4918601e-40
1.015579 -0.0046795406 0.075757772 7.4883568e-40
1.015579 -0.0046795406 0.078257769 2.907316e-40
1.0180789 -0.007179541 0.075757772 1.070536e-40
1.0180789 -0.0046795406 0.075757772 4.7367812e-40
1.015579 -0.02217954 0.090757772 7.5098948e-40
1.015579 -0.019679541 0.090757772 6.5950991e-40
1.015579 -0.019679541 0.09325777 5.6731428e-40
1.015579 -0.017179541 0.090757772 5.6731428e-40
1.015579 -0.017179541 0.09325777 3.8292442e-40
1.015579 -0.014679541 0.090757772 5.6731428e-40
1.015579 -0.014679541 0.09325777 5.6731428e-40
1.015579 -0.014679541 0.098257773 3.8292442e-40
1.015579 -0.009679541 0.080757774 7.4918881e-40
1.015579 -0.01217954 0.08575777 3.8292442e-40
1.015579 -0.007179541 0.080757774 7.4918881e-40
1.015579 -0.0046795406 0.080757774 1.9960235e-40
1.015579 -0.01217954 0.090757772 5.6695835e-40
1.015579 -0.01217954 0.09325777 6.5844072e-40
1.015579 -0.009679541 0.090757772 6.5950991e-40
1.015579 -0.009679541 0.09325777 9.339332e-40
1.015579 -0.01217954 0.098257773 1.1176112e-39
1.015579 -0.009679541 0.098257773 1.2101614e-39
1.015579 -0.007179541 0.090757772 2.9072879e-40
1.015579 -0.007179541 0.09325777 9.339332e-40
1.015579 -0.0046795406 0.090757772 4.7367531e-40
1.015579 -0.0046795406 0.09325777 1.0740953e-40
1.015579 -0.007179541 0.098257773 1.1179643e-39
1.015579 -0.0046795406 0.098257773 9.3393039e-40
1.0180789 -0.007179541 0.095757775 1.1179643e-39
1.0180789 -0.0046795406 0.095757775 5.6766461e-40
1.0180789 -0.0046795406 0.098257773 8.4173476e-40
1.015579 -0.0021795409 0.070757776 4.7367812e-40
1.015579 -0.0021795409 0.073257774 2.907316e-40
1.015579 0.00032045916 0.073257774 4.7402844e-40
1.0180789 -0.0021795409 0.070757776 1.070536e-40
1.0180789 0.00032045916 0.070757776 3.8254888e-40
1.015579 -0.0021795409 0.075757772 5.6622407e-40
1.015579 -0.0021795409 0.078257769 1.9853597e-40
1.015579 0.00032045916 0.075757772 4.7402844e-40
1.0180789 -0.0021795409 0.075757772 4.7438157e-40
1.0180789 -0.0021795409 0.078257769 1.0740953e-40
1.0180789 0.00032045916 0.075757772 3.8218594e-40
1.0180789 0.00032045916 0.078257769 1.4119483e-41
1.015579 0.0028204592 0.073257774 1.0740672e-40
1.0180789 0.0028204592 0.070757776 4.7367812e-40
1.0180789 0.0053204591 0.070757776 1.9960235e-40
1.015579 0.0028204592 0.075757772 5.6658e-40
1.0180789 0.0028204592 0.075757772 5.6658e-40
1.0180789 0.0028204592 0.078257769 3.8183281e-40
1.0180789 0.0053204591 0.075757772 5.6658e-40
1.0180789 0.0053204591 0.078257769 5.6622407e-40
1.020579 0.0028204592 0.073257774 5.665772e-40
1.020579 0.0053204591 0.073257774 5.6658e-40
1.020579 0.0053204591 0.075757772 5.6622407e-40
1.0180789 0.0078204591 0.070757776 5.6622687e-40
1.0180789 0.010320459 0.070757776 5.6730868e-40
1.0180789 0.0078204591 0.078257769 7.4918601e-40
1.0180789 0.012820459 0.070757776 5.6730868e-40
1.020579 0.0078204591 0.073257774 7.4918601e-40
1.0230789 0.0078204591 0.070757776 8.4138164e-40
1.0230789 0.010320459 0.070757776 8.4138164e-40
1.020579 0.0078204591 0.075757772 7.4953913e-40
1.0230789 0.0078204591 0.075757772 7.4918601e-40
1.0230789 0.0078204591 0.078257769 5.6658e-40
1.0230789 0.010320459 0.075757772 6.5843512e-40
1.0230789 0.010320459 0.078257769 3.8292442e-40
1.0230789 0.012820459 0.078257769 6.5950991e-40
1.025579 0.010320459 0.070757776 9.3249827e-40
1.025579 0.010320459 0.073257774 4.7404386e-40
1.025579 0.010320459 0.075757772 9.3358007e-40
1.025579 0.012820459 0.070757776 1.2094439e-39
1.025579 0.015320459 0.070757776 1.0264988e-39
1.030579 0.010320459 0.070757776 1.1168951e-39
1.0330789 0.010320459 0.070757776 9.33936e-40
1.030579 0.012820459 0.070757776 1.1179643e-39
1.030579 0.015320459 0.070757776 6.5986304e-40
1.0330789 0.012820459 0.070757776 9.3502201e-40
1.0330789 0.012820459 0.073257774 7.5098948e-40
1.0330789 0.015320459 0.070757776 9.350164e-40
1.0330789 0.015320459 0.073257774 5.6911075e-40
1.030579 0.012820459 0.075757772 6.5950991e-40
1.030579 0.012820459 0.078257769 7.5206007e-40
1.0330789 0.012820459 0.075757772 9.339332e-40
1.0330789 0.015320459 0.075757772 9.3536953e-40
1.015579 -0.0021795409 0.080757774 4.7367531e-40
1.015579 0.00032045916 0.080757774 1.5208292e-41
1.0180789 0.00032045916 0.083257772 7.4918601e-40
1.015579 -0.0021795409 0.08575777 5.6622687e-40
1.015579 -0.0021795409 0.088257775 7.4953913e-40
1.015579 0.00032045916 0.08575777 1.0740953e-40
1.015579 0.00032045916 0.088257775 1.0740953e-40
1.0180789 -0.0021795409 0.088257775 7.4953913e-40
1.0180789 0.00032045916 0.088257775 4.7367812e-40
1.015579 0.0028204592 0.080757774 1.4855165e-41
1.0180789 0.0028204592 0.083257772 4.7367531e-40
1.0180789 0.0053204591 0.083257772 4.7367531e-40
1.015579 0.0028204592 0.08575777 1.0740953e-40
1.015579 0.0028204592 0.088257775 7.4953913e-40
1.015579 0.0053204591 0.08575777 1.0740953e-40
1.015579 0.0053204591 0.088257775 5.6766461e-40
1.020579 -0.0021795409 0.080757774 7.4918601e-40
1.020579 0.00032045916 0.080757774 3.8183281e-40
1.020579 0.0028204592 0.080757774 4.7402844e-40
1.020579 0.0053204591 0.080757774 1.0740953e-40
1.015579 -0.0021795409 0.090757772 4.7367531e-40
1.015579 -0.0021795409 0.09325777 1.0740953e-40
1.015579 0.00032045916 0.090757772 4.7403124e-40
1.015579 0.00032045916 0.09325777 5.6658e-40
1.0180789 -0.0021795409 0.095757775 9.3428352e-40
1.0180789 -0.0021795409 0.098257773 7.4953913e-40
1.0180789 0.00032045916 0.095757775 1.1183146e-39
1.0180789 0.00032045916 0.098257773 7.4953913e-40
1.015579 0.0028204592 0.090757772 7.5061113e-40
1.015579 0.0028204592 0.09325777 7.5061113e-40
1.015579 0.0053204591 0.090757772 7.5061113e-40
1.015579 0.0053204591 0.09325777 5.6658e-40
1.0180789 0.0028204592 0.095757775 5.6622407e-40
1.0180789 0.0028204592 0.098257773 5.6622407e-40
1.0180789 0.0053204591 0.095757775 3.8183281e-40
1.0180789 0.0053204591 0.098257773 5.6622407e-40
1.020579 -0.0021795409 0.098257773 4.7403124e-40
1.020579 0.00032045916 0.098257773 4.7403124e-40
1.020579 0.0028204592 0.098257773 4.7403124e-40
1.020579 0.0053204591 0.098257773 4.7403124e-40
1.0180789 0.0078204591 0.083257772 7.4953913e-40
1.0180789 0.010320459 0.083257772 6.5986304e-40
1.015579 0.0078204591 0.088257775 3.8363348e-40
1.015579 0.010320459 0.088257775 9.3572546e-40
1.0180789 0.0078204591 0.088257775 9.3393039e-40
1.0180789 0.010320459 0.088257775 1.301994e-39
1.0180789 0.012820459 0.083257772 7.5098668e-40
1.015579 0.012820459 0.088257775 1.0279211e-39
1.015579 0.015320459 0.088257775 9.3536953e-40
1.0180789 0.012820459 0.088257775 1.3941897e-39
1.020579 0.0078204591 0.080757774 7.4953913e-40
1.020579 0.010320459 0.080757774 3.8292442e-40
1.020579 0.010320459 0.083257772 2.9108192e-40
1.0230789 0.010320459 0.080757774 7.4954194e-40
1.020579 0.0078204591 0.08575777 1.1183174e-39
1.020579 0.010320459 0.08575777 9.3572546e-40
1.020579 0.012820459 0.080757774 5.6731428e-40
1.020579 0.012820459 0.083257772 7.5206007e-40
1.0230789 0.012820459 0.080757774 5.6730868e-40
1.020579 0.012820459 0.08575777 1.0279211e-39
1.020579 0.012820459 0.088257775 1.027568e-39
1.015579 0.0078204591 0.090757772 5.6766461e-40
1.015579 0.0078204591 0.09325777 1.1183174e-39
1.015579 0.010320459 0.090757772 6.5986304e-40
1.015579 0.010320459 0.09325777 9.3537233e-40
1.015579 0.0078204591 0.098257773 1.3016381e-39
1.015579 0.010320459 0.098257773 1.2123151e-39
1.0180789 0.0078204591 0.095757775 5.6766461e-40
1.0180789 0.0078204591 0.098257773 1.1183174e-39
1.0180789 0.010320459 0.095757775 1.3941897e-39
1.0180789 0.010320459 0.098257773 1.0279211e-39
1.015579 0.012820459 0.090757772 7.5206007e-40
1.015579 0.012820459 0.09325777 1.027568e-39
1.015579 0.015320459 0.090757772 1.0275652e-39
1.015579 0.015320459 0.09325777 1.487823e-39
1.015579 0.012820459 0.098257773 1.2123151e-39
1.015579 0.015320459 0.098257773 1.6725716e-39
1.0180789 0.012820459 0.095757775 1.2126683e-39
1.0180789 0.012820459 0.098257773 1.2123151e-39
1.0180789 0.015320459 0.095757775 1.4878202e-39
1.0180789 0.015320459 0.098257773 1.5800187e-39
1.020579 0.0078204591 0.098257773 1.1183174e-39
1.020579 0.015320459 0.098257773 2.0381228e-39
1.025579 0.010320459 0.080757774 1.1179643e-39
1.0080789 -0.02217954 0.10075777 5.6730868e-40
1.0080789 -0.019679541 0.10075777 7.5098668e-40
1.0080789 -0.02217954 0.10825777 1.0275708e-39
1.0080789 -0.019679541 0.10825777 7.5098668e-40
1.0080789 -0.017179541 0.10075777 7.5098948e-40
1.0080789 -0.014679541 0.10075777 5.6731428e-40
1.0080789 -0.017179541 0.10825777 7.5098387e-40
1.010579 -0.02217954 0.10075777 6.5950991e-40
1.010579 -0.02217954 0.10325778 6.5950991e-40
1.010579 -0.019679541 0.10075777 7.5206007e-40
1.010579 -0.019679541 0.10325778 1.9924923e-40
1.010579 -0.02217954 0.10575777 1.3016409e-39
1.010579 -0.019679541 0.10575777 5.6731428e-40
1.010579 -0.017179541 0.10075777 6.5950991e-40
1.010579 -0.017179541 0.10325778 5.6731428e-40
1.010579 -0.014679541 0.10075777 6.5950991e-40
1.010579 -0.014679541 0.10325778 6.5950991e-40
1.0130789 -0.014679541 0.10325778 6.5950991e-40
1.010579 -0.017179541 0.10575777 7.5098668e-40
1.010579 -0.014679541 0.10575777 9.350164e-40
1.0080789 -0.02217954 0.11075778 1.0275708e-39
1.0080789 -0.019679541 0.11075778 9.3502201e-40
1.0080789 -0.017179541 0.11075778 1.0275708e-39
1.0080789 -0.014679541 0.11075778 1.0275708e-39
1.010579 -0.02217954 0.11075778 1.0275708e-39
1.010579 -0.02217954 0.11325777 1.0275708e-39
1.010579 -0.019679541 0.11075778 9.3502201e-40
1.010579 -0.019679541 0.11325777 9.3502201e-40
1.010579 -0.02217954 0.11575777 1.0275708e-39
1.010579 -0.02217954 0.11825778 1.3941869e-39
1.010579 -0.019679541 0.11575777 1.0272148e-39
1.010579 -0.019679541 0.11825778 1.2119746e-39
1.0130789 -0.02217954 0.11575777 1.2123151e-39
1.0130789 -0.019679541 0.11575777 1.3949212e-39
1.010579 -0.017179541 0.11075778 1.0275708e-39
1.010579 -0.017179541 0.11325777 9.350164e-40
1.010579 -0.014679541 0.11075778 1.0275708e-39
1.010579 -0.014679541 0.11325777 1.0275708e-39
1.010579 -0.017179541 0.11575777 9.3502201e-40
1.010579 -0.017179541 0.11825778 1.3952743e-39
1.010579 -0.014679541 0.11575777 9.3502201e-40
1.010579 -0.014679541 0.11825778 1.3952743e-39
1.0130789 -0.017179541 0.11575777 1.3952743e-39
1.0130789 -0.014679541 0.11575777 1.4874699e-39
1.0080789 -0.01217954 0.10075777 5.6731428e-40
1.010579 -0.01217954 0.10075777 1.1176112e-39
1.010579 -0.01217954 0.10325778 7.5098948e-40
1.0130789 -0.01217954 0.10325778 1.1176112e-39
1.0130789 -0.009679541 0.10325778 1.1179643e-39
1.010579 -0.01217954 0.10575777 6.5950991e-40
1.010579 -0.009679541 0.10575777 7.5098387e-40
1.0130789 -0.01217954 0.10575777 9.350164e-40
1.0130789 -0.01217954 0.10825777 1.1176112e-39
1.0130789 -0.009679541 0.10575777 1.1179643e-39
1.0130789 -0.009679541 0.10825777 7.5206007e-40
1.0130789 -0.007179541 0.10575777 1.1179643e-39
1.0130789 -0.007179541 0.10825777 6.5986304e-40
1.0130789 -0.0046795406 0.10575777 1.1179643e-39
1.0130789 -0.0046795406 0.10825777 7.5206007e-40
1.0080789 -0.01217954 0.11075778 3.8436216e-40
1.010579 -0.01217954 0.11075778 9.350164e-40
1.010579 -0.01217954 0.11325777 1.0275708e-39
1.010579 -0.009679541 0.11075778 6.5986304e-40
1.010579 -0.009679541 0.11325777 1.027568e-39
1.0130789 -0.009679541 0.11075778 1.301994e-39
1.010579 -0.01217954 0.11575777 1.0275708e-39
1.010579 -0.01217954 0.11825778 1.4878258e-39
1.010579 -0.009679541 0.11575777 9.3536953e-40
1.010579 -0.009679541 0.11825778 1.4874699e-39
1.0130789 -0.01217954 0.11575777 1.3952743e-39
1.0130789 -0.009679541 0.11575777 1.3952743e-39
1.0130789 -0.009679541 0.11825778 1.1197664e-39
1.010579 -0.007179541 0.11325777 1.027568e-39
1.010579 -0.0046795406 0.11325777 1.0275708e-39
1.0130789 -0.007179541 0.11075778 6.5986304e-40
1.0130789 -0.0046795406 0.11075778 9.3537233e-40
1.010579 -0.007179541 0.11575777 1.1201195e-39
1.010579 -0.007179541 0.11825778 1.4874699e-39
1.010579 -0.0046795406 0.11575777 1.5778677e-39
1.010579 -0.0046795406 0.11825778 1.3952771e-39
1.0130789 -0.007179541 0.11575777 1.3952743e-39
1.0130789 -0.007179541 0.11825778 1.2123151e-39
1.0130789 -0.0046795406 0.11575777 1.2123151e-39
1.0130789 -0.0046795406 0.11825778 1.7626149e-39
1.0130789 -0.02217954 0.12075777 1.2123151e-39
1.0130789 -0.02217954 0.12325777 2.1306785e-39
1.0130789 -0.019679541 0.12075777 1.5796655e-39
1.0130789 -0.019679541 0.12325777 1.6722213e-39
1.0130789 -0.017179541 0.12075777 1.3952743e-39
1.0130789 -0.017179541 0.12325777 1.5800215e-39
1.0130789 -0.014679541 0.12075777 1.4874699e-39
1.0130789 -0.014679541 0.12325777 1.5800215e-39
1.0130789 -0.01217954 0.12075777 1.5800215e-39
1.0130789 -0.01217954 0.12325777 1.6725716e-39
1.0130789 -0.009679541 0.12075777 1.5800215e-39
1.0130789 -0.009679541 0.12325777 1.6722185e-39
1.0130789 -0.007179541 0.12075777 1.5800215e-39
1.0130789 -0.007179541 0.12325777 1.6722185e-39
1.0130789 -0.0046795406 0.12075777 1.5800215e-39
1.0130789 -0.0046795406 0.12325777 2.4983792e-39
1.000579 0.010320459 0.11325777 1.487823e-39
1.0030789 0.0078204591 0.11825778 1.7626121e-39
1.000579 0.012820459 0.11325777 1.6740192e-39
1.000579 0.015320459 0.11325777 7.5206007e-40
1.0080789 0.0053204591 0.11575777 1.7622463e-39
1.0130789 -0.0021795409 0.11575777 1.4874699e-39
1.0130789 -0.0021795409 0.11825778 1.4874699e-39
1.0130789 0.00032045916 0.11575777 1.4874699e-39
1.0130789 0.00032045916 0.11825778 1.4874699e-39
1.010579 0.0028204592 0.11325777 1.2108676e-39
1.010579 0.0053204591 0.11325777 1.3945428e-39
1.010579 0.0028204592 0.11575777 1.1201195e-39
1.010579 0.0028204592 0.11825778 1.2126683e-39
1.010579 0.0053204591 0.11575777 1.9462803e-39
1.010579 0.0053204591 0.11825778 1.3941897e-39
1.0130789 0.0028204592 0.11575777 1.3045108e-39
1.0130789 0.0028204592 0.11825778 1.3048639e-39
1.0130789 0.0053204591 0.11575777 2.312902e-39
1.005579 0.010320459 0.10825777 1.5778551e-39
1.0080789 0.0078204591 0.10825777 1.3941869e-39
1.010579 0.010320459 0.10075777 7.51337e-40
1.0130789 0.010320459 0.10325778 1.0275652e-39
1.010579 0.0078204591 0.10575777 1.0279211e-39
1.010579 0.010320459 0.10575777 1.3959805e-39
1.0130789 0.0078204591 0.10575777 6.5986304e-40
1.0130789 0.0078204591 0.10825777 7.5205447e-40
1.0130789 0.010320459 0.10575777 1.119395e-39
1.0130789 0.010320459 0.10825777 1.1194007e-39
1.010579 0.012820459 0.10075777 1.2123151e-39
1.010579 0.012820459 0.10325778 1.3974127e-39
1.010579 0.015320459 0.10075777 1.4906971e-39
1.010579 0.015320459 0.10325778 1.4906971e-39
1.0130789 0.012820459 0.10325778 1.2123151e-39
1.0130789 0.015320459 0.10325778 1.857316e-39
1.010579 0.012820459 0.10575777 1.2126683e-39
1.010579 0.015320459 0.10575777 1.1219174e-39
1.0130789 0.012820459 0.10575777 1.5803718e-39
1.0130789 0.012820459 0.10825777 2.0388318e-39
1.005579 0.010320459 0.11075778 1.1193979e-39
1.0080789 0.0078204591 0.11075778 1.3019912e-39
1.0080789 0.0078204591 0.11325777 1.6707696e-39
1.0080789 0.010320459 0.11325777 1.762968e-39
1.005579 0.0078204591 0.11825778 2.0388318e-39
1.005579 0.010320459 0.11575777 1.7622491e-39
1.005579 0.010320459 0.11825778 2.2228741e-39
1.0080789 0.0078204591 0.11825778 1.7626121e-39
1.010579 0.0078204591 0.11075778 1.7629652e-39
1.010579 0.0078204591 0.11325777 1.7629652e-39
1.010579 0.010320459 0.11075778 1.9462775e-39
1.010579 0.010320459 0.11325777 1.9462803e-39
1.0130789 0.0078204591 0.11075778 1.5785767e-39
1.0130789 0.010320459 0.11075778 1.9462775e-39
0.99557894 0.0078204591 0.12075777 1.9462803e-39
0.99807894 0.0078204591 0.12325777 2.0384759e-39
0.99557894 0.0078204591 0.12575777 8.474927e-40
0.99557894 0.010320459 0.12575777 1.52167e-41
0.99557894 0.010320459 0.12825777 3.4210474e-39
0.99807894 0.0078204591 0.12575777 1.0290127e-39
0.99807894 0.010320459 0.12575777 1.3778968e-41
0.99807894 0.010320459 0.12825777 6.0932731e-39
0.99557894 0.012820459 0.12575777 2.3143243e-39
1.000579 0.0078204591 0.12075777 2.1310288e-39
1.000579 0.0078204591 0.12325777 8.4570044e-40
1.0030789 0.0078204591 0.12075777 2.1310288e-39
1.000579 0.010320459 0.12825777 5.2649544e-39
1.0030789 0.0078204591 0.12575777 2.5894861e-39
1.0030789 0.010320459 0.12575777 3.4214005e-39
0.99557894 0.012820459 0.13075778 7.4776719e-39
0.99557894 0.012820459 0.13325778 6.3723992e-39
0.99557894 0.015320459 0.13075778 9.3964517e-39
0.99557894 0.015320459 0.13325778 5.9952761e-39
0.99807894 0.012820459 0.13075778 7.2957946e-39
0.99807894 0.015320459 0.13075778 9.3960958e-39
0.99807894 0.015320459 0.13325778 5.1673315e-39
1.0080789 0.0053204591 0.12075777 2.1306729e-39
1.0130789 -0.0021795409 0.12075777 1.6722185e-39
1.0130789 -0.0021795409 0.12325777 2.3154229e-39
1.0130789 0.0028204592 0.12075777 2.0388318e-39
1.0130789 0.0028204592 0.12325777 1.8555139e-39
1.0130789 0.0053204591 0.12075777 1.9477166e-39
1.0130789 0.0053204591 0.12325777 2.2239461e-39
1.005579 0.0078204591 0.12075777 2.0384759e-39
1.005579 0.0078204591 0.12325777 2.5891329e-39
1.0080789 0.0078204591 0.12075777 2.1306729e-39
1.005579 0.0078204591 0.12575777 2.0381073e-39
1.005579 0.010320459 0.12825777 7.1088698e-39
1.0080789 0.010320459 0.12575777 7.0163182e-39
1.010579 0.0078204591 0.12325777 1.3941869e-39
1.0130789 0.0078204591 0.12325777 2.8928265e-40
1.010579 0.0078204591 0.12575777 8.4208789e-40
1.010579 0.010320459 0.12575777 2.2225056e-39
1.0130789 0.012820459 0.12325777 8.1212421e-39
1.0130789 0.015320459 0.12325777 8.3056347e-39
1.010579 0.012820459 0.12575777 7.5698676e-39
1.015579 -0.01217954 0.10075777 6.5950991e-40
1.015579 -0.009679541 0.10075777 1.1179643e-39
1.015579 -0.009679541 0.10325778 6.5986304e-40
1.015579 -0.007179541 0.10075777 1.1179643e-39
1.015579 -0.007179541 0.10325778 1.1179643e-39
1.015579 -0.0046795406 0.10075777 9.3393039e-40
1.015579 -0.0046795406 0.10325778 6.5986304e-40
1.0180789 -0.0046795406 0.10325778 8.4138164e-40
1.015579 -0.007179541 0.10575777 1.1176112e-39
1.015579 -0.0046795406 0.10575777 1.5778677e-39
1.015579 -0.0046795406 0.10825777 1.0279211e-39
1.015579 -0.007179541 0.11075778 1.027568e-39
1.015579 -0.0046795406 0.11075778 1.1197636e-39
1.015579 -0.0046795406 0.11325777 1.3938366e-39
1.0180789 -0.0046795406 0.11075778 1.1201195e-39
1.015579 -0.02217954 0.12575777 1.1230132e-39
1.015579 -0.02217954 0.12825777 3.8910079e-39
1.015579 -0.019679541 0.12575777 2.0614502e-41
1.015579 -0.019679541 0.12825777 3.8903016e-39
1.0180789 -0.02217954 0.12825777 4.43986e-39
1.0180789 -0.019679541 0.12575777 3.7077082e-39
1.0180789 -0.019679541 0.12825777 5.5426329e-39
1.0180789 -0.017179541 0.12325777 2.06131e-41
1.0180789 -0.014679541 0.12325777 2.0611699e-41
1.015579 -0.017179541 0.12575777 2.0258572e-41
1.015579 -0.017179541 0.12825777 3.6151595e-39
1.015579 -0.014679541 0.12575777 1.9898438e-41
1.015579 -0.014679541 0.12825777 3.7073565e-39
1.0180789 -0.017179541 0.12575777 3.7077082e-39
1.0180789 -0.017179541 0.12825777 6.0950906e-39
1.0180789 -0.014679541 0.12575777 3.7999052e-39
1.0180789 -0.014679541 0.12825777 6.0950906e-39
1.020579 -0.02217954 0.12825777 1.3780369e-41
1.020579 -0.019679541 0.12825777 8.4103131e-40
1.020579 -0.017179541 0.12825777 1.4864035e-39
1.020579 -0.014679541 0.12825777 1.3938548e-39
1.0180789 -0.02217954 0.13075778 1.5220904e-41
1.0180789 -0.02217954 0.13325778 1.0930128e-41
1.0180789 -0.019679541 0.13075778 1.6308312e-41
1.0180789 -0.017179541 0.13075778 1.4842497e-39
1.0180789 -0.014679541 0.13075778 1.6689997e-39
1.020579 -0.02217954 0.13075778 2.9037567e-40
1.020579 -0.019679541 0.13075778 1.30587e-41
1.0230789 -0.02217954 0.13325778 9.5012464e-39
1.0230789 -0.019679541 0.13325778 7.3825476e-39
1.020579 -0.017179541 0.13075778 1.3423038e-41
1.020579 -0.014679541 0.13075778 1.2704172e-41
1.020579 -0.014679541 0.13325778 4.0703545e-39
1.0230789 -0.017179541 0.13325778 6.6471475e-39
1.0230789 -0.014679541 0.13325778 6.1861694e-39
1.020579 -0.014679541 0.13575777 1.2627597e-38
1.0230789 -0.014679541 0.13825777 2.2947313e-38
1.015579 -0.01217954 0.12575777 1.9175368e-41
1.015579 -0.01217954 0.12825777 4.1658123e-39
1.015579 -0.009679541 0.12575777 2.0610298e-41
1.015579 -0.009679541 0.12825777 3.9842951e-39
1.0180789 -0.01217954 0.12825777 6.0950878e-39
1.0180789 -0.009679541 0.12825777 6.1872834e-39
1.015579 -0.007179541 0.12075777 1.3045108e-39
1.015579 -0.0046795406 0.12075777 1.5800187e-39
1.015579 -0.007179541 0.12575777 2.0250164e-41
1.015579 -0.007179541 0.12825777 3.7999052e-39
1.015579 -0.0046795406 0.12575777 1.113724e-40
1.015579 -0.0046795406 0.12825777 4.1658123e-39
1.0180789 -0.007179541 0.12825777 6.0028908e-39
1.0180789 -0.0046795406 0.12825777 6.4620753e-39
1.020579 -0.0046795406 0.12825777 2.4076311e-39
1.0180789 -0.01217954 0.13075778 1.1183441e-39
1.0180789 -0.01217954 0.13325778 1.1625172e-41
1.0180789 -0.009679541 0.13075778 2.2228868e-39
1.0180789 -0.009679541 0.13325778 1.1985306e-41
1.0180789 -0.007179541 0.13075778 2.2228868e-39
1.0180789 -0.007179541 0.13325778 1.1625172e-41
1.0180789 -0.0046795406 0.13075778 2.5923825e-39
1.0180789 -0.0046795406 0.13325778 1.0547574e-41
1.0180789 -0.0046795406 0.13575777 1.5480622e-38
1.0180789 -0.0046795406 0.13825777 2.3509886e-38
1.020579 -0.01217954 0.13075778 1.1269242e-41
1.020579 -0.01217954 0.13325778 3.1505491e-39
1.020579 -0.009679541 0.13075778 1.2346841e-41
1.020579 -0.009679541 0.13325778 8.4928776e-40
1.0230789 -0.01217954 0.13325778 2.96473e-39
1.0230789 -0.009679541 0.13325778 9.4219245e-40
1.020579 -0.01217954 0.13575777 1.2445353e-38
1.020579 -0.009679541 0.13575777 1.3180054e-38
1.0230789 -0.01217954 0.13825777 2.350841e-38
1.0230789 -0.009679541 0.13825777 2.350988e-38
1.020579 -0.007179541 0.13075778 1.1985306e-41
1.020579 -0.007179541 0.13325778 1.916696e-41
1.020579 -0.0046795406 0.13075778 1.1975497e-41
1.020579 -0.0046795406 0.13325778 1.0890892e-41
1.0230789 -0.007179541 0.13325778 2.0462741e-40
1.020579 -0.007179541 0.13575777 1.4193846e-38
1.020579 -0.0046795406 0.13575777 1.4929247e-38
1.0280789 -0.02217954 0.13325778 1.5762954e-38
1.0280789 -0.019679541 0.13325778 1.56704e-38
1.025579 -0.02217954 0.13575777 1.5028983e-38
1.025579 -0.019679541 0.13575777 1.5121179e-38
1.025579 -0.017179541 0.13575777 1.6410822e-38
1.025579 -0.014679541 0.13575777 1.8439126e-38
1.025579 -0.014679541 0.13825777 2.276472e-38
1.025579 -0.01217954 0.13575777 2.2491771e-38
1.025579 -0.01217954 0.13825777 2.3509848e-38
1.025579 -0.009679541 0.13575777 2.3507369e-38
1.025579 -0.009679541 0.13825777 2.3509886e-38
1.025579 -0.007179541 0.13575777 2.3509886e-38
1.0180789 -0.0021795409 0.10325778 6.5986024e-40
1.0180789 0.00032045916 0.10325778 5.6766461e-40
1.015579 -0.0021795409 0.10575777 6.5986024e-40
1.015579 -0.0021795409 0.10825777 8.442557e-40
1.015579 0.00032045916 0.10575777 5.6766461e-40
1.015579 0.00032045916 0.10825777 7.5206007e-40
1.0180789 -0.0021795409 0.10575777 1.2101614e-39
1.0180789 0.00032045916 0.10575777 9.339332e-40
1.015579 0.0028204592 0.10075777 9.3393039e-40
1.015579 0.0028204592 0.10325778 1.1183174e-39
1.015579 0.0053204591 0.10075777 8.4209069e-40
1.015579 0.0053204591 0.10325778 1.2097942e-39
1.0180789 0.0028204592 0.10325778 8.4173757e-40
1.0180789 0.0053204591 0.10325778 9.339332e-40
1.015579 0.0028204592 0.10825777 6.5986304e-40
1.015579 0.0053204591 0.10825777 7.5206007e-40
1.0180789 0.0028204592 0.10575777 9.3428632e-40
1.0180789 0.0053204591 0.10575777 1.2105145e-39
1.020579 -0.0021795409 0.10075777 3.8435235e-40
1.020579 0.00032045916 0.10075777 1.9960235e-40
1.020579 0.00032045916 0.10575777 1.3941869e-39
1.020579 0.0028204592 0.10075777 1.9924923e-40
1.020579 0.0053204591 0.10075777 1.9924923e-40
1.020579 0.0028204592 0.10575777 1.3941869e-39
1.020579 0.0028204592 0.10825777 9.3680446e-40
1.020579 0.0053204591 0.10575777 1.3019912e-39
1.020579 0.0053204591 0.10825777 7.5205447e-40
1.015579 -0.0021795409 0.11325777 1.3952771e-39
1.015579 0.00032045916 0.11075778 1.0275708e-39
1.015579 0.00032045916 0.11325777 1.3952771e-39
1.0180789 -0.0021795409 0.11075778 1.1197664e-39
1.0180789 0.00032045916 0.11075778 1.0275708e-39
1.015579 0.00032045916 0.11575777 1.7629652e-39
1.015579 0.0028204592 0.11075778 1.2105145e-39
1.015579 0.0028204592 0.11325777 1.2123123e-39
1.015579 0.0053204591 0.11075778 1.7622463e-39
1.0180789 0.0028204592 0.11075778 1.2105145e-39
1.015579 0.0028204592 0.11575777 1.762968e-39
1.015579 0.0078204591 0.10075777 1.1183174e-39
1.015579 0.0078204591 0.10325778 1.3941869e-39
1.015579 0.010320459 0.10075777 1.0275652e-39
1.015579 0.010320459 0.10325778 1.5782208e-39
1.0180789 0.0078204591 0.10325778 1.5785767e-39
1.0180789 0.010320459 0.10325778 1.7622463e-39
1.015579 0.0078204591 0.10575777 1.3019912e-39
1.015579 0.0078204591 0.10825777 7.5206007e-40
1.015579 0.010320459 0.10575777 1.0272022e-39
1.0180789 0.0078204591 0.10575777 7.5206007e-40
1.0180789 0.010320459 0.10575777 1.9462803e-39
1.015579 0.012820459 0.10075777 1.2123151e-39
1.015579 0.012820459 0.10325778 1.7626121e-39
1.015579 0.015320459 0.10075777 2.0381228e-39
1.015579 0.015320459 0.10325778 1.7626121e-39
1.0180789 0.012820459 0.10325778 2.1310288e-39
1.015579 0.012820459 0.10575777 1.6725716e-39
1.0180789 0.012820459 0.10575777 1.487823e-39
1.020579 0.0078204591 0.10075777 1.2105145e-39
1.020579 0.0078204591 0.10575777 1.6707696e-39
1.020579 0.010320459 0.10575777 1.8551664e-39
1.020579 0.015320459 0.10075777 1.6704164e-39
1.0230789 0.012820459 0.10325778 2.1306729e-39
1.020579 0.012820459 0.10575777 2.1324708e-39
1.015579 0.0078204591 0.11075778 1.3048639e-39
1.015579 0.00032045916 0.12075777 1.5800215e-39
1.015579 0.00032045916 0.12325777 2.0381228e-39
1.0180789 0.00032045916 0.12325777 1.8460706e-41
1.015579 -0.0021795409 0.12575777 1.8460706e-41
1.015579 -0.0021795409 0.12825777 4.1665354e-39
1.015579 0.00032045916 0.12575777 1.8816636e-41
1.015579 0.00032045916 0.12825777 3.522245e-39
1.0180789 -0.0021795409 0.12825777 6.5546268e-39
1.0180789 0.00032045916 0.12575777 3.7977529e-39
1.0180789 0.00032045916 0.12825777 6.5549926e-39
1.015579 0.0028204592 0.12075777 2.1310288e-39
1.015579 0.0028204592 0.12325777 2.1310288e-39
1.0180789 0.0028204592 0.12325777 1.113696e-40
1.0180789 0.0053204591 0.12325777 1.8822241e-41
1.0180789 0.0028204592 0.12575777 3.7977529e-39
1.0180789 0.0053204591 0.12575777 4.8068657e-39
1.020579 -0.0021795409 0.12825777 3.6954889e-39
1.020579 0.00032045916 0.12825777 6.4624312e-39
1.020579 0.0028204592 0.12825777 6.4620753e-39
1.020579 0.0053204591 0.12825777 7.290394e-39
1.0230789 0.0028204592 0.12575777 3.7955921e-39
1.0230789 0.0053204591 0.12575777 6.6446715e-39
1.0180789 -0.0021795409 0.13075778 2.960442e-39
1.0180789 -0.0021795409 0.13325778 1.0536363e-41
1.0180789 -0.0021795409 0.13575777 1.5111137e-38
1.0180789 -0.0021795409 0.13825777 2.3509886e-38
1.0180789 0.00032045916 0.13575777 1.4281375e-38
1.0180789 0.00032045916 0.13825777 2.3509886e-38
1.020579 -0.0021795409 0.13075778 1.2692961e-41
1.020579 -0.0021795409 0.13325778 7.3077715e-42
1.020579 0.00032045916 0.13075778 1.4496433e-41
1.020579 0.00032045916 0.13325778 6.9364274e-42
1.0230789 -0.0021795409 0.13325778 8.7441024e-42
1.0230789 0.00032045916 0.13325778 5.1469693e-42
1.020579 -0.0021795409 0.13575777 1.4743786e-38
1.020579 0.00032045916 0.13575777 1.4557587e-38
1.020579 0.0028204592 0.13075778 1.5561419e-41
1.0230789 0.0028204592 0.13325778 3.3519059e-42
1.0180789 0.0078204591 0.12325777 1.5934165e-41
1.015579 0.0078204591 0.12575777 1.4500637e-41
1.015579 0.010320459 0.12575777 2.8678778e-39
1.015579 0.010320459 0.12825777 4.8072188e-39
1.0180789 0.0078204591 0.12575777 4.4384433e-39
1.0180789 0.010320459 0.12575777 4.9001347e-39
1.015579 0.012820459 0.12575777 7.7553336e-39
1.015579 0.012820459 0.12825777 5.5501985e-39
1.015579 0.015320459 0.12575777 6.464592e-39
1.015579 0.015320459 0.12825777 2.5995684e-39
1.0180789 0.012820459 0.12575777 5.9171789e-39
1.0180789 0.015320459 0.12575777 1.4057084e-39
1.020579 0.0078204591 0.12825777 7.198197e-39
1.020579 0.010320459 0.12825777 7.0159497e-39
1.020579 0.012820459 0.12825777 5.6391501e-39
1.020579 0.015320459 0.12825777 2.3201074e-39
1.020579 0.010320459 0.13075778 1.4836948e-41
1.025579 0.0028204592 0.12825777 3.9745869e-39
1.025579 0.0053204591 0.12825777 4.8922286e-39
1.0280789 0.0028204592 0.12825777 1.3030632e-39
1.0280789 0.0053204591 0.12825777 1.119395e-39
1.025579 0.0028204592 0.13075778 8.3797648e-43
1.025579 0.0053204591 0.13075778 1.2611686e-43
1.0280789 0.0028204592 0.13075778 1.1630777e-43
1.0280789 0.0028204592 0.13325778 1.262258e-38
1.0280789 0.0053204591 0.13075778 1.3032076e-43
1.0280789 0.0053204591 0.13325778 1.1242552e-38
1.025579 0.0078204591 0.12825777 1.3974127e-39
1.025579 0.010320459 0.12825777 7.5961027e-40
1.0280789 0.0078204591 0.12825777 1.6725688e-39
1.025579 0.012820459 0.12325777 5.0913812e-39
1.025579 0.015320459 0.12325777 9.4293794e-40
1.025579 0.012820459 0.12825777 1.5561419e-41
1.025579 0.015320459 0.12575777 1.7690833e-39
1.025579 0.0078204591 0.13075778 1.2331426e-43
1.0280789 0.0078204591 0.13075778 1.2751816e-43
1.0280789 0.0078204591 0.13325778 1.0594312e-38
0.88057894 0.020320458 0.068257771 3.0504292e-39
0.88307893 0.017820459 0.068257771 3.5110472e-39
0.88307893 0.020320458 0.068257771 3.5110472e-39
0.88057894 0.02282046 0.068257771 3.6925167e-39
0.88057894 0.025320459 0.065757774 1.4805349e-39
0.88057894 0.025320459 0.068257771 2.6780047e-39
0.88307893 0.02282046 0.068257771 3.6925167e-39
0.87807894 0.017820459 0.073257774 4.5215908e-39
0.87807894 0.020320458 0.073257774 4.7981763e-39
0.87557894 0.017820459 0.075757772 3.6968902e-39
0.87557894 0.017820459 0.078257769 4.433379e-39
0.87557894 0.020320458 0.075757772 4.1567725e-39
0.87557894 0.020320458 0.078257769 3.9734771e-39
0.87557894 0.02282046 0.073257774 4.7963462e-39
0.87557894 0.025320459 0.073257774 3.3223217e-39
0.87807894 0.02282046 0.073257774 4.7963462e-39
0.87807894 0.025320459 0.073257774 3.5045508e-39
0.87557894 0.02282046 0.078257769 3.8830639e-39
0.87557894 0.025320459 0.078257769 4.4355286e-39
0.88057894 0.017820459 0.070757776 3.5128493e-39
0.88057894 0.027820459 0.068257771 7.5053826e-40
0.88307893 0.027820459 0.068257771 7.4983481e-40
0.87557894 0.027820459 0.073257774 3.4145173e-39
0.87807894 0.027820459 0.073257774 3.3223217e-39
0.87807894 0.03032046 0.073257774 4.7030884e-39
0.87557894 0.027820459 0.075757772 1.0268043e-39
0.87557894 0.027820459 0.078257769 5.1730937e-39
0.87557894 0.032820459 0.078257769 1.5023216e-38
0.88557893 0.017820459 0.065757774 3.5110472e-39
0.88557893 0.020320458 0.065757774 4.5197915e-39
