# .PCD v0.7 - Point Cloud Data file format
VERSION 0.7
FIELDS x y z rgb
SIZE 4 4 4 4
TYPE F F F F
COUNT 1 1 1 1
WIDTH 985
HEIGHT 1
VIEWPOINT 0 0 0 1 0 0 0
POINTS 985
DATA ascii
0.86057895 -0.02217954 0.088257775 3.5157612e-39
0.86057895 -0.019679541 0.088257775 4.159683e-39
0.86307895 -0.02217954 0.08575777 4.6199381e-39
0.86307895 -0.019679541 0.08575777 4.620657e-39
0.86057895 -0.017179541 0.083257772 3.9749218e-39
0.86307895 -0.017179541 0.080757774 3.144808e-39
0.86307895 -0.017179541 0.08575777 4.8050496e-39
0.86307895 -0.017179541 0.088257775 3.0555033e-39
0.86307895 -0.014679541 0.08575777 4.7132085e-39
0.86307895 -0.014679541 0.088257775 2.4108555e-39
0.86307895 -0.02217954 0.090757772 3.7923438e-39
0.86307895 -0.02217954 0.09325777 4.619585e-39
0.86307895 -0.019679541 0.090757772 3.332086e-39
0.86307895 -0.019679541 0.09325777 4.159683e-39
0.86307895 -0.017179541 0.090757772 3.5168332e-39
0.86307895 -0.017179541 0.09325777 3.9767365e-39
0.86307895 -0.01217954 0.08575777 5.1716896e-39
0.86307895 -0.01217954 0.088257775 2.8704044e-39
0.86307895 -0.009679541 0.088257775 2.9643824e-39
0.86557895 -0.014679541 0.080757774 2.5955971e-39
0.86557895 -0.014679541 0.083257772 4.0714363e-39
0.86557895 -0.017179541 0.088257775 3.0558592e-39
0.86557895 -0.014679541 0.088257775 3.0555061e-39
0.86807895 -0.02217954 0.09325777 4.9033844e-39
0.86807895 -0.019679541 0.09325777 4.994501e-39
0.86557895 -0.02217954 0.095757775 5.0859777e-39
0.86557895 -0.019679541 0.095757775 5.3596864e-39
0.86807895 -0.02217954 0.095757775 7.2050479e-39
0.86807895 -0.019679541 0.095757775 6.929533e-39
0.86557895 -0.017179541 0.090757772 4.159683e-39
0.86557895 -0.017179541 0.09325777 2.4148086e-39
0.86557895 -0.014679541 0.090757772 4.4351965e-39
0.86557895 -0.014679541 0.09325777 2.9651083e-39
0.86807895 -0.017179541 0.09325777 5.3596864e-39
0.86807895 -0.014679541 0.09325777 3.8870814e-39
0.86807895 -0.017179541 0.095757775 6.929533e-39
0.86807895 -0.014679541 0.095757775 5.7306437e-39
0.87057894 -0.019679541 0.098257773 7.7582175e-39
0.87057894 -0.017179541 0.098257773 7.4819907e-39
0.87057894 -0.014679541 0.098257773 7.9415466e-39
0.87307894 -0.017179541 0.095757775 8.2209907e-39
0.86557895 -0.01217954 0.080757774 2.5019582e-39
0.86557895 -0.01217954 0.083257772 4.5295403e-39
0.86807895 -0.01217954 0.080757774 4.2540325e-39
0.86807895 -0.009679541 0.080757774 5.0827169e-39
0.86557895 -0.01217954 0.08575777 5.6326663e-39
0.86557895 -0.01217954 0.088257775 3.0555061e-39
0.86557895 -0.009679541 0.08575777 5.7277276e-39
0.86557895 -0.009679541 0.088257775 2.7807114e-39
0.86807895 -0.007179541 0.080757774 4.4373475e-39
0.86807895 -0.007179541 0.083257772 4.7146575e-39
0.86807895 -0.0046795406 0.080757774 4.2529535e-39
0.86557895 -0.007179541 0.08575777 4.8979669e-39
0.86557895 -0.007179541 0.088257775 2.1324708e-39
0.86557895 -0.0046795406 0.08575777 4.6221031e-39
0.86807895 -0.007179541 0.088257775 1.8587537e-39
0.86807895 -0.0046795406 0.088257775 3.1477017e-39
0.87057894 -0.007179541 0.080757774 3.8874079e-39
0.87057894 -0.0046795406 0.080757774 4.4380608e-39
0.86557895 -0.01217954 0.090757772 3.9767365e-39
0.86557895 -0.01217954 0.09325777 3.2409693e-39
0.86557895 -0.009679541 0.090757772 3.8848884e-39
0.86557895 -0.009679541 0.09325777 3.8845381e-39
0.86807895 -0.01217954 0.09325777 4.4366553e-39
0.86807895 -0.009679541 0.09325777 3.3331846e-39
0.86807895 -0.01217954 0.095757775 5.6391669e-39
0.86807895 -0.009679541 0.095757775 3.8917688e-39
0.86557895 -0.007179541 0.090757772 3.7926914e-39
0.86557895 -0.007179541 0.09325777 3.6101022e-39
0.86807895 -0.007179541 0.090757772 3.792341e-39
0.86807895 -0.007179541 0.09325777 3.0576725e-39
0.86807895 -0.0046795406 0.090757772 2.780008e-39
0.86807895 -0.007179541 0.095757775 7.3941111e-39
0.87057894 -0.01217954 0.098257773 7.8514963e-39
0.87057894 -0.009679541 0.098257773 8.127007e-39
0.87057894 -0.007179541 0.09325777 2.9644021e-39
0.87057894 -0.0046795406 0.09325777 2.9644021e-39
0.87057894 -0.007179541 0.098257773 8.2192026e-39
0.87307894 -0.007179541 0.095757775 7.3941111e-39
0.87307894 -0.007179541 0.098257773 4.7172162e-39
0.87307894 -0.0046795406 0.095757775 7.3019155e-39
0.87307894 -0.0046795406 0.098257773 5.08564e-39
0.86807895 -0.0021795409 0.078257769 2.6852494e-39
0.86807895 0.00032045916 0.078257769 1.7668902e-39
0.86807895 0.0028204592 0.078257769 2.9618461e-39
0.86807895 0.0053204591 0.078257769 2.9618461e-39
0.87057894 -0.0021795409 0.078257769 1.5824976e-39
0.87057894 0.00032045916 0.075757772 3.4199474e-39
0.87307894 0.00032045916 0.075757772 2.7770947e-39
0.87057894 0.0028204592 0.073257774 3.4184984e-39
0.87057894 0.0053204591 0.073257774 3.5110472e-39
0.87307894 0.0028204592 0.073257774 3.6032498e-39
0.87307894 0.0053204591 0.073257774 3.603603e-39
0.87057894 0.0028204592 0.075757772 2.9603971e-39
0.87057894 0.0053204591 0.075757772 3.0540417e-39
0.86807895 0.0078204591 0.078257769 3.2384288e-39
0.86807895 0.010320459 0.078257769 3.3306244e-39
0.87057894 0.010320459 0.078257769 3.8809213e-39
0.87307894 0.0078204591 0.075757772 3.4199474e-39
0.87307894 0.010320459 0.075757772 3.5125017e-39
0.87057894 0.012820459 0.078257769 3.8809213e-39
0.87307894 0.012820459 0.075757772 3.9738274e-39
0.87307894 0.015320459 0.075757772 3.5121458e-39
0.86307895 0.0028204592 0.080757774 2.5941552e-39
0.86307895 0.0028204592 0.088257775 4.3447932e-39
0.86557895 -0.0021795409 0.083257772 4.3455022e-39
0.86557895 0.00032045916 0.080757774 2.2253727e-39
0.86557895 0.00032045916 0.083257772 3.8848884e-39
0.86807895 -0.0021795409 0.080757774 4.0692825e-39
0.86557895 -0.0021795409 0.08575777 4.9905185e-39
0.86557895 0.00032045916 0.08575777 4.3451463e-39
0.86807895 -0.0021795409 0.088257775 3.699058e-39
0.86807895 0.00032045916 0.088257775 4.7124995e-39
0.86557895 0.0028204592 0.080757774 2.5941524e-39
0.86557895 0.0028204592 0.083257772 3.7926914e-39
0.86557895 0.0053204591 0.080757774 2.6867011e-39
0.86557895 0.0053204591 0.083257772 3.8852443e-39
0.86807895 0.0053204591 0.080757774 3.607584e-39
0.86557895 0.0028204592 0.08575777 4.2529506e-39
0.86557895 0.0028204592 0.088257775 4.4369916e-39
0.86557895 0.0053204591 0.08575777 4.1603991e-39
0.86807895 0.0028204592 0.088257775 4.7124995e-39
0.86807895 0.0053204591 0.088257775 4.4377076e-39
0.87057894 -0.0021795409 0.080757774 4.2529535e-39
0.86807895 -0.0021795409 0.090757772 2.3208109e-39
0.86807895 0.00032045916 0.090757772 3.1505716e-39
0.86807895 0.00032045916 0.095757775 7.6678239e-39
0.86807895 0.0028204592 0.090757772 3.1505716e-39
0.86807895 0.0053204591 0.090757772 3.9774526e-39
0.86807895 0.0028204592 0.095757775 7.9444108e-39
0.86807895 0.0053204591 0.095757775 7.209717e-39
0.87057894 -0.0021795409 0.09325777 3.5161297e-39
0.87057894 0.00032045916 0.09325777 5.3593206e-39
0.87057894 -0.0021795409 0.098257773 5.4536995e-39
0.87057894 0.00032045916 0.098257773 8.4039638e-39
0.87307894 -0.0021795409 0.095757775 7.0260488e-39
0.87307894 -0.0021795409 0.098257773 5.8210429e-39
0.87307894 0.00032045916 0.095757775 7.669256e-39
0.87307894 0.00032045916 0.098257773 5.5476944e-39
0.87057894 0.0028204592 0.09325777 5.1749294e-39
0.87057894 0.0053204591 0.09325777 3.9778309e-39
0.87057894 0.0028204592 0.098257773 8.4961595e-39
0.87057894 0.0053204591 0.098257773 7.8522152e-39
0.87307894 0.0028204592 0.095757775 7.9454828e-39
0.87307894 0.0028204592 0.098257773 5.9164755e-39
0.87307894 0.0053204591 0.095757775 7.4863039e-39
0.87307894 0.0053204591 0.098257773 6.1012213e-39
0.86807895 0.0078204591 0.080757774 3.8823703e-39
0.86807895 0.010320459 0.083257772 4.252229e-39
0.86557895 0.0078204591 0.08575777 4.252229e-39
0.86557895 0.010320459 0.08575777 4.6199381e-39
0.86807895 0.0078204591 0.088257775 4.7132085e-39
0.86807895 0.010320459 0.088257775 4.7132085e-39
0.86807895 0.012820459 0.08575777 4.620294e-39
0.86807895 0.015320459 0.08575777 4.3451463e-39
0.87057894 0.010320459 0.080757774 3.8823703e-39
0.87057894 0.012820459 0.080757774 4.0671146e-39
0.87057894 0.012820459 0.083257772 4.4348252e-39
0.87057894 0.015320459 0.080757774 3.974919e-39
0.87057894 0.015320459 0.083257772 4.3451491e-39
0.87307894 0.015320459 0.080757774 4.1596802e-39
0.87057894 0.012820459 0.08575777 4.7128526e-39
0.87057894 0.012820459 0.088257775 4.8050496e-39
0.87057894 0.015320459 0.08575777 4.6206542e-39
0.87057894 0.015320459 0.088257775 4.7124995e-39
0.87307894 0.015320459 0.08575777 4.7132085e-39
0.86557895 0.010320459 0.09325777 4.6199535e-39
0.86807895 0.0078204591 0.090757772 3.9774582e-39
0.86807895 0.0078204591 0.09325777 4.3433764e-39
0.86807895 0.010320459 0.090757772 3.9774582e-39
0.86807895 0.010320459 0.09325777 4.6199563e-39
0.86557895 0.010320459 0.098257773 7.1164452e-39
0.86807895 0.0078204591 0.095757775 6.8416562e-39
0.86807895 0.010320459 0.095757775 4.536041e-39
0.86807895 0.010320459 0.098257773 8.3121241e-39
0.86557895 0.012820459 0.09325777 4.7121491e-39
0.86807895 0.012820459 0.090757772 4.2525975e-39
0.86807895 0.012820459 0.09325777 4.5277607e-39
0.86557895 0.012820459 0.098257773 7.1164452e-39
0.86807895 0.012820459 0.095757775 4.0754215e-39
0.86807895 0.012820459 0.098257773 8.1273727e-39
0.86807895 0.015320459 0.095757775 6.3813983e-39
0.87057894 0.0078204591 0.09325777 4.4370112e-39
0.87057894 0.010320459 0.09325777 4.2529787e-39
0.87057894 0.0078204591 0.098257773 7.6685526e-39
0.87057894 0.010320459 0.098257773 8.2195684e-39
0.87307894 0.0078204591 0.095757775 6.7494606e-39
0.87057894 0.012820459 0.09325777 4.3440897e-39
0.87057894 0.015320459 0.09325777 2.972311e-39
0.87307894 0.012820459 0.090757772 4.2518941e-39
0.87307894 0.015320459 0.090757772 4.3447988e-39
0.87307894 0.015320459 0.09325777 3.3396516e-39
0.87057894 0.012820459 0.098257773 8.1273727e-39
0.87057894 0.015320459 0.098257773 7.9440605e-39
0.87307894 0.012820459 0.098257773 6.0990689e-39
0.87307894 0.015320459 0.095757775 6.6583439e-39
0.87307894 0.015320459 0.098257773 5.4536995e-39
0.87307894 0.00032045916 0.10075777 3.7988669e-39
0.87307894 0.0028204592 0.10075777 3.9836169e-39
0.86807895 0.010320459 0.10075777 6.3742138e-39
0.86807895 0.012820459 0.10075777 6.4664095e-39
0.87307894 0.0078204591 0.10075777 5.6409494e-39
0.87307894 0.010320459 0.10075777 6.007211e-39
0.87307894 0.012820459 0.10075777 5.5462328e-39
0.87307894 0.015320459 0.10075777 5.7284731e-39
0.87307894 0.015320459 0.10325778 3.2399184e-39
0.87307894 0.017820459 0.075757772 4.1567697e-39
0.87307894 0.020320458 0.075757772 4.7085212e-39
0.87307894 0.02282046 0.075757772 3.2293652e-39
0.87307894 0.025320459 0.075757772 3.5967464e-39
0.87057894 0.027820459 0.078257769 5.0718681e-39
0.87057894 0.03032046 0.078257769 1.1986899e-38
0.87307894 0.027820459 0.075757772 3.7807789e-39
0.87307894 0.03032046 0.075757772 1.1987252e-38
0.87057894 0.017820459 0.083257772 4.7132085e-39
0.87057894 0.020320458 0.080757774 4.7085212e-39
0.87057894 0.020320458 0.083257772 4.8054056e-39
0.87307894 0.017820459 0.080757774 4.3419093e-39
0.87307894 0.020320458 0.080757774 4.8028874e-39
0.87057894 0.017820459 0.08575777 4.7132085e-39
0.87057894 0.017820459 0.088257775 4.7128554e-39
0.87057894 0.020320458 0.08575777 4.8976012e-39
0.87057894 0.020320458 0.088257775 4.8050524e-39
0.87307894 0.017820459 0.08575777 4.9887206e-39
0.87307894 0.020320458 0.08575777 5.0809163e-39
0.87057894 0.02282046 0.080757774 4.2489654e-39
0.87057894 0.02282046 0.083257772 4.8050496e-39
0.87057894 0.025320459 0.083257772 5.2653075e-39
0.87307894 0.02282046 0.080757774 5.1698721e-39
0.87307894 0.02282046 0.083257772 5.1731147e-39
0.87307894 0.025320459 0.080757774 5.0816421e-39
0.87307894 0.025320459 0.083257772 5.0812638e-39
0.87057894 0.02282046 0.088257775 4.7132085e-39
0.87057894 0.025320459 0.088257775 5.0819953e-39
0.87307894 0.02282046 0.08575777 5.0805603e-39
0.87307894 0.025320459 0.08575777 5.2660264e-39
0.86807895 0.017820459 0.090757772 4.7128554e-39
0.86807895 0.020320458 0.090757772 4.8050524e-39
0.86807895 0.017820459 0.095757775 6.5643336e-39
0.86807895 0.020320458 0.095757775 6.5650539e-39
0.87057894 0.017820459 0.09325777 4.5273921e-39
0.87057894 0.020320458 0.09325777 4.4351965e-39
0.87307894 0.017820459 0.090757772 4.528111e-39
0.87307894 0.020320458 0.090757772 4.7132085e-39
0.87057894 0.017820459 0.098257773 8.40394e-39
0.87057894 0.020320458 0.098257773 7.8507662e-39
0.87307894 0.017820459 0.095757775 6.4724981e-39
0.87307894 0.017820459 0.098257773 5.7266906e-39
0.87307894 0.020320458 0.095757775 6.6572495e-39
0.87307894 0.020320458 0.098257773 5.4504625e-39
0.87057894 0.02282046 0.09325777 4.0710859e-39
0.87057894 0.025320459 0.09325777 4.3447932e-39
0.87307894 0.02282046 0.090757772 4.8976012e-39
0.87307894 0.02282046 0.09325777 4.5302606e-39
0.87307894 0.025320459 0.090757772 5.2660292e-39
0.87307894 0.025320459 0.09325777 4.3462421e-39
0.87307894 0.02282046 0.095757775 6.4649423e-39
0.87307894 0.02282046 0.098257773 6.1001227e-39
0.87307894 0.025320459 0.095757775 6.0046872e-39
0.87307894 0.025320459 0.098257773 5.7334953e-39
0.87057894 0.027820459 0.080757774 4.1603865e-39
0.87057894 0.03032046 0.080757774 1.161884e-38
0.87307894 0.027820459 0.080757774 4.6203038e-39
0.87307894 0.027820459 0.083257772 5.1731119e-39
0.87307894 0.03032046 0.080757774 1.161884e-38
0.87307894 0.03032046 0.083257772 1.161884e-38
0.87057894 0.027820459 0.088257775 4.6206598e-39
0.87057894 0.03032046 0.088257775 1.143589e-38
0.87307894 0.027820459 0.08575777 4.7128526e-39
0.87307894 0.03032046 0.08575777 1.161884e-38
0.87057894 0.032820459 0.080757774 1.5391275e-38
0.87307894 0.032820459 0.080757774 1.5300159e-38
0.87307894 0.032820459 0.083257772 1.5207963e-38
0.87307894 0.032820459 0.08575777 1.5392707e-38
0.87057894 0.027820459 0.09325777 5.994546e-39
0.87307894 0.027820459 0.090757772 4.8050524e-39
0.87307894 0.027820459 0.09325777 3.9774582e-39
0.87307894 0.03032046 0.090757772 1.1343697e-38
0.87307894 0.03032046 0.09325777 1.1341542e-38
0.87307894 0.027820459 0.095757775 5.8119554e-39
0.87307894 0.017820459 0.10075777 4.5338886e-39
0.87307894 0.017820459 0.10325778 3.332114e-39
0.87307894 0.020320458 0.10075777 4.2576618e-39
0.87307894 0.020320458 0.10325778 3.2399184e-39
0.87307894 0.02282046 0.10075777 6.0061418e-39
0.87307894 0.02282046 0.10325778 6.4660409e-39
0.87307894 0.025320459 0.10325778 6.2841636e-39
0.87307894 0.027820459 0.10325778 6.3684279e-39
0.87307894 0.03032046 0.10325778 7.1063517e-39
0.87557894 -0.044679541 0.068257771 4.0642238e-39
0.87557894 -0.04217954 0.068257771 3.9720281e-39
0.87557894 -0.039679542 0.068257771 3.5128493e-39
0.87557894 -0.037179541 0.068257771 3.5128493e-39
0.87557894 -0.03467954 0.068257771 3.5128493e-39
0.87557894 -0.032179542 0.068257771 3.4199474e-39
0.87557894 -0.029679541 0.068257771 3.0540417e-39
0.87807894 -0.032179542 0.065757774 3.603603e-39
0.87807894 -0.029679541 0.065757774 3.235905e-39
0.87557894 -0.027179541 0.068257771 2.9603943e-39
0.87557894 -0.024679542 0.068257771 2.9603943e-39
0.87807894 -0.027179541 0.065757774 3.235905e-39
0.87557894 -0.032179542 0.09325777 6.7487571e-39
0.87557894 -0.029679541 0.09325777 6.6562055e-39
0.87557894 -0.02217954 0.068257771 3.4185012e-39
0.87557894 -0.017179541 0.068257771 3.0500788e-39
0.87557894 -0.014679541 0.068257771 2.9575245e-39
0.87557894 -0.01217954 0.068257771 2.9575245e-39
0.87557894 -0.009679541 0.068257771 2.9575245e-39
0.87807894 -0.009679541 0.065757774 2.5901671e-39
0.87557894 -0.007179541 0.068257771 3.4188544e-39
0.87557894 -0.0046795406 0.068257771 3.4188544e-39
0.87807894 -0.007179541 0.065757774 2.4979715e-39
0.87807894 -0.007179541 0.068257771 2.9603943e-39
0.87807894 -0.0046795406 0.065757774 3.5989268e-39
0.87807894 -0.0046795406 0.068257771 3.5114031e-39
0.88057894 -0.0046795406 0.068257771 3.2373386e-39
0.87557894 -0.007179541 0.073257774 3.2348485e-39
0.87557894 -0.0046795406 0.073257774 3.1433591e-39
0.87807894 -0.007179541 0.070757776 3.4199474e-39
0.87807894 -0.0046795406 0.070757776 3.2373386e-39
0.87807894 -0.0046795406 0.073257774 3.1433591e-39
0.87807894 -0.0021795409 0.068257771 3.1436968e-39
0.87807894 0.00032045916 0.068257771 3.8762214e-39
0.87807894 0.0053204591 0.068257771 3.4192047e-39
0.88057894 -0.0021795409 0.065757774 3.4192047e-39
0.88057894 -0.0021795409 0.068257771 3.2373386e-39
0.88057894 0.00032045916 0.065757774 2.9589468e-39
0.88057894 0.00032045916 0.068257771 3.2373386e-39
0.88057894 0.0028204592 0.065757774 3.0504264e-39
0.88057894 0.0028204592 0.068257771 3.6954455e-39
0.88057894 0.0053204591 0.065757774 2.9582307e-39
0.87557894 0.00032045916 0.073257774 3.0529459e-39
0.87807894 -0.0021795409 0.070757776 3.3281021e-39
0.87807894 -0.0021795409 0.073257774 3.0529459e-39
0.87807894 0.00032045916 0.070757776 3.3281021e-39
0.87807894 0.0028204592 0.070757776 3.4206564e-39
0.87807894 0.0053204591 0.070757776 3.2373386e-39
0.87807894 0.0078204591 0.068257771 3.4192047e-39
0.88057894 0.0078204591 0.065757774 3.3266531e-39
0.88057894 0.0078204591 0.068257771 3.4206564e-39
0.88057894 0.010320459 0.068257771 3.3281021e-39
0.88307893 0.012820459 0.068257771 3.6032498e-39
0.88307893 0.015320459 0.068257771 3.0529459e-39
0.87557894 0.0078204591 0.073257774 2.9621936e-39
0.87557894 0.010320459 0.073257774 3.2387791e-39
0.87807894 0.0078204591 0.070757776 3.2373386e-39
0.87557894 0.012820459 0.073257774 3.5128493e-39
0.87807894 0.012820459 0.073257774 3.4206564e-39
0.87807894 0.015320459 0.073257774 3.5128493e-39
0.87557894 0.015320459 0.075757772 3.8809213e-39
0.87557894 0.015320459 0.078257769 4.2497136e-39
0.88057894 0.015320459 0.070757776 3.5128493e-39
0.88557893 0.012820459 0.065757774 3.6032498e-39
0.88557893 0.015320459 0.065757774 3.5110528e-39
0.87557894 -0.0021795409 0.095757775 8.4043198e-39
0.87807894 0.00032045916 0.095757775 5.6395397e-39
0.87557894 0.0053204591 0.095757775 7.9454856e-39
0.87807894 0.0028204592 0.095757775 5.732094e-39
0.87807894 0.0053204591 0.098257773 4.7200875e-39
0.87557894 0.0078204591 0.095757775 6.0086711e-39
0.87557894 0.010320459 0.095757775 6.1912645e-39
0.87557894 0.015320459 0.09325777 6.3817514e-39
0.87807894 0.015320459 0.098257773 5.8195785e-39
0.87557894 0.00032045916 0.10075777 3.615905e-39
0.87557894 0.0028204592 0.10075777 3.8924904e-39
0.87557894 0.0053204591 0.10075777 5.0885099e-39
0.87557894 0.010320459 0.10075777 5.733145e-39
0.87807894 0.010320459 0.10075777 4.7179197e-39
0.87557894 0.012820459 0.10075777 3.6097715e-39
0.87557894 0.015320459 0.10075777 5.2689369e-39
0.87557894 0.015320459 0.10325778 3.0569718e-39
0.87807894 0.012820459 0.10075777 3.3349852e-39
0.87807894 0.015320459 0.10075777 3.2417176e-39
0.88057894 0.015320459 0.10075777 3.7005378e-39
0.88057894 0.015320459 0.10325778 3.5175786e-39
0.88307893 0.012820459 0.10075777 2.7825275e-39
0.88307893 0.012820459 0.10325778 2.7821772e-39
0.88307893 0.015320459 0.10075777 3.425383e-39
0.88307893 0.015320459 0.10325778 3.0573166e-39
0.88557893 0.010320459 0.10075777 4.3502134e-39
0.88557893 0.010320459 0.10325778 3.9800015e-39
0.88557893 0.012820459 0.10325778 2.5970671e-39
0.88807893 0.012820459 0.13325778 1.3952771e-39
0.89057893 0.015320459 0.13075778 9.3681707e-40
0.89057893 0.015320459 0.13325778 1.3952771e-39
0.89307892 0.012820459 0.13075778 6.6130918e-40
0.89307892 0.015320459 0.13075778 6.6166231e-40
0.89057893 0.012820459 0.13575777 6.6130918e-40
0.89057893 0.012820459 0.13825777 1.4878258e-39
0.89307892 0.015320459 0.13575777 9.3681707e-40
0.89557892 0.015320459 0.12825777 1.0293686e-39
0.90307897 0.012820459 0.12325777 7.5205447e-40
0.90057898 0.015320459 0.12575777 1.5800215e-39
0.90057898 0.015320459 0.12825777 1.4878258e-39
0.89557892 0.015320459 0.13325778 1.487823e-39
0.89807898 0.015320459 0.13075778 1.4878258e-39
0.89807898 0.015320459 0.13325778 1.3952771e-39
0.89557892 0.012820459 0.13575777 1.4878258e-39
0.89557892 0.015320459 0.13575777 1.4874699e-39
0.89807898 0.012820459 0.13575777 1.0293686e-39
0.90057898 0.015320459 0.13075778 1.3952771e-39
0.90057898 0.015320459 0.13325778 1.4874699e-39
0.91557896 0.015320459 0.12825777 1.5796655e-39
0.92307895 0.015320459 0.13075778 1.4874699e-39
0.93807894 0.015320459 0.12575777 1.4874699e-39
0.94307894 0.015320459 0.12325777 1.5800215e-39
0.94307894 0.012820459 0.12825777 1.4878258e-39
0.94307894 0.015320459 0.12575777 2.1306785e-39
0.94307894 0.015320459 0.12825777 7.5098668e-40
0.94557893 0.015320459 0.12325777 2.4983792e-39
0.94807893 0.015320459 0.12325777 1.3952771e-39
0.94557893 0.012820459 0.12575777 1.5800215e-39
0.94557893 0.012820459 0.12825777 1.672587e-39
0.94557893 0.015320459 0.12575777 1.4874699e-39
0.94557893 0.015320459 0.12825777 6.5950991e-40
0.94807893 0.012820459 0.12825777 8.4642211e-40
0.94807893 0.015320459 0.12825777 1.5582439e-41
0.95057893 0.012820459 0.12825777 1.2141144e-39
0.95057893 0.015320459 0.12575777 3.8292442e-40
0.95057893 0.015320459 0.12825777 1.9960235e-40
0.95307893 0.015320459 0.12825777 1.4144707e-41
0.94557893 0.012820459 0.13075778 1.489988e-39
0.94557893 0.015320459 0.13075778 1.9924923e-40
0.96807897 -0.11467954 0.11825778 7.4639e-39
0.96557897 -0.11217954 0.11575777 7.464602e-39
0.96557897 -0.10967954 0.11575777 7.1891053e-39
0.96807897 -0.11217954 0.11825778 7.6482912e-39
0.96807897 -0.10967954 0.11825778 7.0983572e-39
0.97057897 -0.10717954 0.11575777 4.9857891e-39
0.97057897 -0.10717954 0.11825778 6.9183254e-39
0.97057897 -0.10467954 0.11575777 8.0264498e-39
0.97057897 -0.10467954 0.11825778 9.0388263e-39
0.96307898 -0.10717954 0.12575777 7.3745714e-39
0.96557897 -0.11217954 0.12325777 8.3872786e-39
0.96557897 -0.10967954 0.12325777 8.1121364e-39
0.96807897 -0.11217954 0.12075777 8.2943795e-39
0.96807897 -0.11217954 0.12325777 8.3872842e-39
0.96807897 -0.10967954 0.12075777 8.2043349e-39
0.96807897 -0.10967954 0.12325777 7.743714e-39
0.96557897 -0.10967954 0.12575777 8.202537e-39
0.96807897 -0.11217954 0.12825777 8.7506591e-39
0.96807897 -0.10967954 0.12575777 8.2025342e-39
0.96807897 -0.10967954 0.12825777 8.1078078e-39
0.96557897 -0.10717954 0.12325777 7.5593214e-39
0.96807897 -0.10717954 0.12325777 7.1905403e-39
0.96807897 -0.10467954 0.12325777 1.0234145e-38
0.96557897 -0.10717954 0.12575777 7.2809408e-39
0.96557897 -0.10717954 0.12825777 8.2907543e-39
0.96807897 -0.10717954 0.12575777 7.188741e-39
0.96807897 -0.10717954 0.12825777 8.0156122e-39
0.96807897 -0.10467954 0.12575777 1.0237019e-38
0.97057897 -0.11217954 0.12575777 8.6591795e-39
0.97057897 -0.11217954 0.12825777 9.5771575e-39
0.97057897 -0.10967954 0.12575777 8.4751456e-39
0.97057897 -0.10967954 0.12825777 9.0290382e-39
0.97307897 -0.11217954 0.12825777 9.8533689e-39
0.97307897 -0.10967954 0.12825777 8.7560289e-39
0.97057897 -0.10717954 0.12325777 6.5491968e-39
0.97057897 -0.10467954 0.12325777 1.0328859e-38
0.97307897 -0.10467954 0.12075777 9.4068984e-39
0.97057897 -0.10717954 0.12575777 7.3775281e-39
0.97057897 -0.10717954 0.12825777 8.1074421e-39
0.97057897 -0.10467954 0.12575777 1.0882038e-38
0.97307897 -0.10717954 0.12825777 7.6548353e-39
0.97307897 -0.10467954 0.12825777 1.1526348e-38
0.96807897 -0.10717954 0.13075778 8.0152591e-39
0.97057897 -0.10967954 0.13075778 1.2809782e-38
0.97057897 -0.10717954 0.13075778 1.1242456e-38
0.97557896 -0.10967954 0.12325777 8.2921991e-39
0.97557896 -0.10717954 0.12325777 7.3775253e-39
0.97557896 -0.10467954 0.12325777 1.1249742e-38
0.97557896 -0.10467954 0.12575777 1.1066074e-38
0.97807896 -0.10467954 0.12825777 1.0976767e-38
0.98057896 -0.10967954 0.12825777 1.4005066e-38
0.98307896 -0.10467954 0.12075777 8.219553e-39
0.98057896 -0.10717954 0.12825777 9.5012674e-39
0.98057896 -0.10467954 0.12575777 1.0333196e-38
0.98057896 -0.10467954 0.12825777 1.0976397e-38
0.97557896 -0.10967954 0.13075778 1.3454409e-38
0.97557896 -0.10967954 0.13325778 1.5106414e-38
0.97557896 -0.10717954 0.13075778 9.4087159e-39
0.98557895 -0.10717954 0.12825777 8.7669492e-39
0.98557895 -0.10467954 0.12825777 9.6885454e-39
0.98807895 -0.10717954 0.12825777 8.3038172e-39
0.98807895 -0.10467954 0.12825777 9.5023604e-39
0.99307895 -0.10967954 0.12825777 1.3728497e-38
0.99307895 -0.10717954 0.12825777 7.2936142e-39
0.99307895 -0.10467954 0.12825777 8.584353e-39
0.99057895 -0.094679542 0.073257774 9.0464256e-39
0.99307895 -0.09717954 0.073257774 9.1386198e-39
0.99307895 -0.094679542 0.073257774 6.8427282e-39
0.99307895 -0.094679542 0.075757772 8.219553e-39
0.99307895 -0.094679542 0.078257769 4.7179141e-39
0.99307895 -0.092179544 0.073257774 1.5211095e-41
0.99307895 -0.092179544 0.078257769 1.3416031e-41
0.99307895 -0.094679542 0.08575777 3.1491633e-39
0.99307895 -0.094679542 0.090757772 1.3791579e-41
0.99307895 -0.092179544 0.08575777 1.0740953e-40
0.99307895 -0.092179544 0.090757772 1.8529944e-39
0.97057897 -0.10217954 0.11575777 7.9357634e-39
0.97307897 -0.10217954 0.11575777 8.3974408e-39
0.96807897 -0.10217954 0.12575777 9.7807676e-39
0.97057897 -0.10217954 0.12325777 1.0056997e-38
0.97307897 -0.10217954 0.12075777 9.2272183e-39
0.97557896 -0.099679545 0.11325777 7.8511642e-39
0.97557896 -0.10217954 0.11825778 8.9506118e-39
0.97807896 -0.099679545 0.11575777 6.3785172e-39
0.99057895 -0.099679545 0.11825778 1.449363e-41
0.99307895 -0.099679545 0.11575777 1.2334229e-41
0.99307895 -0.099679545 0.11825778 5.6801773e-40
0.99307895 -0.09717954 0.11575777 1.6700507e-39
0.99307895 -0.09717954 0.11825778 1.7622463e-39
0.97557896 -0.10217954 0.12075777 8.2134251e-39
0.97557896 -0.10217954 0.12325777 8.2199089e-39
0.97807896 -0.10217954 0.12325777 8.2199089e-39
0.97557896 -0.10217954 0.12575777 8.9538586e-39
0.97807896 -0.10217954 0.12575777 9.0467731e-39
0.98057896 -0.10217954 0.12075777 4.1625921e-39
0.98307896 -0.10217954 0.12075777 4.439172e-39
0.98307896 -0.10217954 0.12325777 3.9774526e-39
0.98307896 -0.099679545 0.12075777 2.5070168e-39
0.98057896 -0.10217954 0.12575777 8.4957699e-39
0.98057896 -0.10217954 0.12825777 8.9542397e-39
0.98307896 -0.10217954 0.12575777 3.4250117e-39
0.98557895 -0.10217954 0.12325777 4.8050496e-39
0.98557895 -0.099679545 0.12325777 2.8729099e-39
0.98557895 -0.10217954 0.12575777 3.1459165e-39
0.98807895 -0.10217954 0.12825777 2.0285197e-40
0.99057895 -0.099679545 0.12325777 1.304508e-39
0.99307895 -0.10217954 0.12325777 1.8449496e-41
0.99307895 -0.099679545 0.12075777 1.0279211e-39
0.99307895 -0.099679545 0.12325777 1.4856566e-39
0.99057895 -0.10217954 0.12575777 1.9179572e-41
0.99307895 -0.10217954 0.12825777 1.8449496e-41
0.99557894 -0.10967954 0.12575777 1.3452984e-38
0.99557894 -0.10967954 0.12825777 1.0414195e-38
0.99807894 -0.10967954 0.12575777 1.0506031e-38
0.99807894 -0.10967954 0.12825777 1.0322381e-38
0.99557894 -0.10717954 0.12575777 7.6613191e-39
0.99557894 -0.10717954 0.12825777 7.2010808e-39
0.99557894 -0.10467954 0.12825777 4.9037375e-39
0.99807894 -0.10717954 0.12575777 7.4776691e-39
0.99807894 -0.10717954 0.12825777 8.2155873e-39
0.99807894 -0.10467954 0.12575777 4.9033844e-39
0.99807894 -0.10467954 0.12825777 6.189803e-39
1.000579 -0.10967954 0.12825777 1.0045081e-38
1.000579 -0.10717954 0.12825777 8.2145083e-39
1.000579 -0.10467954 0.12825777 6.5575079e-39
0.99807894 -0.10717954 0.13075778 5.3593178e-39
0.99807894 -0.10717954 0.13325778 3.3324363e-39
0.99807894 -0.10467954 0.13075778 5.6330138e-39
0.99807894 -0.10467954 0.13325778 4.0667643e-39
1.000579 -0.10717954 0.13075778 2.9647272e-39
1.000579 -0.10467954 0.13075778 4.434828e-39
1.005579 -0.10717954 0.12825777 5.9106923e-39
1.005579 -0.10467954 0.12825777 5.8163261e-39
1.005579 -0.10717954 0.13075778 2.6881459e-39
1.005579 -0.10467954 0.13075778 4.3426422e-39
1.000579 -0.094679542 0.068257771 6.752329e-39
0.99557894 -0.09717954 0.073257774 8.9545957e-39
0.99557894 -0.094679542 0.073257774 5.6459815e-39
0.99807894 -0.094679542 0.073257774 6.1991552e-39
0.99557894 -0.09717954 0.075757772 8.9553229e-39
0.99557894 -0.094679542 0.075757772 4.998817e-39
0.99807894 -0.09717954 0.078257769 6.0086529e-39
0.99807894 -0.094679542 0.078257769 2.967995e-39
1.000579 -0.09717954 0.073257774 8.1255609e-39
1.000579 -0.094679542 0.073257774 4.6303932e-39
1.0030789 -0.09717954 0.073257774 5.9164573e-39
1.0030789 -0.094679542 0.073257774 3.8002738e-39
1.000579 -0.09717954 0.075757772 5.5484034e-39
1.000579 -0.09717954 0.078257769 3.7974025e-39
1.000579 -0.094679542 0.075757772 4.2612519e-39
1.000579 -0.094679542 0.078257769 3.0601906e-39
1.0030789 -0.09717954 0.078257769 3.5179318e-39
1.0030789 -0.094679542 0.078257769 2.2279118e-39
0.99557894 -0.092179544 0.068257771 1.0315308e-39
0.99557894 -0.089679539 0.068257771 1.5753369e-39
1.000579 -0.092179544 0.068257771 1.6644623e-41
1.000579 -0.089679539 0.068257771 2.8783511e-40
1.000579 -0.087179542 0.068257771 2.4969331e-39
1.000579 -0.084679544 0.068257771 2.312902e-39
0.99557894 -0.092179544 0.073257774 1.7004757e-41
0.99807894 -0.092179544 0.073257774 1.6644623e-41
0.99807894 -0.089679539 0.070757776 4.7150751e-40
0.99807894 -0.089679539 0.073257774 1.0250372e-39
0.99557894 -0.092179544 0.075757772 1.4850961e-41
0.99557894 -0.089679539 0.075757772 1.3012612e-39
0.99807894 -0.092179544 0.078257769 1.4853764e-41
0.99807894 -0.089679539 0.078257769 1.5764061e-39
0.99807894 -0.087179542 0.078257769 1.9455488e-39
1.000579 -0.092179544 0.073257774 1.4850961e-41
1.000579 -0.089679539 0.073257774 1.2101445e-39
1.0030789 -0.092179544 0.070757776 1.449363e-41
1.0030789 -0.089679539 0.070757776 1.0246813e-39
1.0030789 -0.089679539 0.073257774 9.3320452e-40
1.000579 -0.092179544 0.075757772 1.5211095e-41
1.000579 -0.092179544 0.078257769 1.5931362e-41
1.000579 -0.089679539 0.075757772 1.118302e-39
1.000579 -0.087179542 0.073257774 1.947711e-39
1.0030789 -0.087179542 0.070757776 2.682032e-39
1.0030789 -0.087179542 0.073257774 1.9480655e-39
1.0030789 -0.084679544 0.070757776 2.589835e-39
1.0030789 -0.084679544 0.073257774 1.7633183e-39
1.000579 -0.087179542 0.075757772 1.947711e-39
1.000579 -0.087179542 0.078257769 1.7633183e-39
1.000579 -0.084679544 0.075757772 2.1310288e-39
1.000579 -0.084679544 0.078257769 1.7633183e-39
1.0030789 -0.087179542 0.078257769 1.1201139e-39
1.0030789 -0.084679544 0.078257769 1.6707696e-39
1.005579 -0.09717954 0.075757772 3.5204625e-39
1.005579 -0.094679542 0.075757772 3.2449378e-39
1.005579 -0.094679542 0.078257769 2.4126534e-39
0.99557894 -0.094679542 0.080757774 3.1527422e-39
0.99557894 -0.094679542 0.083257772 2.1357134e-39
0.99807894 -0.094679542 0.080757774 1.7680071e-39
0.99807894 -0.094679542 0.083257772 1.8566098e-39
0.99557894 -0.094679542 0.08575777 3.1459165e-39
0.99557894 -0.094679542 0.088257775 1.6722311e-39
0.99807894 -0.094679542 0.08575777 3.3306636e-39
1.000579 -0.094679542 0.083257772 1.9516823e-39
0.99557894 -0.09717954 0.09325777 4.4427719e-39
0.99557894 -0.094679542 0.090757772 1.3432847e-41
0.99557894 -0.094679542 0.09325777 1.2699968e-41
0.99807894 -0.09717954 0.090757772 4.8115545e-39
0.99807894 -0.09717954 0.09325777 4.4431279e-39
0.99557894 -0.09717954 0.095757775 4.2583779e-39
0.99557894 -0.094679542 0.095757775 1.3060102e-41
0.99807894 -0.09717954 0.095757775 3.8899513e-39
0.99807894 -0.09717954 0.098257773 2.6899662e-39
0.99807894 -0.094679542 0.095757775 1.4486624e-41
0.99807894 -0.094679542 0.098257773 1.2692961e-41
1.000579 -0.099679545 0.098257773 3.9767547e-39
1.000579 -0.09717954 0.095757775 3.2445819e-39
1.000579 -0.09717954 0.098257773 2.044594e-39
1.000579 -0.094679542 0.095757775 1.3773363e-41
1.000579 -0.094679542 0.098257773 1.4489426e-41
0.99557894 -0.092179544 0.080757774 1.5931362e-41
0.99557894 -0.092179544 0.083257772 1.3771961e-41
0.99557894 -0.089679539 0.080757774 1.6689549e-39
0.99557894 -0.089679539 0.083257772 2.4036501e-39
0.99807894 -0.092179544 0.080757774 1.3776165e-41
0.99807894 -0.092179544 0.083257772 3.8147968e-40
0.99807894 -0.089679539 0.080757774 2.2189029e-39
0.99807894 -0.089679539 0.083257772 1.9448397e-39
0.99557894 -0.092179544 0.08575777 1.1183146e-39
0.99557894 -0.092179544 0.088257775 1.2083495e-39
0.99557894 -0.089679539 0.088257775 1.853e-39
0.99807894 -0.092179544 0.08575777 1.2079935e-39
0.99807894 -0.089679539 0.08575777 2.1285107e-39
0.99557894 -0.087179542 0.080757774 1.9455432e-39
0.99557894 -0.087179542 0.083257772 2.6802355e-39
0.99807894 -0.087179542 0.080757774 2.4958485e-39
0.99807894 -0.087179542 0.083257772 1.9448397e-39
0.99557894 -0.087179542 0.088257775 1.3030632e-39
0.99807894 -0.087179542 0.08575777 2.2207063e-39
0.99807894 -0.084679544 0.08575777 1.4878258e-39
1.000579 -0.092179544 0.083257772 1.4855165e-41
1.000579 -0.089679539 0.083257772 1.5785767e-39
1.000579 -0.087179542 0.083257772 1.9462775e-39
1.000579 -0.084679544 0.083257772 1.6704164e-39
1.0030789 -0.084679544 0.080757774 2.0388318e-39
1.000579 -0.087179542 0.08575777 1.9451956e-39
1.000579 -0.087179542 0.088257775 1.9462803e-39
1.000579 -0.084679544 0.08575777 1.2123151e-39
1.000579 -0.084679544 0.088257775 2.0384759e-39
1.0030789 -0.084679544 0.08575777 2.0388318e-39
0.99557894 -0.092179544 0.090757772 1.8529944e-39
0.99557894 -0.092179544 0.09325777 1.9455432e-39
0.99557894 -0.089679539 0.090757772 1.7629652e-39
0.99807894 -0.092179544 0.090757772 1.1183146e-39
0.99807894 -0.092179544 0.09325777 1.2105117e-39
0.99807894 -0.089679539 0.090757772 1.3941897e-39
0.99807894 -0.089679539 0.09325777 1.3941897e-39
0.99557894 -0.092179544 0.095757775 1.9455488e-39
0.99557894 -0.087179542 0.090757772 1.6707696e-39
0.99807894 -0.087179542 0.090757772 1.3941897e-39
0.99807894 -0.087179542 0.09325777 1.3941897e-39
1.000579 -0.092179544 0.095757775 1.2108648e-39
1.000579 -0.092179544 0.098257773 1.5785767e-39
1.000579 -0.089679539 0.095757775 1.3941897e-39
1.000579 -0.089679539 0.098257773 1.9462775e-39
1.000579 -0.087179542 0.090757772 1.7622491e-39
1.000579 -0.084679544 0.090757772 2.0384759e-39
1.0030789 -0.087179542 0.090757772 1.3956302e-39
1.0030789 -0.087179542 0.09325777 1.4878258e-39
1.0030789 -0.084679544 0.090757772 1.4878258e-39
1.0030789 -0.084679544 0.09325777 1.4878258e-39
1.000579 -0.087179542 0.095757775 1.5782208e-39
1.000579 -0.087179542 0.098257773 2.0384759e-39
1.000579 -0.084679544 0.095757775 1.6725716e-39
1.000579 -0.084679544 0.098257773 1.2123151e-39
1.005579 -0.087179542 0.095757775 1.4878258e-39
1.005579 -0.084679544 0.095757775 1.4878258e-39
1.000579 -0.082179539 0.068257771 1.7626149e-39
1.000579 -0.079679541 0.068257771 1.7626149e-39
1.0030789 -0.082179539 0.070757776 2.1310288e-39
1.0030789 -0.082179539 0.073257774 2.0388318e-39
1.0030789 -0.079679541 0.070757776 2.1310288e-39
1.0030789 -0.079679541 0.073257774 2.1310288e-39
1.000579 -0.082179539 0.078257769 1.6722157e-39
1.000579 -0.079679541 0.075757772 1.3970595e-39
1.000579 -0.079679541 0.078257769 2.0388318e-39
1.0030789 -0.082179539 0.078257769 1.7622463e-39
1.0030789 -0.079679541 0.078257769 2.0388318e-39
1.0030789 -0.077179544 0.070757776 2.1306785e-39
1.0030789 -0.077179544 0.073257774 1.5800215e-39
1.0030789 -0.074679539 0.070757776 1.8551776e-39
1.0030789 -0.074679539 0.073257774 1.6722213e-39
1.000579 -0.077179544 0.075757772 1.6722213e-39
1.000579 -0.077179544 0.078257769 2.0399248e-39
1.0030789 -0.077179544 0.078257769 2.0381228e-39
1.0030789 -0.074679539 0.078257769 2.3150726e-39
1.0030789 -0.072179541 0.070757776 1.9477292e-39
1.0030789 -0.072179541 0.073257774 1.947732e-39
1.0030789 -0.069679543 0.070757776 2.0399248e-39
1.0030789 -0.069679543 0.073257774 1.5796655e-39
1.000579 -0.072179541 0.078257769 1.5796655e-39
1.000579 -0.069679543 0.078257769 1.7629806e-39
1.0030789 -0.072179541 0.078257769 1.5796655e-39
1.0030789 -0.069679543 0.078257769 1.7629806e-39
1.0030789 -0.067179538 0.073257774 1.7629806e-39
1.005579 -0.079679541 0.068257771 1.6722213e-39
1.005579 -0.077179544 0.068257771 1.6722213e-39
1.005579 -0.074679539 0.068257771 1.8551776e-39
1.005579 -0.082179539 0.075757772 2.0388318e-39
1.005579 -0.082179539 0.078257769 1.5800187e-39
1.005579 -0.079679541 0.075757772 2.0381228e-39
1.005579 -0.079679541 0.078257769 1.5800187e-39
1.005579 -0.077179544 0.070757776 1.9477292e-39
1.005579 -0.074679539 0.070757776 1.7629806e-39
1.005579 -0.077179544 0.075757772 1.4878258e-39
1.005579 -0.074679539 0.075757772 1.6722213e-39
1.005579 -0.074679539 0.078257769 1.6722213e-39
1.005579 -0.072179541 0.068257771 1.947732e-39
1.005579 -0.069679543 0.068257771 1.5800215e-39
1.005579 -0.067179538 0.068257771 1.8551776e-39
1.005579 -0.064679541 0.068257771 1.947732e-39
1.005579 -0.072179541 0.075757772 1.5796655e-39
1.005579 -0.072179541 0.078257769 1.9477292e-39
1.005579 -0.069679543 0.075757772 1.7629806e-39
1.005579 -0.069679543 0.078257769 1.6722213e-39
1.005579 -0.067179538 0.070757776 1.8551776e-39
1.005579 -0.064679541 0.070757776 1.7629806e-39
1.0080789 -0.064679541 0.073257774 1.7629806e-39
1.005579 -0.067179538 0.075757772 1.8551776e-39
1.005579 -0.067179538 0.078257769 1.7629806e-39
1.005579 -0.064679541 0.075757772 1.0290155e-39
1.005579 -0.064679541 0.078257769 1.7629806e-39
1.0080789 -0.067179538 0.078257769 1.1215671e-39
1.0080789 -0.064679541 0.075757772 1.5796655e-39
1.0080789 -0.064679541 0.078257769 1.7629806e-39
0.99807894 -0.079679541 0.08575777 1.5800215e-39
1.000579 -0.082179539 0.083257772 1.7622491e-39
1.000579 -0.079679541 0.083257772 2.0384759e-39
1.0030789 -0.082179539 0.080757774 2.1296023e-39
1.0030789 -0.079679541 0.080757774 2.4983848e-39
1.000579 -0.082179539 0.08575777 2.0381228e-39
1.000579 -0.082179539 0.088257775 1.4878258e-39
1.000579 -0.079679541 0.08575777 1.8551832e-39
1.000579 -0.079679541 0.088257775 1.5800215e-39
1.0030789 -0.082179539 0.08575777 1.4874699e-39
1.0030789 -0.082179539 0.088257775 1.5800215e-39
1.0030789 -0.079679541 0.08575777 1.4874699e-39
1.0030789 -0.079679541 0.088257775 1.5800215e-39
1.000579 -0.077179544 0.083257772 1.4878258e-39
1.000579 -0.074679539 0.083257772 1.8551776e-39
1.0030789 -0.077179544 0.080757774 1.9480823e-39
1.0030789 -0.074679539 0.080757774 1.5796655e-39
1.000579 -0.077179544 0.08575777 1.947732e-39
1.000579 -0.077179544 0.088257775 1.9477292e-39
1.0030789 -0.077179544 0.08575777 1.5796655e-39
1.0030789 -0.077179544 0.088257775 1.5800215e-39
1.0030789 -0.074679539 0.08575777 1.5796655e-39
1.0030789 -0.074679539 0.088257775 1.7644141e-39
1.000579 -0.082179539 0.090757772 1.4874699e-39
1.000579 -0.079679541 0.090757772 1.5796655e-39
1.0030789 -0.082179539 0.090757772 1.4874699e-39
1.0030789 -0.082179539 0.09325777 1.7629806e-39
1.0030789 -0.079679541 0.090757772 1.4874699e-39
1.0030789 -0.079679541 0.09325777 1.7629806e-39
1.000579 -0.082179539 0.095757775 1.5796655e-39
1.000579 -0.082179539 0.098257773 1.6722185e-39
1.000579 -0.079679541 0.098257773 1.3952743e-39
1.000579 -0.077179544 0.090757772 1.5796655e-39
1.000579 -0.074679539 0.090757772 1.8551776e-39
1.0030789 -0.077179544 0.090757772 1.0290127e-39
1.0030789 -0.077179544 0.09325777 1.4874699e-39
1.0030789 -0.074679539 0.090757772 1.487823e-39
1.0030789 -0.074679539 0.09325777 1.0290001e-39
1.000579 -0.077179544 0.098257773 1.4874699e-39
1.000579 -0.072179541 0.083257772 1.4874755e-39
1.000579 -0.069679543 0.083257772 1.5796655e-39
1.0030789 -0.072179541 0.080757774 1.5796655e-39
1.0030789 -0.069679543 0.080757774 1.7629806e-39
1.0030789 -0.072179541 0.08575777 1.1215643e-39
1.0030789 -0.072179541 0.088257775 1.6722185e-39
1.0030789 -0.069679543 0.08575777 1.5796655e-39
1.0030789 -0.069679543 0.088257775 1.1215671e-39
1.0030789 -0.067179538 0.080757774 1.7629806e-39
1.0030789 -0.067179538 0.08575777 1.5796655e-39
1.0030789 -0.067179538 0.088257775 1.1212111e-39
1.0030789 -0.064679541 0.088257775 1.0290155e-39
1.000579 -0.072179541 0.090757772 1.4874699e-39
1.000579 -0.069679543 0.090757772 1.1212111e-39
1.0030789 -0.072179541 0.090757772 1.487823e-39
1.0030789 -0.072179541 0.09325777 7.5205447e-40
1.0030789 -0.069679543 0.090757772 1.3045304e-39
1.0030789 -0.069679543 0.09325777 1.0275904e-39
1.000579 -0.072179541 0.098257773 1.4874699e-39
1.000579 -0.069679543 0.098257773 1.4874755e-39
1.0030789 -0.067179538 0.090757772 1.5796655e-39
1.0030789 -0.067179538 0.09325777 1.3949212e-39
1.0030789 -0.064679541 0.09325777 1.3949212e-39
1.005579 -0.079679541 0.083257772 1.4878258e-39
1.005579 -0.077179544 0.083257772 1.5800215e-39
1.005579 -0.074679539 0.083257772 1.4878258e-39
1.005579 -0.082179539 0.095757775 1.4874699e-39
1.005579 -0.079679541 0.095757775 1.5796655e-39
1.005579 -0.079679541 0.098257773 1.4878258e-39
1.005579 -0.077179544 0.095757775 1.4874699e-39
1.005579 -0.074679539 0.095757775 1.3045108e-39
1.005579 -0.072179541 0.083257772 1.4878258e-39
1.005579 -0.069679543 0.083257772 1.6722213e-39
1.005579 -0.069679543 0.08575777 1.7629806e-39
1.005579 -0.067179538 0.083257772 2.4980289e-39
1.005579 -0.064679541 0.083257772 1.7629806e-39
1.0080789 -0.064679541 0.080757774 2.1296051e-39
1.005579 -0.067179538 0.08575777 1.5796711e-39
1.005579 -0.064679541 0.08575777 1.0290155e-39
1.0080789 -0.064679541 0.088257775 1.3952771e-39
1.005579 -0.072179541 0.095757775 1.2123151e-39
1.005579 -0.069679543 0.095757775 1.3949212e-39
1.005579 -0.069679543 0.098257773 1.3952771e-39
1.005579 -0.067179538 0.090757772 1.0293686e-39
1.005579 -0.067179538 0.09325777 1.3949212e-39
1.005579 -0.064679541 0.090757772 1.0293686e-39
1.005579 -0.064679541 0.09325777 1.3949212e-39
1.0080789 -0.067179538 0.09325777 1.5796655e-39
1.0080789 -0.064679541 0.09325777 6.6130918e-40
1.005579 -0.067179538 0.095757775 7.5350481e-40
1.005579 -0.067179538 0.098257773 1.3952771e-39
1.005579 -0.064679541 0.095757775 1.3952771e-39
1.005579 -0.064679541 0.098257773 1.3952771e-39
1.0080789 -0.067179538 0.095757775 1.3952771e-39
1.0080789 -0.064679541 0.095757775 1.3952771e-39
0.99807894 -0.09717954 0.10075777 1.954199e-39
0.99807894 -0.09717954 0.10325778 4.768983e-40
0.99807894 -0.094679542 0.10075777 2.0363095e-39
0.99807894 -0.094679542 0.10325778 1.7629652e-39
0.99557894 -0.09717954 0.10825777 6.5697496e-40
0.99557894 -0.094679542 0.10825777 1.5785711e-39
0.99807894 -0.09717954 0.10575777 4.725823e-40
0.99807894 -0.094679542 0.10575777 1.5785711e-39
1.0030789 -0.099679545 0.10075777 3.6072561e-39
1.0030789 -0.10217954 0.10575777 5.2743151e-39
1.0030789 -0.10217954 0.10825777 4.7189889e-39
1.0030789 -0.099679545 0.10575777 1.5582439e-41
1.000579 -0.09717954 0.10075777 1.9995828e-40
1.000579 -0.09717954 0.10325778 1.0524172e-40
1.000579 -0.094679542 0.10075777 1.0740392e-40
1.000579 -0.094679542 0.10325778 5.6658e-40
1.000579 -0.09717954 0.10825777 4.725823e-40
1.000579 -0.094679542 0.10825777 1.5785711e-39
1.0030789 -0.09717954 0.10575777 9.3103671e-40
1.0030789 -0.094679542 0.10575777 2.0388318e-39
0.99557894 -0.10217954 0.11325777 7.2000116e-39
0.99557894 -0.099679545 0.11075778 1.1979701e-41
0.99557894 -0.099679545 0.11325777 3.2453049e-39
0.99807894 -0.099679545 0.11075778 1.0890892e-41
0.99557894 -0.09717954 0.11075778 6.5697216e-40
0.99557894 -0.09717954 0.11325777 1.1175958e-39
0.99557894 -0.094679542 0.11325777 2.0388318e-39
0.99807894 -0.09717954 0.11075778 6.5697777e-40
0.99807894 -0.094679542 0.11075778 1.8555139e-39
0.99807894 -0.094679542 0.11325777 1.7629652e-39
0.99557894 -0.094679542 0.11575777 2.1310288e-39
0.99807894 -0.094679542 0.11575777 2.1310288e-39
0.99807894 -0.094679542 0.11825778 2.2232217e-39
0.99807894 -0.092179544 0.10075777 2.4972862e-39
0.99807894 -0.092179544 0.10325778 1.7629652e-39
0.99807894 -0.089679539 0.10075777 2.0384759e-39
0.99807894 -0.092179544 0.10575777 2.0388318e-39
0.99807894 -0.089679539 0.10575777 2.0381228e-39
0.99807894 -0.087179542 0.10075777 1.7626121e-39
0.99807894 -0.087179542 0.10575777 1.9459271e-39
1.000579 -0.092179544 0.10075777 1.8555139e-39
1.000579 -0.092179544 0.10325778 2.0388318e-39
1.000579 -0.089679539 0.10075777 2.0384759e-39
1.000579 -0.089679539 0.10325778 2.0384759e-39
1.000579 -0.092179544 0.10825777 2.0384759e-39
1.000579 -0.089679539 0.10825777 1.7633365e-39
1.0030789 -0.092179544 0.10575777 2.0384759e-39
1.0030789 -0.089679539 0.10575777 1.9462803e-39
1.000579 -0.087179542 0.10075777 2.0384759e-39
1.000579 -0.087179542 0.10325778 2.1306729e-39
1.0030789 -0.087179542 0.10075777 1.5800215e-39
1.0030789 -0.084679544 0.10075777 1.4878258e-39
1.000579 -0.087179542 0.10825777 1.9477292e-39
1.000579 -0.084679544 0.10825777 1.5796655e-39
1.0030789 -0.087179542 0.10575777 1.5796655e-39
1.0030789 -0.084679544 0.10575777 1.4874699e-39
0.99807894 -0.092179544 0.11075778 2.1306729e-39
0.99807894 -0.092179544 0.11325777 1.9462803e-39
0.99807894 -0.089679539 0.11075778 1.6722185e-39
0.99807894 -0.089679539 0.11325777 2.1310288e-39
0.99807894 -0.092179544 0.11825778 2.040994e-39
0.99807894 -0.087179542 0.11075778 1.6722185e-39
0.99807894 -0.087179542 0.11325777 2.0388318e-39
0.99807894 -0.084679544 0.11075778 1.5800215e-39
0.99807894 -0.084679544 0.11325777 2.1306729e-39
1.000579 -0.092179544 0.11325777 2.0384759e-39
1.000579 -0.089679539 0.11325777 2.1306729e-39
1.0030789 -0.089679539 0.11325777 1.6722185e-39
1.000579 -0.092179544 0.11575777 2.131026e-39
1.000579 -0.092179544 0.11825778 2.2232273e-39
1.000579 -0.089679539 0.11575777 2.2232273e-39
1.000579 -0.089679539 0.11825778 1.8569629e-39
1.0030789 -0.092179544 0.11825778 2.5909308e-39
1.0030789 -0.089679539 0.11825778 1.7647673e-39
1.000579 -0.087179542 0.11325777 2.1306729e-39
1.000579 -0.084679544 0.11325777 2.1306729e-39
1.0030789 -0.087179542 0.11325777 1.6722185e-39
1.0030789 -0.084679544 0.11075778 1.5803746e-39
1.0030789 -0.084679544 0.11325777 1.5800215e-39
1.000579 -0.087179542 0.11575777 2.3154229e-39
1.000579 -0.087179542 0.11825778 1.8569629e-39
1.000579 -0.084679544 0.11575777 1.6722185e-39
1.000579 -0.084679544 0.11825778 1.8558867e-39
1.0030789 -0.087179542 0.11825778 1.8569629e-39
1.0030789 -0.084679544 0.11825778 1.8558867e-39
1.005579 -0.084679544 0.11575777 1.9480823e-39
1.005579 -0.084679544 0.11825778 1.9480823e-39
1.0080789 -0.084679544 0.11825778 2.040278e-39
0.99557894 -0.099679545 0.12075777 1.2123151e-39
0.99807894 -0.099679545 0.12325777 2.3154173e-39
0.99557894 -0.10217954 0.12575777 1.8445292e-41
0.99557894 -0.10217954 0.12825777 5.7342675e-40
0.99557894 -0.099679545 0.12575777 1.7608142e-39
0.99807894 -0.10217954 0.12575777 1.3999434e-39
0.99807894 -0.10217954 0.12825777 3.9767491e-39
0.99807894 -0.099679545 0.12575777 1.4860126e-39
0.99557894 -0.09717954 0.12075777 2.131026e-39
0.99557894 -0.094679542 0.12075777 2.4079717e-39
0.99807894 -0.09717954 0.12325777 2.6834824e-39
0.99807894 -0.094679542 0.12325777 2.5912839e-39
0.99807894 -0.09717954 0.12575777 2.5909308e-39
0.99807894 -0.094679542 0.12575777 2.3154173e-39
1.000579 -0.099679545 0.12325777 2.6816817e-39
1.000579 -0.10217954 0.12825777 4.2529759e-39
1.000579 -0.099679545 0.12825777 5.6315691e-39
1.0030789 -0.099679545 0.12575777 3.2337793e-39
1.000579 -0.09717954 0.12325777 2.590928e-39
1.000579 -0.094679542 0.12075777 2.2232273e-39
1.000579 -0.094679542 0.12325777 2.6831264e-39
1.000579 -0.09717954 0.12825777 5.0798471e-39
1.000579 -0.094679542 0.12825777 6.4620514e-39
1.0030789 -0.09717954 0.12575777 5.4479065e-39
1.0030789 -0.094679542 0.12575777 2.8657226e-39
1.000579 -0.10217954 0.13075778 4.8025469e-39
1.0030789 -0.099679545 0.13325778 1.163358e-41
1.000579 -0.094679542 0.13075778 5.6333698e-39
1.0030789 -0.09717954 0.13325778 1.1996516e-41
1.0030789 -0.094679542 0.13325778 9.8273061e-42
1.000579 -0.092179544 0.12075777 2.2232273e-39
1.000579 -0.092179544 0.12325777 2.5909336e-39
1.000579 -0.089679539 0.12075777 2.1324708e-39
1.000579 -0.089679539 0.12325777 2.5909308e-39
1.0030789 -0.089679539 0.12075777 2.1324708e-39
1.000579 -0.092179544 0.12825777 5.17563e-39
1.0030789 -0.092179544 0.12575777 2.6827733e-39
1.0030789 -0.089679539 0.12575777 1.7687329e-39
1.0030789 -0.087179542 0.12075777 2.1324708e-39
1.0030789 -0.084679544 0.12075777 2.040278e-39
1.0030789 -0.087179542 0.12575777 1.4921446e-39
1.0030789 -0.084679544 0.12575777 1.2166494e-39
1.000579 -0.092179544 0.13075778 4.9905157e-39
1.0030789 -0.092179544 0.13325778 9.4713763e-42
1.0030789 -0.089679539 0.13325778 1.0555981e-41
1.005579 -0.10217954 0.12825777 6.0932731e-39
1.005579 -0.099679545 0.12825777 5.5397462e-39
1.005579 -0.09717954 0.12825777 6.4620486e-39
1.005579 -0.094679542 0.12825777 6.1858219e-39
1.005579 -0.10217954 0.13075778 4.6195878e-39
1.005579 -0.099679545 0.13075778 4.2515255e-39
