# .PCD v0.7 - Point Cloud Data file format
VERSION 0.7
FIELDS x y z rgb
SIZE 4 4 4 4
TYPE F F F F
COUNT 1 1 1 1
WIDTH 971
HEIGHT 1
VIEWPOINT 0 0 0 1 0 0 0
POINTS 971
DATA ascii
0.86589909 -0.077071711 0.10711792 5.5455294e-39
0.86339909 -0.082071707 0.10961793 4.715047e-39
0.86339909 -0.079571709 0.10961793 4.350226e-39
0.86589909 -0.082071707 0.10961793 5.0823806e-39
0.86589909 -0.082071707 0.11211792 4.6221241e-39
0.86589909 -0.079571709 0.10961793 5.72775e-39
0.86589909 -0.079571709 0.11211792 5.2674935e-39
0.86589909 -0.082071707 0.11711793 4.6217528e-39
0.85839909 -0.072071709 0.099617921 7.4838026e-39
0.85839909 -0.069571711 0.099617921 7.2994099e-39
0.86089909 -0.072071709 0.099617921 7.2979442e-39
0.85839909 -0.067071706 0.099617921 7.6678239e-39
0.86339909 -0.072071709 0.10211793 5.7306409e-39
0.86589909 -0.072071709 0.099617921 6.0061418e-39
0.86589909 -0.082071707 0.11961792 4.0700308e-39
0.86839908 -0.09457171 0.11711793 9.135373e-39
0.86839908 -0.092071712 0.11461792 7.4794446e-39
0.86839908 -0.092071712 0.11711793 8.5821992e-39
0.86839908 -0.087071709 0.11461792 3.8856325e-39
0.86839908 -0.087071709 0.11711793 3.4264494e-39
0.86839908 -0.084571712 0.11461792 4.528488e-39
0.86839908 -0.084571712 0.11711793 4.6210395e-39
0.87089908 -0.084571712 0.11461792 4.5288411e-39
0.87089908 -0.084571712 0.11711793 4.0703839e-39
0.87339908 -0.084571712 0.11711793 3.8856325e-39
0.86839908 -0.092071712 0.11961792 9.1357247e-39
0.86839908 -0.092071712 0.12211792 1.0058386e-38
0.86839908 -0.089571707 0.11961792 7.5673242e-39
0.86839908 -0.089571707 0.12211792 7.0159497e-39
0.87089908 -0.092071712 0.11961792 8.8602014e-39
0.87089908 -0.092071712 0.12211792 1.0243146e-38
0.87089908 -0.089571707 0.11961792 7.5673242e-39
0.87089908 -0.089571707 0.12211792 6.3712893e-39
0.87089908 -0.092071712 0.12461793 1.0607597e-38
0.87089908 -0.089571707 0.12461793 7.1030866e-39
0.86839908 -0.087071709 0.11961792 4.4384433e-39
0.86839908 -0.087071709 0.12211792 4.0703839e-39
0.87089908 -0.087071709 0.11961792 3.7930739e-39
0.87089908 -0.087071709 0.12211792 4.2529731e-39
0.87089908 -0.084571712 0.11961792 3.9781868e-39
0.87089908 -0.084571712 0.12211792 3.9767393e-39
0.87339908 -0.092071712 0.12211792 9.9668965e-39
0.87339908 -0.089571707 0.12211792 6.1858219e-39
0.87339908 -0.087071709 0.11961792 3.9767491e-39
0.87339908 -0.087071709 0.12211792 4.6199535e-39
0.87339908 -0.084571712 0.11961792 3.9767519e-39
0.87589908 -0.087071709 0.12211792 4.7121491e-39
0.87589908 -0.084571712 0.12211792 4.4373573e-39
0.87339908 -0.087071709 0.12461793 7.9361137e-39
0.86839908 -0.077071711 0.10211793 6.6511581e-39
0.87089908 -0.074571706 0.099617921 6.1912519e-39
0.87089908 -0.074571706 0.10211793 6.467829e-39
0.86839908 -0.077071711 0.10461792 6.0987032e-39
0.87339908 -0.079571709 0.10711792 4.8104657e-39
0.87339908 -0.074571706 0.10211793 7.0192119e-39
0.86839908 -0.082071707 0.10961793 4.8983481e-39
0.86839908 -0.082071707 0.11211792 4.6221213e-39
0.86839908 -0.079571709 0.10961793 5.9114252e-39
0.86839908 -0.079571709 0.11211792 5.0834596e-39
0.87089908 -0.079571709 0.11211792 5.0845316e-39
0.86839908 -0.082071707 0.11461792 4.8969104e-39
0.86839908 -0.082071707 0.11711793 4.9894619e-39
0.86839908 -0.079571709 0.11461792 4.9919828e-39
0.86839908 -0.079571709 0.11711793 5.0823806e-39
0.87089908 -0.082071707 0.11461792 4.8050678e-39
0.87089908 -0.082071707 0.11711793 4.0703839e-39
0.86839908 -0.077071711 0.10961793 5.8238931e-39
0.87339908 -0.079571709 0.10961793 5.3596864e-39
0.87339908 -0.082071707 0.11711793 3.7930739e-39
0.87089908 -0.072071709 0.099617921 6.1912519e-39
0.87089908 -0.082071707 0.11961792 4.0707356e-39
0.87339908 -0.082071707 0.11961792 3.792718e-39
0.8533991 -0.059571709 0.07711792 3.6050449e-39
0.8558991 -0.062071707 0.07711792 3.9734771e-39
0.8558991 -0.059571709 0.07711792 3.8809213e-39
0.8533991 -0.057071708 0.07711792 3.8809213e-39
0.8558991 -0.057071708 0.07711792 3.9720281e-39
0.85839909 -0.062071707 0.074617922 3.9734771e-39
0.86089909 -0.054571707 0.072117925 3.9720253e-39
0.85839909 -0.054571707 0.074617922 4.1564194e-39
0.85839909 -0.054571707 0.07711792 3.9738274e-39
0.86089909 -0.054571707 0.07711792 4.1564194e-39
0.86089909 -0.052071709 0.07711792 3.9738274e-39
0.86089909 -0.049571708 0.07711792 3.5128493e-39
0.86339909 -0.052071709 0.072117925 3.9720281e-39
0.86589909 -0.052071709 0.069617927 3.6957958e-39
0.86589909 -0.049571708 0.072117925 4.1564194e-39
0.86339909 -0.052071709 0.074617922 4.0642238e-39
0.86339909 -0.049571708 0.07711792 4.0627987e-39
0.86589909 -0.04707171 0.072117925 3.9720281e-39
0.86339909 -0.04707171 0.07711792 3.6050477e-39
0.86339909 -0.044571709 0.07711792 2.8692945e-39
0.86589909 -0.04707171 0.074617922 3.4199502e-39
0.8533991 -0.062071707 0.079617925 3.9731212e-39
0.8533991 -0.062071707 0.082117923 4.4312252e-39
0.8533991 -0.059571709 0.079617925 3.8816304e-39
0.8533991 -0.059571709 0.082117923 3.6043414e-39
0.8558991 -0.062071707 0.079617925 3.9734771e-39
0.8558991 -0.062071707 0.082117923 3.9749218e-39
0.8558991 -0.059571709 0.079617925 3.9734771e-39
0.8558991 -0.059571709 0.082117923 3.1466087e-39
0.8533991 -0.062071707 0.087117925 5.1731091e-39
0.8558991 -0.062071707 0.08461792 4.8975984e-39
0.8558991 -0.059571709 0.08461792 4.7132085e-39
0.8533991 -0.057071708 0.079617925 3.6983125e-39
0.8533991 -0.057071708 0.082117923 3.604347e-39
0.8558991 -0.057071708 0.079617925 3.9734771e-39
0.8558991 -0.057071708 0.082117923 3.2370065e-39
0.8558991 -0.054571707 0.079617925 3.5121458e-39
0.8558991 -0.054571707 0.082117923 3.2380728e-39
0.8558991 -0.057071708 0.08461792 4.7124897e-39
0.8558991 -0.054571707 0.08461792 5.3560766e-39
0.8558991 -0.062071707 0.089617923 4.5302606e-39
0.8558991 -0.062071707 0.092117921 4.8950957e-39
0.8558991 -0.059571709 0.089617923 4.8054056e-39
0.8558991 -0.059571709 0.092117921 4.8954516e-39
0.8558991 -0.062071707 0.094617926 2.4148184e-39
0.8558991 -0.062071707 0.097117923 6.7465767e-39
0.8558991 -0.059571709 0.097117923 6.286316e-39
0.8558991 -0.057071708 0.089617923 4.8050524e-39
0.8558991 -0.057071708 0.092117921 4.3447988e-39
0.8558991 -0.057071708 0.097117923 7.9426157e-39
0.8558991 -0.054571707 0.097117923 7.2997477e-39
0.8558991 -0.052071709 0.082117923 2.686348e-39
0.8558991 -0.052071709 0.097117923 5.9168132e-39
0.85839909 -0.062071707 0.087117925 5.0802128e-39
0.85839909 -0.059571709 0.08461792 4.6202884e-39
0.85839909 -0.059571709 0.087117925 4.5302578e-39
0.85839909 -0.054571707 0.079617925 3.9713219e-39
0.85839909 -0.057071708 0.08461792 4.7132085e-39
0.85839909 -0.057071708 0.087117925 4.8050496e-39
0.85839909 -0.054571707 0.08461792 5.1723902e-39
0.85839909 -0.054571707 0.087117925 4.2536821e-39
0.85839909 -0.062071707 0.089617923 4.52919e-39
0.85839909 -0.062071707 0.092117921 2.2318593e-39
0.85839909 -0.059571709 0.089617923 5.0805631e-39
0.85839909 -0.059571709 0.092117921 2.4151715e-39
0.85839909 -0.062071707 0.094617926 7.1131984e-39
0.85839909 -0.062071707 0.097117923 8.4961356e-39
0.85839909 -0.059571709 0.094617926 6.6532936e-39
0.85839909 -0.059571709 0.097117923 8.0358778e-39
0.86089909 -0.059571709 0.097117923 7.7593035e-39
0.85839909 -0.057071708 0.089617923 4.8050524e-39
0.85839909 -0.057071708 0.092117921 2.046396e-39
0.85839909 -0.054571707 0.089617923 4.4373475e-39
0.86089909 -0.057071708 0.092117921 2.7825149e-39
0.86089909 -0.054571707 0.092117921 3.0583759e-39
0.85839909 -0.057071708 0.094617926 5.8257092e-39
0.85839909 -0.057071708 0.097117923 7.7592979e-39
0.85839909 -0.054571707 0.094617926 6.0997541e-39
0.85839909 -0.054571707 0.097117923 6.6572439e-39
0.86089909 -0.057071708 0.097117923 7.9447639e-39
0.86089909 -0.054571707 0.097117923 7.3029819e-39
0.85839909 -0.052071709 0.079617925 3.7872908e-39
0.85839909 -0.049571708 0.079617925 2.686348e-39
0.86089909 -0.052071709 0.082117923 4.3451463e-39
0.86089909 -0.049571708 0.079617925 2.871098e-39
0.86089909 -0.049571708 0.082117923 4.2529506e-39
0.85839909 -0.052071709 0.08461792 5.1723902e-39
0.85839909 -0.052071709 0.087117925 4.4377133e-39
0.85839909 -0.049571708 0.08461792 4.4376978e-39
0.85839909 -0.049571708 0.087117925 2.321527e-39
0.86089909 -0.052071709 0.087117925 3.5207834e-39
0.86089909 -0.049571708 0.087117925 2.7814331e-39
0.86089909 -0.04707171 0.079617925 2.5927062e-39
0.86089909 -0.04707171 0.082117923 3.9781616e-39
0.86089909 -0.044571709 0.079617925 2.6849019e-39
0.86089909 -0.044571709 0.082117923 4.4351909e-39
0.85839909 -0.04707171 0.08461792 4.8061244e-39
0.85839909 -0.04707171 0.087117925 2.5955971e-39
0.85839909 -0.044571709 0.087117925 3.8823703e-39
0.86089909 -0.04707171 0.08461792 4.8050496e-39
0.86089909 -0.04707171 0.087117925 1.6743667e-39
0.86089909 -0.044571709 0.08461792 5.0798569e-39
0.86089909 -0.044571709 0.087117925 2.4097863e-39
0.86339909 -0.044571709 0.079617925 4.7114079e-39
0.85839909 -0.052071709 0.089617923 4.3447932e-39
0.86089909 -0.052071709 0.089617923 4.4380608e-39
0.86089909 -0.052071709 0.092117921 3.4267997e-39
0.86089909 -0.049571708 0.089617923 4.3451491e-39
0.86089909 -0.049571708 0.092117921 3.2416854e-39
0.85839909 -0.052071709 0.094617926 5.6391347e-39
0.85839909 -0.052071709 0.097117923 3.6177196e-39
0.85839909 -0.049571708 0.094617926 3.1487863e-39
0.85839909 -0.049571708 0.097117923 1.7741658e-39
0.86089909 -0.052071709 0.097117923 7.3029819e-39
0.86089909 -0.049571708 0.097117923 7.5777765e-39
0.86089909 -0.04707171 0.089617923 3.792697e-39
0.86089909 -0.04707171 0.092117921 3.2402631e-39
0.86089909 -0.044571709 0.089617923 3.9760204e-39
0.86089909 -0.044571709 0.092117921 3.5157612e-39
0.85839909 -0.04707171 0.094617926 3.1480674e-39
0.85839909 -0.04707171 0.097117923 2.1421944e-39
0.85839909 -0.044571709 0.097117923 1.7744895e-39
0.86089909 -0.04707171 0.094617926 1.3149603e-39
0.86089909 -0.04707171 0.097117923 7.392309e-39
0.86089909 -0.044571709 0.094617926 1.7744895e-39
0.86089909 -0.044571709 0.097117923 7.3919461e-39
0.86339909 -0.044571709 0.092117921 3.4253634e-39
0.86339909 -0.04707171 0.097117923 7.4845089e-39
0.86339909 -0.044571709 0.097117923 7.3915902e-39
0.86339909 -0.042071708 0.07711792 2.4086751e-39
0.86339909 -0.03957171 0.07711792 2.7760311e-39
0.86339909 -0.037071709 0.07711792 3.0536886e-39
0.86339909 -0.034571707 0.07711792 2.6845515e-39
0.86339909 -0.029571708 0.07711792 2.7771003e-39
0.86339909 -0.024571709 0.07711792 3.4199474e-39
0.86089909 -0.042071708 0.079617925 2.7767472e-39
0.86089909 -0.042071708 0.082117923 3.8848884e-39
0.86089909 -0.03957171 0.079617925 2.8682267e-39
0.85839909 -0.042071708 0.087117925 3.697979e-39
0.86089909 -0.042071708 0.08461792 5.1724112e-39
0.86089909 -0.042071708 0.087117925 2.9629601e-39
0.86089909 -0.03957171 0.08461792 4.9887206e-39
0.86089909 -0.03957171 0.087117925 3.3320888e-39
0.86089909 -0.037071709 0.079617925 2.6845487e-39
0.86089909 -0.034571707 0.079617925 2.6845515e-39
0.86089909 -0.037071709 0.08461792 3.5150353e-39
0.86089909 -0.034571707 0.08461792 3.5150353e-39
0.86339909 -0.042071708 0.079617925 4.5277453e-39
0.86339909 -0.03957171 0.079617925 4.6199381e-39
0.86339909 -0.03957171 0.087117925 2.9629601e-39
0.86339909 -0.037071709 0.079617925 4.1600362e-39
0.86339909 -0.037071709 0.082117923 4.5281082e-39
0.86339909 -0.034571707 0.079617925 4.0678391e-39
0.86339909 -0.034571707 0.082117923 3.9749344e-39
0.86589909 -0.037071709 0.079617925 4.7114079e-39
0.86589909 -0.034571707 0.079617925 4.0671203e-39
0.86339909 -0.037071709 0.087117925 3.6068778e-39
0.86339909 -0.034571707 0.087117925 3.6068778e-39
0.86089909 -0.042071708 0.089617923 4.1600516e-39
0.86089909 -0.042071708 0.092117921 3.3331678e-39
0.86089909 -0.03957171 0.089617923 3.9767393e-39
0.86089909 -0.042071708 0.094617926 1.4057084e-39
0.86339909 -0.042071708 0.092117921 3.3331678e-39
0.86339909 -0.03957171 0.092117921 3.8838234e-39
0.86589909 -0.03957171 0.089617923 4.2526003e-39
0.86589909 -0.03957171 0.092117921 9.4545187e-40
0.86339909 -0.042071708 0.094617926 1.497904e-39
0.86339909 -0.042071708 0.097117923 7.1150005e-39
0.86339909 -0.03957171 0.094617926 1.3142344e-39
0.86589909 -0.042071708 0.094617926 7.392665e-39
0.86589909 -0.03957171 0.094617926 7.0228076e-39
0.86589909 -0.037071709 0.089617923 4.5273921e-39
0.86589909 -0.037071709 0.092117921 1.7712511e-39
0.86589909 -0.034571707 0.089617923 4.4351965e-39
0.86589909 -0.034571707 0.092117921 1.7712511e-39
0.85839909 -0.029571708 0.087117925 3.8848912e-39
0.86089909 -0.03207171 0.08461792 3.3324363e-39
0.86089909 -0.029571708 0.08461792 4.1600333e-39
0.86089909 -0.029571708 0.087117925 3.3320832e-39
0.85839909 -0.024571709 0.079617925 3.2355547e-39
0.86089909 -0.024571709 0.079617925 3.3273986e-39
0.86089909 -0.024571709 0.082117923 2.961493e-39
0.85839909 -0.027071709 0.087117925 3.4257137e-39
0.86089909 -0.027071709 0.08461792 4.1603893e-39
0.86089909 -0.027071709 0.087117925 2.7785619e-39
0.86089909 -0.024571709 0.08461792 3.7019419e-39
0.86089909 -0.024571709 0.087117925 2.8707575e-39
0.86339909 -0.03207171 0.082117923 3.6997797e-39
0.86339909 -0.029571708 0.079617925 3.6983321e-39
0.86339909 -0.029571708 0.082117923 3.8834451e-39
0.86589909 -0.03207171 0.079617925 3.697979e-39
0.86589909 -0.029571708 0.079617925 3.6983321e-39
0.86339909 -0.03207171 0.087117925 3.5150297e-39
0.86339909 -0.029571708 0.087117925 3.5168332e-39
0.86339909 -0.027071709 0.079617925 3.6979762e-39
0.86339909 -0.027071709 0.082117923 3.9749218e-39
0.86339909 -0.024571709 0.079617925 3.5125017e-39
0.86339909 -0.024571709 0.082117923 4.1603893e-39
0.86589909 -0.027071709 0.079617925 3.8809269e-39
0.86589909 -0.024571709 0.079617925 3.5139437e-39
0.86089909 -0.029571708 0.089617923 3.1476989e-39
0.86089909 -0.027071709 0.089617923 3.1459052e-39
0.86089909 -0.024571709 0.089617923 3.2381023e-39
0.86339909 -0.029571708 0.092117921 4.4351909e-39
0.86589909 -0.03207171 0.089617923 4.0671329e-39
0.86589909 -0.03207171 0.092117921 1.8637998e-39
0.86589909 -0.029571708 0.089617923 4.1593299e-39
0.86589909 -0.029571708 0.092117921 1.4035433e-39
0.86339909 -0.027071709 0.092117921 3.9749344e-39
0.86339909 -0.024571709 0.092117921 4.0671329e-39
0.86589909 -0.027071709 0.089617923 3.9749372e-39
0.86589909 -0.027071709 0.092117921 1.4946628e-39
0.86589909 -0.024571709 0.092117921 1.7712511e-39
0.86339909 -0.024571709 0.094617926 2.2300586e-39
0.86839908 -0.062071707 0.067117922 3.6954455e-39
0.86839908 -0.059571709 0.067117922 3.4192075e-39
0.87089908 -0.062071707 0.067117922 3.6954455e-39
0.87089908 -0.059571709 0.067117922 3.4188544e-39
0.86839908 -0.057071708 0.067117922 4.1521034e-39
0.86839908 -0.054571707 0.067117922 4.059905e-39
0.87089908 -0.057071708 0.067117922 3.3270091e-39
0.87089908 -0.054571707 0.067117922 4.0599022e-39
0.87089908 -0.049571708 0.067117922 3.7876411e-39
0.87339908 -0.04707171 0.067117922 3.6957986e-39
0.87589908 -0.044571709 0.067117922 3.4206564e-39
0.86839908 -0.052071709 0.069617927 3.9720253e-39
0.86839908 -0.049571708 0.069617927 3.5114031e-39
0.86839908 -0.049571708 0.072117925 3.6968902e-39
0.86839908 -0.04707171 0.069617927 3.6957986e-39
0.86839908 -0.04707171 0.072117925 3.7876383e-39
0.87089908 -0.04707171 0.069617927 3.9720281e-39
0.87089908 -0.044571709 0.072117925 3.4199474e-39
0.86839908 -0.04707171 0.074617922 3.4206564e-39
0.86839908 -0.044571709 0.074617922 3.4199474e-39
0.87339908 -0.04707171 0.069617927 3.7876411e-39
0.87339908 -0.044571709 0.069617927 3.7876383e-39
0.87589908 -0.042071708 0.067117922 3.9720281e-39
0.87589908 -0.03957171 0.067117922 3.6947392e-39
0.87589908 -0.034571707 0.067117922 3.5110528e-39
0.87089908 -0.042071708 0.072117925 3.4199474e-39
0.87089908 -0.03957171 0.072117925 3.5128521e-39
0.86839908 -0.042071708 0.074617922 3.4199474e-39
0.86839908 -0.03957171 0.074617922 3.419953e-39
0.86839908 -0.037071709 0.07711792 3.5121458e-39
0.86839908 -0.034571707 0.074617922 2.8689414e-39
0.86839908 -0.034571707 0.07711792 2.8692973e-39
0.87089908 -0.034571707 0.074617922 3.419953e-39
0.87339908 -0.03957171 0.069617927 3.143006e-39
0.87589908 -0.03957171 0.069617927 3.6028995e-39
0.87339908 -0.037071709 0.069617927 2.4086751e-39
0.87589908 -0.037071709 0.069617927 3.5096305e-39
0.87589908 -0.034571707 0.069617927 3.5096305e-39
0.87589908 -0.029571708 0.067117922 3.4188544e-39
0.87589908 -0.027071709 0.067117922 2.5916188e-39
0.87589908 -0.024571709 0.067117922 2.5916188e-39
0.86839908 -0.03207171 0.07711792 3.697979e-39
0.86839908 -0.029571708 0.074617922 2.7770947e-39
0.86839908 -0.029571708 0.07711792 3.6979762e-39
0.87089908 -0.03207171 0.074617922 2.9618461e-39
0.87089908 -0.029571708 0.074617922 3.0536886e-39
0.86839908 -0.027071709 0.074617922 3.4199474e-39
0.86839908 -0.027071709 0.07711792 2.7771003e-39
0.86839908 -0.024571709 0.074617922 3.4199474e-39
0.86839908 -0.024571709 0.07711792 3.3273986e-39
0.87089908 -0.027071709 0.074617922 2.8692973e-39
0.87089908 -0.024571709 0.074617922 2.6849047e-39
0.87339908 -0.03207171 0.072117925 2.961493e-39
0.87339908 -0.029571708 0.072117925 3.0540445e-39
0.87589908 -0.03207171 0.069617927 3.4206564e-39
0.87589908 -0.03207171 0.072117925 3.419953e-39
0.87589908 -0.029571708 0.069617927 2.8696505e-39
0.87589908 -0.029571708 0.072117925 3.0540445e-39
0.87339908 -0.027071709 0.069617927 3.1430032e-39
0.87339908 -0.024571709 0.069617927 3.1430032e-39
0.87839907 -0.03957171 0.067117922 3.5110528e-39
0.87839907 -0.037071709 0.067117922 3.4181509e-39
0.87839907 -0.034571707 0.067117922 3.4181509e-39
0.87839907 -0.03207171 0.067117922 3.4184984e-39
0.87839907 -0.029571708 0.067117922 3.1422745e-39
0.88089907 -0.027071709 0.067117922 3.4199474e-39
0.87089908 -0.042071708 0.092117921 7.2071989e-39
0.86839908 -0.03957171 0.094617926 6.9302547e-39
0.87089908 -0.042071708 0.094617926 8.4968657e-39
0.87089908 -0.03957171 0.094617926 8.7723792e-39
0.86839908 -0.034571707 0.089617923 1.4946572e-39
0.87089908 -0.037071709 0.092117921 6.0111766e-39
0.87089908 -0.034571707 0.092117921 6.0111766e-39
0.87089908 -0.037071709 0.094617926 8.1298811e-39
0.87089908 -0.034571707 0.094617926 7.6689029e-39
0.87339908 -0.037071709 0.092117921 8.3128402e-39
0.87339908 -0.034571707 0.089617923 5.7360191e-39
0.87339908 -0.034571707 0.092117921 8.0366064e-39
0.86839908 -0.03207171 0.089617923 1.7716042e-39
0.86839908 -0.029571708 0.089617923 1.5875745e-39
0.87089908 -0.03207171 0.092117921 5.6434633e-39
0.87089908 -0.029571708 0.092117921 5.8264295e-39
0.86839908 -0.029571708 0.094617926 5.088863e-39
0.87089908 -0.03207171 0.094617926 7.3919559e-39
0.87089908 -0.029571708 0.094617926 5.0896085e-39
0.86839908 -0.027071709 0.094617926 4.9955926e-39
0.86839908 -0.024571709 0.094617926 4.9955926e-39
0.87089908 -0.027071709 0.094617926 6.0068705e-39
0.87089908 -0.024571709 0.094617926 7.2057738e-39
0.87339908 -0.03207171 0.089617923 5.5512677e-39
0.87339908 -0.03207171 0.092117921 7.669256e-39
0.87339908 -0.029571708 0.089617923 5.825712e-39
0.87339908 -0.029571708 0.092117921 7.1179124e-39
0.87339908 -0.03207171 0.094617926 7.2072115e-39
0.87339908 -0.029571708 0.094617926 6.0130039e-39
0.87339908 -0.024571709 0.094617926 6.4710758e-39
0.87839907 -0.029571708 0.092117921 5.2783228e-39
0.85839909 -0.059571709 0.099617921 7.9447667e-39
0.85839909 -0.057071708 0.099617921 7.6674736e-39
0.85839909 -0.054571707 0.099617921 8.0376784e-39
0.85839909 -0.052071709 0.099617921 7.669256e-39
0.85839909 -0.049571708 0.099617921 7.2097198e-39
0.85839909 -0.049571708 0.10211793 5.2743501e-39
0.86089909 -0.052071709 0.099617921 8.4972189e-39
0.86089909 -0.049571708 0.099617921 8.4972189e-39
0.85839909 -0.04707171 0.099617921 7.2079178e-39
0.85839909 -0.04707171 0.10211793 6.3774635e-39
0.85839909 -0.044571709 0.099617921 7.2082709e-39
0.86089909 -0.04707171 0.099617921 8.4965154e-39
0.86339909 -0.022071708 0.07711792 3.419953e-39
0.86339909 -0.019571709 0.07711792 3.7858586e-39
0.86339909 -0.017071709 0.07711792 3.7858586e-39
0.85839909 -0.022071708 0.079617925 3.2355547e-39
0.85839909 -0.019571709 0.079617925 3.4206564e-39
0.86089909 -0.022071708 0.079617925 2.9589748e-39
0.86089909 -0.022071708 0.082117923 2.961493e-39
0.86089909 -0.019571709 0.079617925 2.9589748e-39
0.86089909 -0.019571709 0.082117923 3.3273986e-39
0.86089909 -0.022071708 0.08461792 4.2507856e-39
0.86089909 -0.022071708 0.087117925 3.5146794e-39
0.86089909 -0.019571709 0.08461792 4.3433484e-39
0.86089909 -0.019571709 0.087117925 3.6065247e-39
0.86089909 -0.017071709 0.08461792 4.3447833e-39
0.86339909 -0.022071708 0.079617925 3.4199474e-39
0.86339909 -0.019571709 0.079617925 3.6043442e-39
0.86339909 -0.019571709 0.087117925 3.9756673e-39
0.86339909 -0.017071709 0.079617925 3.6018261e-39
0.86339909 -0.017071709 0.082117923 3.3288462e-39
0.86589909 -0.017071709 0.079617925 3.3273986e-39
0.86589909 -0.014571709 0.079617925 3.2366505e-39
0.86339909 -0.017071709 0.087117925 3.8841681e-39
0.86339909 -0.014571709 0.08461792 4.7132057e-39
0.86339909 -0.014571709 0.087117925 4.3451463e-39
0.86089909 -0.022071708 0.089617923 3.1459024e-39
0.86089909 -0.019571709 0.089617923 3.0551558e-39
0.86089909 -0.017071709 0.089617923 3.0562277e-39
0.86339909 -0.022071708 0.092117921 4.0671329e-39
0.86339909 -0.019571709 0.092117921 4.0671357e-39
0.86589909 -0.022071708 0.092117921 2.2297055e-39
0.86589909 -0.019571709 0.089617923 3.0555061e-39
0.86589909 -0.019571709 0.092117921 2.1375084e-39
0.86339909 -0.022071708 0.094617926 2.3222542e-39
0.86339909 -0.019571709 0.094617926 2.873263e-39
0.86589909 -0.022071708 0.094617926 5.0859805e-39
0.86589909 -0.022071708 0.097117923 7.1128509e-39
0.86589909 -0.019571709 0.094617926 5.2674879e-39
0.86589909 -0.019571709 0.097117923 7.2046808e-39
0.86339909 -0.017071709 0.092117921 4.1596802e-39
0.86589909 -0.017071709 0.089617923 2.6877956e-39
0.86589909 -0.017071709 0.092117921 2.7807143e-39
0.86589909 -0.014571709 0.089617923 2.4112087e-39
0.86589909 -0.014571709 0.092117921 2.8729099e-39
0.86589909 -0.014571709 0.097117923 8.1277133e-39
0.86589909 -0.012071708 0.079617925 2.8703889e-39
0.86339909 -0.012071708 0.08461792 4.3465952e-39
0.86339909 -0.012071708 0.087117925 4.8046993e-39
0.86339909 -0.0095717087 0.087117925 2.6856628e-39
0.86589909 -0.012071708 0.08461792 4.7114303e-39
0.86589909 -0.0095717087 0.08461792 4.9894619e-39
0.86589909 -0.0070717088 0.087117925 2.2246846e-39
0.86589909 -0.012071708 0.089617923 3.3288644e-39
0.86589909 -0.012071708 0.092117921 3.5161143e-39
0.86589909 -0.0095717087 0.089617923 2.7782115e-39
0.86589909 -0.0095717087 0.092117921 3.9752876e-39
0.86589909 -0.012071708 0.097117923 5.1781888e-39
0.86589909 -0.0095717087 0.097117923 4.2594625e-39
0.86589909 0.00042829142 0.079617925 2.4090254e-39
0.86589909 -0.0020717087 0.087117925 3.4239159e-39
0.86589909 0.00042829142 0.08461792 4.2525975e-39
0.86589909 0.00042829142 0.087117925 4.3440771e-39
0.86339909 0.0029282914 0.082117923 2.5930566e-39
0.86589909 0.0029282914 0.079617925 2.8681987e-39
0.86339909 0.0029282914 0.08461792 4.0678363e-39
0.86589909 0.0029282914 0.08461792 4.3447932e-39
0.86589909 0.0029282914 0.087117925 4.6203038e-39
0.86589909 0.0054282914 0.08461792 4.1603893e-39
0.86589909 0.0054282914 0.087117925 4.2529506e-39
0.86589909 0.0029282914 0.089617923 4.2522444e-39
0.86589909 0.0054282914 0.089617923 4.4369944e-39
0.86589909 0.0079282913 0.08461792 4.0678363e-39
0.86589909 0.0079282913 0.087117925 4.2529506e-39
0.86589909 0.010428292 0.08461792 4.4351909e-39
0.86589909 0.010428292 0.087117925 4.2529506e-39
0.87589908 -0.022071708 0.067117922 3.0500788e-39
0.87589908 -0.019571709 0.067117922 2.9575245e-39
0.87589908 -0.017071709 0.067117922 2.9575245e-39
0.87589908 -0.014571709 0.067117922 3.5985765e-39
0.87089908 -0.019571709 0.072117925 3.235905e-39
0.86839908 -0.022071708 0.07711792 2.9589748e-39
0.86839908 -0.019571709 0.074617922 3.4181509e-39
0.87089908 -0.017071709 0.072117925 3.235905e-39
0.87089908 -0.014571709 0.072117925 3.3259553e-39
0.86839908 -0.017071709 0.074617922 3.4181509e-39
0.86839908 -0.017071709 0.07711792 3.1433591e-39
0.86839908 -0.014571709 0.074617922 3.4199474e-39
0.86839908 -0.014571709 0.07711792 3.3273986e-39
0.87339908 -0.022071708 0.069617927 3.2355547e-39
0.87339908 -0.019571709 0.069617927 2.9578804e-39
0.87589908 -0.022071708 0.069617927 3.235905e-39
0.87339908 -0.017071709 0.069617927 2.9578804e-39
0.87339908 -0.014571709 0.069617927 3.3259553e-39
0.86839908 -0.012071708 0.07711792 3.5096305e-39
0.87089908 -0.012071708 0.074617922 3.5110528e-39
0.87089908 -0.012071708 0.07711792 3.2352016e-39
0.87089908 -0.0095717087 0.07711792 2.8671267e-39
0.87089908 -0.0070717088 0.07711792 2.5033889e-39
0.87089908 -0.0045717084 0.07711792 2.1342462e-39
0.87339908 -0.012071708 0.069617927 3.4188516e-39
0.87339908 -0.012071708 0.072117925 3.6032498e-39
0.87339908 -0.0095717087 0.072117925 3.6957986e-39
0.87589908 -0.012071708 0.069617927 3.4188544e-39
0.87589908 -0.0095717087 0.069617927 3.4188544e-39
0.87589908 -0.0095717087 0.072117925 3.4181481e-39
0.87339908 -0.0095717087 0.074617922 3.235905e-39
0.87589908 -0.0070717088 0.072117925 3.603603e-39
0.87589908 -0.0045717084 0.072117925 3.5110528e-39
0.87339908 -0.0070717088 0.074617922 3.235905e-39
0.87589908 -0.0070717088 0.074617922 3.1430032e-39
0.87589908 -0.0045717084 0.074617922 2.9603971e-39
0.87839907 -0.012071708 0.067117922 3.2312205e-39
0.87839907 -0.0095717087 0.067117922 3.0468292e-39
0.87839907 -0.0070717088 0.067117922 3.4188544e-39
0.87839907 -0.0045717084 0.067117922 3.7836782e-39
0.87839907 -0.0045717084 0.069617927 3.4188544e-39
0.87839907 -0.0045717084 0.072117925 3.235905e-39
0.86839908 -0.022071708 0.094617926 4.9033844e-39
0.86839908 -0.019571709 0.094617926 3.9821511e-39
0.86839908 -0.019571709 0.097117923 7.9447611e-39
0.87089908 -0.022071708 0.094617926 7.1164452e-39
0.87089908 -0.019571709 0.094617926 7.7603727e-39
0.86839908 -0.017071709 0.094617926 3.7952417e-39
0.86839908 -0.017071709 0.097117923 8.4032212e-39
0.86839908 -0.014571709 0.094617926 3.702686e-39
0.86839908 -0.014571709 0.097117923 8.6798094e-39
0.87089908 -0.017071709 0.094617926 7.7603699e-39
0.87089908 -0.014571709 0.094617926 7.8514935e-39
0.87089908 -0.014571709 0.097117923 7.3901608e-39
0.86839908 -0.012071708 0.079617925 2.0417003e-39
0.86839908 -0.012071708 0.082117923 4.8050524e-39
0.86839908 -0.0095717087 0.079617925 1.5810781e-39
0.86839908 -0.0095717087 0.082117923 3.9778085e-39
0.86839908 -0.0095717087 0.08461792 5.63409e-39
0.86839908 -0.0070717088 0.079617925 2.0416975e-39
0.86839908 -0.0070717088 0.082117923 4.1621998e-39
0.87089908 -0.0070717088 0.079617925 4.0700041e-39
0.87089908 -0.0045717084 0.079617925 3.7926914e-39
0.87089908 -0.0045717084 0.082117923 4.6203038e-39
0.86839908 -0.0070717088 0.08461792 4.8050707e-39
0.86839908 -0.0070717088 0.087117925 2.5019848e-39
0.86839908 -0.0045717084 0.08461792 4.4369916e-39
0.86839908 -0.0045717084 0.087117925 2.7785619e-39
0.87089908 -0.0070717088 0.087117925 2.2253755e-39
0.87089908 -0.0045717084 0.087117925 2.5937993e-39
0.86839908 -0.012071708 0.094617926 3.5182947e-39
0.86839908 -0.012071708 0.097117923 7.8518494e-39
0.86839908 -0.0095717087 0.094617926 3.4246585e-39
0.86839908 -0.0095717087 0.097117923 7.4845061e-39
0.87089908 -0.012071708 0.097117923 8.125928e-39
0.87089908 -0.0095717087 0.097117923 8.4950665e-39
0.86839908 -0.0070717088 0.089617923 3.9749372e-39
0.86839908 -0.0045717084 0.089617923 3.6072281e-39
0.87089908 -0.0070717088 0.092117921 3.3324615e-39
0.87089908 -0.0045717084 0.092117921 3.4228621e-39
0.86839908 -0.0070717088 0.094617926 4.1672612e-39
0.86839908 -0.0070717088 0.097117923 7.5777765e-39
0.86839908 -0.0045717084 0.097117923 7.2097198e-39
0.87089908 -0.0070717088 0.094617926 3.8903212e-39
0.87089908 -0.0070717088 0.097117923 8.4950637e-39
0.87089908 -0.0045717084 0.094617926 3.3378691e-39
0.87089908 -0.0045717084 0.097117923 8.2202886e-39
0.87339908 -0.0070717088 0.097117923 8.4950665e-39
0.87339908 -0.0045717084 0.097117923 8.4032394e-39
0.87839907 -0.0045717084 0.094617926 5.7288472e-39
0.87089908 -0.0020717087 0.07711792 2.4079661e-39
0.87089908 0.00042829142 0.07711792 2.8681987e-39
0.86839908 0.0029282914 0.074617922 3.4188544e-39
0.86839908 0.0029282914 0.07711792 3.4188544e-39
0.86839908 0.0054282914 0.074617922 3.5114031e-39
0.86839908 0.0054282914 0.07711792 3.4184984e-39
0.87089908 0.0029282914 0.074617922 3.4188544e-39
0.87089908 0.0029282914 0.07711792 3.1419242e-39
0.87089908 0.0054282914 0.074617922 3.3263028e-39
0.87089908 0.0054282914 0.07711792 3.4206564e-39
0.87589908 -0.0020717087 0.072117925 3.5110472e-39
0.87589908 0.00042829142 0.072117925 3.5110472e-39
0.87339908 0.00042829142 0.074617922 2.9603971e-39
0.87589908 -0.0020717087 0.074617922 2.9603943e-39
0.87589908 0.00042829142 0.074617922 2.958972e-39
0.87339908 0.0029282914 0.072117925 3.4188544e-39
0.87339908 0.0054282914 0.072117925 3.4184984e-39
0.87589908 0.0054282914 0.069617927 3.6911267e-39
0.87089908 0.0079282913 0.07711792 3.4206564e-39
0.87089908 0.010428292 0.07711792 3.3281021e-39
0.87089908 0.012928291 0.07711792 3.6968902e-39
0.87589908 0.0079282913 0.072117925 3.05259e-39
0.87339908 0.0079282913 0.074617922 3.1451429e-39
0.87339908 0.010428292 0.074617922 3.2373386e-39
0.87589908 0.0079282913 0.074617922 3.1451429e-39
0.87589908 0.010428292 0.074617922 3.0529459e-39
0.87339908 0.012928291 0.07711792 3.4199474e-39
0.87339908 0.015428292 0.07711792 4.0653224e-39
0.87589908 0.012928291 0.074617922 3.4206536e-39
0.87589908 0.015428292 0.074617922 3.6043414e-39
0.87839907 -0.0020717087 0.067117922 3.7836782e-39
0.87839907 0.00042829142 0.067117922 3.8758738e-39
0.88089907 -0.0020717087 0.067117922 3.0504236e-39
0.88089907 0.00042829142 0.067117922 2.6827158e-39
0.87839907 0.0029282914 0.067117922 3.7836782e-39
0.87839907 0.0054282914 0.067117922 3.0511424e-39
0.88089907 0.0029282914 0.067117922 3.5992771e-39
0.87839907 -0.0020717087 0.069617927 3.4188544e-39
0.87839907 -0.0020717087 0.072117925 2.958972e-39
0.87839907 0.00042829142 0.069617927 3.4188544e-39
0.87839907 0.0079282913 0.067117922 2.9589468e-39
0.88339907 0.012928291 0.067117922 3.3266587e-39
0.88339907 0.015428292 0.067117922 3.3266531e-39
0.88589907 0.012928291 0.067117922 2.9603943e-39
0.88589907 0.015428292 0.067117922 3.4188544e-39
0.87839907 0.0079282913 0.069617927 2.9603943e-39
0.87839907 0.010428292 0.069617927 2.9603943e-39
0.87839907 0.012928291 0.069617927 3.1422689e-39
0.87839907 0.012928291 0.072117925 3.5128493e-39
0.88089907 0.015428292 0.072117925 3.6954455e-39
0.86839908 -0.0020717087 0.079617925 2.6845515e-39
0.86839908 -0.0020717087 0.082117923 4.0678391e-39
0.86839908 0.00042829142 0.079617925 3.1433591e-39
0.86839908 0.00042829142 0.082117923 4.1600333e-39
0.87089908 -0.0020717087 0.079617925 4.1600362e-39
0.87089908 0.00042829142 0.079617925 3.9756379e-39
0.86839908 -0.0020717087 0.08461792 4.7124897e-39
0.86839908 -0.0020717087 0.087117925 3.0540571e-39
0.86839908 0.00042829142 0.08461792 4.5277397e-39
0.86839908 0.00042829142 0.087117925 4.5277579e-39
0.87089908 -0.0020717087 0.087117925 3.1466059e-39
0.87089908 0.00042829142 0.087117925 4.2522444e-39
0.86839908 0.0029282914 0.079617925 2.6849019e-39
0.86839908 0.0029282914 0.082117923 3.6997769e-39
0.86839908 0.0054282914 0.079617925 2.8696505e-39
0.86839908 0.0054282914 0.082117923 3.8827234e-39
0.87089908 0.0054282914 0.079617925 3.5153828e-39
0.86839908 0.0029282914 0.08461792 4.7128372e-39
0.86839908 0.0029282914 0.087117925 4.7121491e-39
0.86839908 0.0054282914 0.08461792 4.1600333e-39
0.86839908 0.0054282914 0.087117925 4.3447932e-39
0.86839908 -0.0020717087 0.089617923 3.6994237e-39
0.86839908 0.00042829142 0.089617923 4.3447932e-39
0.87089908 -0.0020717087 0.089617923 3.1505716e-39
0.87089908 -0.0020717087 0.092117921 3.3324615e-39
0.87089908 0.00042829142 0.089617923 3.3338838e-39
0.87089908 0.00042829142 0.092117921 4.6221213e-39
0.87089908 -0.0020717087 0.094617926 3.0609389e-39
0.87089908 0.00042829142 0.094617926 5.6405991e-39
0.86839908 0.0029282914 0.089617923 4.3447988e-39
0.86839908 0.0054282914 0.089617923 4.1604019e-39
0.87089908 0.0029282914 0.089617923 3.2416882e-39
0.87089908 0.0029282914 0.092117921 4.714317e-39
0.87089908 0.0054282914 0.092117921 5.0798625e-39
0.86839908 0.0029282914 0.094617926 4.8126335e-39
0.86839908 0.0029282914 0.097117923 7.3930321e-39
0.86839908 0.0054282914 0.094617926 4.5356878e-39
0.86839908 0.0054282914 0.097117923 7.3930321e-39
0.87089908 0.0029282914 0.094617926 5.4558491e-39
0.87089908 0.0029282914 0.097117923 8.0366064e-39
0.87089908 0.0054282914 0.094617926 4.8104825e-39
0.87089908 0.0054282914 0.097117923 7.8518621e-39
0.87339908 -0.0020717087 0.089617923 5.4504401e-39
0.87339908 -0.0020717087 0.092117921 4.5356934e-39
0.87339908 -0.0020717087 0.094617926 7.391237e-39
0.87339908 -0.0020717087 0.097117923 8.4035897e-39
0.87339908 0.00042829142 0.097117923 8.4957853e-39
0.87589908 -0.0020717087 0.094617926 8.4028834e-39
0.87589908 -0.0020717087 0.097117923 5.4551344e-39
0.87589908 0.00042829142 0.097117923 5.7313654e-39
0.87339908 0.0029282914 0.092117921 4.8126335e-39
0.87339908 0.0029282914 0.097117923 8.4035897e-39
0.87339908 0.0054282914 0.097117923 7.852218e-39
0.87589908 0.0029282914 0.097117923 5.823561e-39
0.87589908 0.0054282914 0.097117923 5.9164755e-39
0.86839908 0.0079282913 0.079617925 3.4199474e-39
0.86839908 0.0079282913 0.082117923 3.8827234e-39
0.86839908 0.010428292 0.079617925 3.4199474e-39
0.86839908 0.010428292 0.082117923 3.7901746e-39
0.87089908 0.0079282913 0.079617925 4.0678363e-39
0.87089908 0.010428292 0.079617925 3.7905278e-39
0.87089908 0.010428292 0.082117923 4.0678335e-39
0.86839908 0.0079282913 0.08461792 4.1603893e-39
0.86839908 0.0079282913 0.087117925 4.3447932e-39
0.86839908 0.010428292 0.08461792 4.1600333e-39
0.86839908 0.010428292 0.087117925 4.3447932e-39
0.87089908 0.012928291 0.079617925 3.8827234e-39
0.87089908 0.012928291 0.082117923 4.0678391e-39
0.86839908 0.012928291 0.08461792 4.6199381e-39
0.87089908 0.012928291 0.087117925 4.7124995e-39
0.87089908 0.015428292 0.08461792 4.7121337e-39
0.87089908 0.015428292 0.087117925 4.5295431e-39
0.87339908 0.015428292 0.082117923 4.4351811e-39
0.87339908 0.015428292 0.08461792 4.4373475e-39
0.87339908 0.015428292 0.087117925 4.1618466e-39
0.86839908 0.0079282913 0.089617923 4.3447932e-39
0.86839908 0.010428292 0.089617923 4.3447932e-39
0.87089908 0.0079282913 0.092117921 3.7934369e-39
0.87089908 0.010428292 0.089617923 4.1596984e-39
0.87089908 0.010428292 0.092117921 3.6090456e-39
0.86839908 0.0079282913 0.094617926 4.2594625e-39
0.86839908 0.0079282913 0.097117923 7.0242496e-39
0.86839908 0.010428292 0.094617926 4.4438439e-39
0.86839908 0.010428292 0.097117923 7.0249712e-39
0.87089908 0.0079282913 0.094617926 4.3505763e-39
0.87089908 0.0079282913 0.097117923 7.7596692e-39
0.87089908 0.010428292 0.094617926 4.3505763e-39
0.87089908 0.010428292 0.097117923 8.3124871e-39
0.86839908 0.012928291 0.089617923 4.1604047e-39
0.87089908 0.012928291 0.089617923 3.884894e-39
0.87089908 0.012928291 0.092117921 3.977105e-39
0.87089908 0.015428292 0.089617923 3.8845381e-39
0.86839908 0.012928291 0.094617926 3.9828672e-39
0.86839908 0.012928291 0.097117923 6.7487445e-39
0.87089908 0.012928291 0.094617926 3.4304025e-39
0.87089908 0.012928291 0.097117923 7.8515089e-39
0.87089908 0.015428292 0.094617926 6.5650637e-39
0.87339908 0.0079282913 0.089617923 3.4246585e-39
0.87339908 0.0079282913 0.094617926 7.5770576e-39
0.87339908 0.0079282913 0.097117923 7.7596692e-39
0.87339908 0.010428292 0.097117923 7.8522152e-39
0.87589908 0.0079282913 0.094617926 7.9444136e-39
0.87339908 0.012928291 0.089617923 4.342645e-39
0.87339908 0.015428292 0.089617923 4.0689321e-39
0.87339908 0.015428292 0.092117921 3.2481748e-39
0.87339908 0.012928291 0.097117923 5.5480503e-39
0.87339908 0.015428292 0.094617926 6.6572593e-39
0.87339908 0.015428292 0.097117923 8.2195586e-39
0.87839907 -0.0020717087 0.094617926 5.8214058e-39
0.87839907 0.00042829142 0.097117923 3.6148288e-39
0.87839907 0.0029282914 0.097117923 3.9836113e-39
0.87839907 0.0054282914 0.097117923 5.2718362e-39
0.87839907 0.0079282913 0.097117923 5.8239113e-39
0.87839907 0.010428292 0.097117923 6.0997597e-39
0.87839907 0.012928291 0.097117923 5.8224624e-39
0.88089907 0.015428292 0.097117923 3.9771275e-39
0.86839908 -0.014571709 0.099617921 7.7593007e-39
0.86839908 -0.012071708 0.099617921 8.2177579e-39
0.86839908 -0.0095717087 0.099617921 8.1270098e-39
0.87339908 0.00042829142 0.099617921 4.3516721e-39
0.87339908 0.0029282914 0.099617921 4.4438678e-39
0.87339908 0.0054282914 0.099617921 5.4562204e-39
0.87089908 0.0079282913 0.099617921 6.4682087e-39
0.87089908 0.0079282913 0.10211793 5.916107e-39
0.87089908 0.010428292 0.099617921 5.5476944e-39
0.87089908 0.010428292 0.10211793 5.5469517e-39
0.87089908 0.012928291 0.099617921 5.3633017e-39
0.87089908 0.012928291 0.10211793 5.0859735e-39
0.87339908 0.010428292 0.099617921 5.8239113e-39
0.87339908 0.012928291 0.099617921 4.9005257e-39
0.87339908 0.015428292 0.099617921 5.635574e-39
0.87589908 0.015428292 0.10211793 3.8852822e-39
0.87839907 0.015428292 0.099617921 3.2395624e-39
0.87839907 0.015428292 0.10211793 3.4239579e-39
0.88089907 0.015428292 0.099617921 3.4250271e-39
0.88089907 0.015428292 0.10211793 3.6090456e-39
0.87839907 0.015428292 0.10461792 2.9644077e-39
0.88089907 0.015428292 0.10461792 3.1480731e-39
0.88339907 0.010428292 0.099617921 4.5324508e-39
0.88589907 0.010428292 0.10211793 4.440258e-39
0.88339907 0.012928291 0.099617921 3.1495164e-39
0.88339907 0.015428292 0.099617921 3.3328315e-39
0.88339907 0.015428292 0.10211793 3.147364e-39
0.88589907 0.012928291 0.099617921 3.1495164e-39
0.88589907 0.012928291 0.10211793 2.9651265e-39
0.88589907 0.015428292 0.10211793 2.5970643e-39
0.87589908 0.0054282914 0.13211793 1.3952743e-39
0.87589908 0.0054282914 0.13461792 2.0068696e-40
0.87589908 0.0054282914 0.13711792 7.513398e-40
0.87339908 0.0079282913 0.13211793 1.9480823e-39
0.87339908 0.010428292 0.13211793 1.3059569e-39
0.87589908 0.0079282913 0.12961793 1.4892692e-39
0.87589908 0.0079282913 0.13211793 6.6130918e-40
0.87589908 0.010428292 0.12961793 1.4892692e-39
0.87589908 0.010428292 0.13211793 1.5796655e-39
0.87589908 0.0079282913 0.13461792 4.7691512e-40
0.87589908 0.0079282913 0.13711792 1.027568e-39
0.87589908 0.010428292 0.13461792 1.0275652e-39
0.87589908 0.010428292 0.13711792 1.1201195e-39
0.87589908 0.012928291 0.12961793 1.3059569e-39
0.87839907 0.0054282914 0.13711792 9.350164e-40
0.87839907 0.0079282913 0.13211793 1.0272148e-39
0.87839907 0.010428292 0.13211793 1.0272148e-39
0.88089907 0.010428292 0.13211793 3.8471528e-40
0.87839907 0.0079282913 0.13461792 1.1194105e-39
0.87839907 0.010428292 0.13461792 1.0275708e-39
0.88089907 0.0079282913 0.13461792 9.3502201e-40
0.88089907 0.010428292 0.13461792 1.0272176e-39
0.87839907 0.012928291 0.13211793 1.4874699e-39
0.88089907 0.012928291 0.12961793 1.0272148e-39
0.88089907 0.012928291 0.13211793 1.0275708e-39
0.87839907 0.012928291 0.13461792 1.2123151e-39
0.88089907 0.012928291 0.13461792 1.1201195e-39
0.88339907 0.010428292 0.13211793 7.5385513e-40
0.88589907 0.0079282913 0.13211793 1.027568e-39
0.88589907 0.010428292 0.13211793 7.5385513e-40
0.88339907 0.0079282913 0.13461792 1.0275708e-39
0.88339907 0.0079282913 0.13711792 1.0268519e-39
0.88339907 0.010428292 0.13461792 1.3045108e-39
0.88339907 0.010428292 0.13711792 1.3952743e-39
0.88589907 0.0079282913 0.13461792 1.1201195e-39
0.88589907 0.0079282913 0.13711792 1.3938394e-39
0.88589907 0.010428292 0.13461792 1.2112432e-39
0.88589907 0.010428292 0.13711792 1.6704192e-39
0.88339907 0.012928291 0.13211793 1.211246e-39
0.88339907 0.015428292 0.13211793 1.4878258e-39
0.88589907 0.012928291 0.13211793 9.3502201e-40
0.88589907 0.015428292 0.12961793 9.3681987e-40
0.88589907 0.015428292 0.13211793 1.3952771e-39
0.88339907 0.012928291 0.13461792 9.3502201e-40
0.88339907 0.012928291 0.13711792 1.3952743e-39
0.88589907 0.012928291 0.13461792 1.3952743e-39
0.88589907 0.012928291 0.13711792 1.7626149e-39
0.96589911 -0.10957171 0.12961793 9.1212339e-39
0.96589911 -0.10707171 0.12961793 7.3731098e-39
0.89089906 0.012928291 0.097117923 2.8747274e-39
0.88839906 0.012928291 0.099617921 3.056969e-39
0.88839906 0.015428292 0.099617921 3.0573222e-39
0.88839906 0.015428292 0.10211793 2.8725722e-39
0.89089906 0.012928291 0.099617921 2.5970643e-39
0.89339906 0.012928291 0.10211793 2.5970643e-39
0.89339906 0.015428292 0.10211793 2.5048658e-39
0.89339906 0.015428292 0.12711792 1.3952771e-39
0.88839906 0.0079282913 0.13711792 9.350164e-40
0.88839906 0.010428292 0.13711792 1.1197664e-39
0.89089906 0.010428292 0.13461792 1.211246e-39
0.89089906 0.010428292 0.13711792 1.0275652e-39
0.88839906 0.015428292 0.13211793 1.0290127e-39
0.89089906 0.015428292 0.12961793 9.3681707e-40
0.89089906 0.015428292 0.13211793 1.5800215e-39
0.88839906 0.012928291 0.13461792 1.4878258e-39
0.88839906 0.012928291 0.13711792 1.1197664e-39
0.88839906 0.015428292 0.13461792 1.0290127e-39
0.89089906 0.012928291 0.13461792 1.3952771e-39
0.89089906 0.012928291 0.13711792 1.4874699e-39
0.89089906 0.015428292 0.13461792 1.5800215e-39
0.89089906 0.015428292 0.13711792 1.6725716e-39
0.89339906 0.012928291 0.13711792 8.4605637e-40
0.89339906 0.015428292 0.13461792 1.3952771e-39
0.89339906 0.015428292 0.13711792 1.5796655e-39
0.89589906 0.012928291 0.13711792 1.1197664e-39
0.89589906 0.015428292 0.13711792 1.5782208e-39
0.89839906 0.012928291 0.13711792 1.3952743e-39
0.90089911 0.012928291 0.13461792 1.1197664e-39
0.90089911 0.012928291 0.13711792 1.3045108e-39
0.90089911 0.015428292 0.13461792 1.0290155e-39
0.90089911 0.015428292 0.13711792 1.5796655e-39
0.90339911 0.015428292 0.13211793 1.3952771e-39
0.90339911 0.012928291 0.13461792 1.4874699e-39
0.90339911 0.015428292 0.13461792 1.4878258e-39
0.9183991 0.015428292 0.12711792 1.7633309e-39
0.92089909 0.015428292 0.12711792 1.5796683e-39
0.92339909 0.015428292 0.12461793 1.2123151e-39
0.92339909 0.015428292 0.12711792 1.2144802e-39
0.92589909 0.015428292 0.12711792 1.3963561e-39
0.92089909 0.012928291 0.13211793 1.5800215e-39
0.92089909 0.015428292 0.13211793 1.3045262e-39
0.92339909 0.012928291 0.13211793 1.5800187e-39
0.92339909 0.015428292 0.12961793 1.3048765e-39
0.92339909 0.015428292 0.13211793 1.1215615e-39
0.92589909 0.015428292 0.12961793 1.3970764e-39
0.93589908 0.015428292 0.12711792 9.3646674e-40
0.92839909 0.015428292 0.12961793 1.3045234e-39
0.92839909 0.015428292 0.13211793 2.2232273e-39
0.94589907 0.015428292 0.12461793 1.8569629e-39
0.94839907 0.015428292 0.12211792 1.4878258e-39
0.95089906 0.015428292 0.12211792 1.9459299e-39
0.94839907 0.012928291 0.12711792 1.3048793e-39
0.94839907 0.015428292 0.12461793 1.1197664e-39
0.94839907 0.015428292 0.12711792 1.0885427e-40
0.95089906 0.012928291 0.12461793 1.3045262e-39
0.95089906 0.012928291 0.12711792 1.4896251e-39
0.95089906 0.015428292 0.12461793 2.9037567e-40
0.95089906 0.015428292 0.12711792 1.5934165e-41
0.95339906 0.012928291 0.12711792 1.1230132e-39
0.95339906 0.015428292 0.12711792 1.450484e-41
0.96589911 0.010428292 0.12461793 2.1310288e-39
0.96589911 0.015428292 0.12211792 1.4869178e-41
0.96589911 0.012928291 0.12461793 1.7626121e-39
0.96589911 0.015428292 0.12461793 3.6972756e-39
0.97089911 -0.10957171 0.12711792 8.1074421e-39
0.97089911 -0.10707171 0.12711792 7.4697238e-39
0.97089911 -0.10457171 0.12711792 1.1342659e-38
0.9733991 -0.10957171 0.12711792 8.2943641e-39
0.9733991 -0.10707171 0.12711792 7.7473995e-39
0.9733991 -0.10457171 0.12711792 1.1342309e-38
0.9758991 -0.10707171 0.12461793 6.733958e-39
0.9758991 -0.10707171 0.12711792 7.9307019e-39
0.9758991 -0.10457171 0.12461793 1.0882401e-38
0.9758991 -0.10457171 0.12711792 1.1158638e-38
0.97089911 -0.10957171 0.12961793 1.244063e-38
0.97089911 -0.10707171 0.12961793 9.0395872e-39
0.9733991 -0.10957171 0.12961793 1.2717937e-38
0.9733991 -0.10707171 0.12961793 8.8569938e-39
0.9808991 -0.10957171 0.12711792 1.3453703e-38
0.9808991 -0.10457171 0.12211792 8.1270042e-39
0.9783991 -0.10707171 0.12461793 7.8378e-39
0.9783991 -0.10707171 0.12711792 8.7633493e-39
0.9783991 -0.10457171 0.12461793 8.8623818e-39
0.9783991 -0.10457171 0.12711792 1.0791303e-38
0.9808991 -0.10707171 0.12461793 7.6526857e-39
0.9808991 -0.10707171 0.12711792 9.7767753e-39
0.9808991 -0.10457171 0.12461793 1.1709293e-38
0.9808991 -0.10457171 0.12711792 1.0700906e-38
0.98339909 -0.10957171 0.12711792 1.4097259e-38
0.98589909 -0.10957171 0.12461793 1.4005066e-38
0.98589909 -0.10957171 0.12711792 1.4648305e-38
0.98589909 -0.10457171 0.12211792 9.3208362e-39
0.98339909 -0.10707171 0.12461793 8.5800496e-39
0.98339909 -0.10707171 0.12711792 9.5927442e-39
0.98339909 -0.10457171 0.12461793 1.0516158e-38
0.98339909 -0.10457171 0.12711792 1.0975679e-38
0.98589909 -0.10707171 0.12461793 9.5938162e-39
0.98589909 -0.10707171 0.12711792 8.396366e-39
0.98589909 -0.10457171 0.12461793 9.0464368e-39
0.98589909 -0.10457171 0.12711792 9.8714947e-39
0.98839909 -0.10957171 0.12711792 1.5106765e-38
0.98839909 -0.10707171 0.12711792 8.4892833e-39
0.98839909 -0.10457171 0.12711792 9.5956309e-39
0.99089909 -0.10707171 0.12461793 9.5927414e-39
0.99089909 -0.10457171 0.12461793 1.0975676e-38
0.99339908 -0.10957171 0.12711792 1.345228e-38
0.99589908 -0.10957171 0.12711792 1.0506031e-38
0.99339908 -0.10707171 0.12461793 8.3967345e-39
0.99339908 -0.10707171 0.12711792 7.8460663e-39
0.99339908 -0.10457171 0.12461793 6.1040911e-39
0.99339908 -0.10457171 0.12711792 9.1368051e-39
0.99589908 -0.10707171 0.12711792 7.1117607e-39
0.99589908 -0.10457171 0.12711792 5.1785265e-39
0.99589908 -0.10957171 0.12961793 1.0506046e-38
0.99589908 -0.10707171 0.12961793 8.0308289e-39
0.99839908 -0.10957171 0.12461793 1.3178914e-38
0.99839908 -0.10957171 0.12711792 1.0414195e-38
1.0008991 -0.10957171 0.12711792 1.0413495e-38
0.99839908 -0.10707171 0.12461793 7.6613191e-39
0.99839908 -0.10707171 0.12711792 6.9270163e-39
0.99839908 -0.10457171 0.12461793 5.6434633e-39
0.99839908 -0.10457171 0.12711792 5.1774461e-39
1.0008991 -0.10707171 0.12711792 8.1212421e-39
1.0008991 -0.10457171 0.12711792 6.3716775e-39
1.0033991 -0.10957171 0.12461793 1.013797e-38
1.0033991 -0.10707171 0.12461793 7.3854735e-39
1.0033991 -0.10707171 0.12711792 5.6348313e-39
1.0033991 -0.10457171 0.12711792 5.8202988e-39
0.99839908 -0.10707171 0.12961793 5.9103448e-39
1.0008991 -0.10707171 0.12961793 5.7273829e-39
1.0008991 -0.10707171 0.13211793 2.9629545e-39
1.0008991 -0.10457171 0.12961793 5.4479009e-39
1.0008991 -0.10457171 0.13211793 4.0656881e-39
1.0058991 -0.10707171 0.12961793 2.135342e-39
1.0058991 -0.10457171 0.12961793 4.066414e-39
0.97089911 -0.10207171 0.069617927 8.4925077e-39
0.99339908 -0.09457171 0.072117925 6.8430813e-39
0.99589908 -0.09457171 0.069617927 8.0358778e-39
0.99589908 -0.09457171 0.074617922 6.3821046e-39
0.99589908 -0.09457171 0.07711792 3.9832231e-39
0.99339908 -0.092071712 0.072117925 1.5564222e-41
0.99589908 -0.092071712 0.069617927 1.5818207e-39
0.99589908 -0.089571707 0.069617927 1.4831357e-39
0.99589908 -0.092071712 0.074617922 1.3407624e-41
0.99589908 -0.092071712 0.07711792 1.6644623e-41
0.99589908 -0.089571707 0.074617922 2.0348661e-39
0.99589908 -0.089571707 0.07711792 1.4838574e-39
0.99589908 -0.087071709 0.07711792 2.129224e-39
0.99839908 -0.097071707 0.072117925 8.0358806e-39
0.99839908 -0.09457171 0.069617927 6.752329e-39
0.99839908 -0.09457171 0.072117925 6.3810326e-39
1.0008991 -0.097071707 0.074617922 8.1248392e-39
1.0008991 -0.09457171 0.074617922 4.4449243e-39
1.0008991 -0.09457171 0.07711792 3.1523862e-39
1.0058991 -0.09457171 0.074617922 2.9683481e-39
0.99839908 -0.092071712 0.069617927 1.6284489e-41
0.99839908 -0.092071712 0.072117925 1.3769159e-41
0.99839908 -0.089571707 0.069617927 8.3777189e-40
0.99839908 -0.089571707 0.072117925 1.3909401e-39
1.0008991 -0.092071712 0.069617927 1.4490827e-41
1.0008991 -0.089571707 0.069617927 7.4522314e-40
1.0008991 -0.092071712 0.074617922 1.4486624e-41
1.0008991 -0.089571707 0.074617922 1.2998262e-39
1.0008991 -0.087071709 0.074617922 1.6707696e-39
1.0008991 -0.087071709 0.07711792 1.6707724e-39
1.0008991 -0.084571712 0.07711792 1.5785767e-39
