# .PCD v0.7 - Point Cloud Data file format
VERSION 0.7
FIELDS x y z rgb
SIZE 4 4 4 4
TYPE F F F F
COUNT 1 1 1 1
WIDTH 1008
HEIGHT 1
VIEWPOINT 0 0 0 1 0 0 0
POINTS 1008
DATA ascii
0.82273412 0.18542294 0.083520964 1.7651204e-39
0.82523412 0.18292294 0.081020959 2.4994204e-39
0.82273412 0.18792294 0.078520961 5.6693033e-40
0.82273412 0.19042295 0.078520961 7.5096145e-40
0.82523412 0.18792294 0.078520961 1.4859957e-39
0.82523412 0.19042295 0.076020963 9.3174016e-40
0.82523412 0.19042295 0.078520961 8.4315708e-40
0.82273412 0.18792294 0.081020959 1.7636686e-39
0.82273412 0.19042295 0.081020959 1.3956092e-39
0.82773411 0.18292294 0.076020963 1.2994437e-39
0.82773411 0.18292294 0.078520961 1.3930911e-39
0.82773411 0.18542294 0.076020963 1.4841951e-39
0.83023411 0.18292294 0.076020963 1.2065474e-39
0.82773411 0.18792294 0.076020963 2.8996789e-40
0.82773411 0.19042295 0.076020963 9.3174016e-40
0.83523411 0.17292295 0.071020961 1.0239358e-39
0.83523411 0.17292295 0.073520958 1.4111076e-41
0.83523411 0.17542295 0.071020961 9.3173736e-40
0.83523411 0.17542295 0.073520958 1.3750942e-41
0.83273411 0.17792295 0.068520963 4.7148509e-40
0.83273411 0.18042295 0.066020966 7.2475157e-42
0.83273411 0.18042295 0.068520963 8.391886e-40
0.83523411 0.17792295 0.066020966 9.2706824e-40
0.83523411 0.17792295 0.068520963 5.6296185e-40
0.83523411 0.18042295 0.066020966 1.0196226e-39
0.83273411 0.17792295 0.073520958 9.3138984e-40
0.83273411 0.18042295 0.073520958 1.0235855e-39
0.83523411 0.17792295 0.071020961 1.0242917e-39
0.83523411 0.17792295 0.073520958 9.3138984e-40
0.83523411 0.18042295 0.071020961 1.0239386e-39
0.83523411 0.18042295 0.073520958 9.3138984e-40
0.8377341 0.17292295 0.066020966 1.2047145e-39
0.8377341 0.17542295 0.066020966 5.6367791e-40
0.8402341 0.17292295 0.066020966 1.3891128e-39
0.8402341 0.17292295 0.068520963 1.0239358e-39
0.8402341 0.17542295 0.066020966 1.2969171e-39
0.8402341 0.17542295 0.068520963 1.0239358e-39
0.8377341 0.17292295 0.071020961 1.2068977e-39
0.8377341 0.17292295 0.073520958 7.4809019e-40
0.8377341 0.17542295 0.071020961 9.3174297e-40
0.8402341 0.17292295 0.071020961 1.0239386e-39
0.8402341 0.17542295 0.071020961 9.3174297e-40
0.8377341 0.17792295 0.066020966 5.6367791e-40
0.8377341 0.18042295 0.066020966 7.4339024e-40
0.8402341 0.17792295 0.066020966 1.94901e-40
0.8377341 0.17792295 0.071020961 9.3174297e-40
0.83273411 0.17292295 0.076020963 1.375935e-41
0.83273411 0.17292295 0.078520961 2.4094066e-39
0.83273411 0.17542295 0.076020963 1.4111076e-41
0.83273411 0.17542295 0.078520961 1.9513025e-39
0.83273411 0.17792295 0.076020963 2.8818824e-40
0.83273411 0.18042295 0.076020963 1.518447e-41
0.83273411 0.18292294 0.066020966 1.0840445e-41
0.83273411 0.18292294 0.068520963 8.3919141e-40
0.83273411 0.18542294 0.066020966 7.4480975e-40
0.83273411 0.18542294 0.068520963 1.1118126e-39
0.83523411 0.18292294 0.066020966 3.7928805e-40
0.83523411 0.18542294 0.066020966 1.204367e-39
0.83273411 0.18292294 0.073520958 9.3138984e-40
0.83273411 0.18542294 0.073520958 9.3174297e-40
0.83523411 0.18292294 0.071020961 1.2072537e-39
0.83273411 0.18792294 0.066020966 7.4480975e-40
0.83273411 0.18792294 0.068520963 1.204367e-39
0.83273411 0.19042295 0.066020966 1.2969115e-39
0.83273411 0.19042295 0.068520963 5.6403384e-40
0.83273411 0.18792294 0.073520958 6.5767982e-40
0.83273411 0.19042295 0.073520958 1.0239386e-39
0.82273412 0.17792295 0.086020961 2.5037546e-39
0.82273412 0.17792295 0.088520959 1.3769159e-41
0.82273412 0.18042295 0.086020961 2.6859949e-39
0.82273412 0.18042295 0.088520959 2.2253755e-39
0.82523412 0.17792295 0.086020961 1.5927158e-41
0.82523412 0.17792295 0.088520959 1.0632072e-40
0.82523412 0.18042295 0.086020961 1.8449496e-41
0.82523412 0.18042295 0.088520959 5.6911075e-40
0.82273412 0.17792295 0.093520962 4.798088e-40
0.82273412 0.18042295 0.091020964 2.6834824e-39
0.82273412 0.18042295 0.093520962 2.0251565e-41
0.82523412 0.17792295 0.091020964 2.0406283e-39
0.82523412 0.17792295 0.093520962 1.9898438e-41
0.82523412 0.18042295 0.091020964 2.775678e-39
0.82523412 0.18042295 0.093520962 1.9567325e-39
0.82773411 0.17292295 0.086020961 9.339332e-40
0.82773411 0.17292295 0.088520959 2.1306729e-39
0.82773411 0.17542295 0.086020961 7.5098387e-40
0.82773411 0.17542295 0.088520959 1.8576691e-39
0.83023411 0.17292295 0.086020961 1.9888629e-40
0.83023411 0.17292295 0.088520959 3.0522593e-39
0.83023411 0.17542295 0.086020961 7.5206007e-40
0.83023411 0.17542295 0.088520959 2.4090535e-39
0.83023411 0.17292295 0.091020964 2.4090535e-39
0.83023411 0.17542295 0.091020964 1.3063227e-39
0.82773411 0.17792295 0.086020961 1.2698567e-41
0.82773411 0.17792295 0.088520959 2.0417003e-39
0.82773411 0.18042295 0.088520959 1.6725716e-39
0.83023411 0.17792295 0.088520959 2.1328267e-39
0.82773411 0.17792295 0.091020964 1.1226349e-39
0.82773411 0.17792295 0.093520962 2.6037527e-41
0.82773411 0.18042295 0.091020964 1.6722311e-39
0.82773411 0.18042295 0.093520962 3.6123078e-39
0.83023411 0.17792295 0.091020964 5.6875762e-40
0.83023411 0.17792295 0.093520962 5.770449e-40
0.83023411 0.18042295 0.093520962 1.1302187e-39
0.82523412 0.17792295 0.096020959 2.4968336e-41
0.82523412 0.18042295 0.096020959 5.4562204e-39
0.82523412 0.18042295 0.098520964 5.4562204e-39
0.83023411 0.17292295 0.096020959 6.4682087e-39
0.82773411 0.17792295 0.096020959 5.6427641e-39
0.82773411 0.18042295 0.096020959 4.4463873e-39
0.82273412 0.18292294 0.086020961 2.5937993e-39
0.82273412 0.18292294 0.088520959 2.4094066e-39
0.82273412 0.18542294 0.086020961 2.8693127e-39
0.82273412 0.18542294 0.088520959 2.4090535e-39
0.82273412 0.18292294 0.091020964 2.6834824e-39
0.82273412 0.18292294 0.093520962 2.0608897e-41
0.82273412 0.18542294 0.091020964 2.6834824e-39
0.82273412 0.18542294 0.093520962 2.1327763e-41
0.82523412 0.18292294 0.091020964 2.2250195e-39
0.82523412 0.18292294 0.093520962 3.3378691e-39
0.82273412 0.18792294 0.086020961 2.5941552e-39
0.82273412 0.18792294 0.088520959 2.4094038e-39
0.82273412 0.19042295 0.086020961 2.2250195e-39
0.82273412 0.18792294 0.091020964 1.8569629e-39
0.82273412 0.18792294 0.093520962 2.4927698e-41
0.82273412 0.19042295 0.091020964 2.2218022e-39
0.82273412 0.19042295 0.093520962 9.4330368e-40
0.82523412 0.19042295 0.091020964 6.6923773e-40
0.82523412 0.19042295 0.093520962 3.987186e-39
0.82773411 0.18292294 0.093520962 5.0881568e-39
0.82773411 0.18792294 0.093520962 6.2863342e-39
0.82773411 0.19042295 0.093520962 6.0079551e-39
0.83023411 0.19042295 0.093520962 6.5614918e-39
0.82523412 0.18292294 0.096020959 5.9172056e-39
0.82523412 0.18292294 0.098520964 4.537141e-39
0.82523412 0.18542294 0.096020959 6.1012367e-39
0.82523412 0.18792294 0.096020959 5.733529e-39
0.82523412 0.19042295 0.096020959 5.5491447e-39
0.82773411 0.18292294 0.096020959 4.7229742e-39
0.83273411 0.17292295 0.088520959 2.4987352e-39
0.83273411 0.17542295 0.088520959 2.4090535e-39
0.83273411 0.17292295 0.091020964 2.0258572e-41
0.83273411 0.17292295 0.093520962 3.8020885e-39
0.83273411 0.17542295 0.091020964 2.3134036e-41
0.83273411 0.17542295 0.093520962 4.8133523e-39
0.83523411 0.17292295 0.091020964 3.7095285e-39
0.83523411 0.17292295 0.093520962 6.6536748e-39
0.83523411 0.17542295 0.091020964 5.8239085e-39
0.83523411 0.17542295 0.093520962 6.7462376e-39
0.83273411 0.17792295 0.093520962 5.4587217e-39
0.83523411 0.17792295 0.091020964 6.1015702e-39
0.83523411 0.17792295 0.093520962 6.1012213e-39
0.8377341 0.17542295 0.091020964 6.3774635e-39
0.83273411 0.17292295 0.096020959 6.6540405e-39
0.83523411 0.17292295 0.096020959 4.4435174e-39
0.83523411 0.17542295 0.096020959 3.8896178e-39
0.8377341 0.17292295 0.096020959 3.3368125e-39
0.83023411 0.19542295 0.068520963 3.7964118e-40
0.82773411 0.19542295 0.073520958 4.7183821e-40
0.83023411 0.19292295 0.071020961 8.3919141e-40
0.83023411 0.19292295 0.073520958 3.8073419e-40
0.83023411 0.19542295 0.071020961 8.391886e-40
0.83023411 0.19542295 0.073520958 4.7328295e-40
0.83023411 0.19792295 0.068520963 4.7183821e-40
0.83023411 0.20042294 0.068520963 9.3174016e-40
0.82773411 0.19792295 0.073520958 8.3954453e-40
0.82773411 0.20042294 0.073520958 8.3919141e-40
0.83023411 0.19792295 0.071020961 6.5551341e-40
0.83023411 0.20042294 0.071020961 5.6368352e-40
0.82273412 0.19292295 0.078520961 1.3027872e-41
0.82273412 0.19542295 0.078520961 1.2320216e-41
0.82523412 0.19292295 0.076020963 4.7400462e-40
0.82523412 0.19542295 0.076020963 1.3739731e-41
0.82273412 0.19292295 0.081020959 1.4878048e-39
0.82273412 0.19542295 0.081020959 1.2130186e-39
0.82273412 0.19792295 0.078520961 3.8038387e-40
0.82273412 0.20042294 0.076020963 8.3919141e-40
0.82273412 0.20042294 0.078520961 3.8038387e-40
0.82523412 0.19792295 0.076020963 1.3379598e-41
0.82523412 0.20042294 0.076020963 5.6368352e-40
0.82273412 0.19792295 0.081020959 1.8562202e-39
0.82273412 0.20042294 0.081020959 1.4878048e-39
0.82773411 0.19292295 0.076020963 5.6512545e-40
0.82773411 0.19542295 0.076020963 1.4111076e-41
0.82273412 0.20292294 0.073520958 6.5622667e-40
0.82273412 0.20542295 0.071020961 1.6646207e-39
0.82273412 0.20542295 0.073520958 3.7928805e-40
0.82523412 0.20292294 0.071020961 9.3174016e-40
0.82523412 0.20542295 0.071020961 7.4878103e-40
0.82523412 0.20792295 0.068520963 1.6631745e-39
0.82273412 0.20792295 0.071020961 1.6631745e-39
0.82273412 0.21042295 0.071020961 1.1103553e-39
0.82773411 0.20542295 0.068520963 6.5622667e-40
0.83023411 0.20292294 0.068520963 9.3174016e-40
0.83023411 0.20542295 0.068520963 6.5622667e-40
0.82773411 0.20292294 0.071020961 4.7148789e-40
0.82773411 0.20292294 0.073520958 8.3919141e-40
0.82773411 0.20792295 0.066020966 1.5702698e-39
0.83023411 0.20792295 0.066020966 1.204367e-39
0.83023411 0.20792295 0.068520963 1.2043614e-39
0.82273412 0.20292294 0.076020963 8.3919421e-40
0.83273411 0.19292295 0.066020966 1.0199729e-39
0.83273411 0.19292295 0.068520963 5.6367791e-40
0.83273411 0.19542295 0.066020966 1.2969115e-39
0.83273411 0.19542295 0.068520963 6.5551341e-40
0.83273411 0.19792295 0.066020966 1.2047145e-39
0.83273411 0.19792295 0.068520963 8.3954453e-40
0.83273411 0.20042294 0.066020966 6.5622947e-40
0.83273411 0.20042294 0.068520963 7.4878103e-40
0.83273411 0.20292294 0.066020966 8.3954453e-40
0.83273411 0.20542295 0.066020966 8.3954453e-40
0.83273411 0.20792295 0.066020966 5.6403384e-40
0.82273412 0.19292295 0.086020961 2.2250195e-39
0.82273412 0.19292295 0.088520959 1.7647645e-39
0.82273412 0.19542295 0.086020961 2.1338959e-39
0.82273412 0.19542295 0.088520959 1.6725688e-39
0.82273412 0.19292295 0.091020964 2.0406437e-39
0.82273412 0.19292295 0.093520962 2.6921438e-39
0.82273412 0.19542295 0.091020964 2.9629601e-39
0.82273412 0.19542295 0.093520962 1.0373168e-39
0.82523412 0.19292295 0.091020964 6.6923773e-40
0.82523412 0.19292295 0.093520962 5.8264295e-39
0.82523412 0.19542295 0.091020964 2.7846981e-39
0.82523412 0.19542295 0.093520962 4.7204532e-39
0.82273412 0.19792295 0.086020961 2.5912839e-39
0.82273412 0.19792295 0.088520959 2.4079717e-39
0.82273412 0.20042294 0.088520959 2.4079689e-39
0.82273412 0.19792295 0.091020964 1.8612943e-39
0.82273412 0.20042294 0.091020964 3.517929e-39
0.82273412 0.20042294 0.093520962 4.5328194e-39
0.82523412 0.19792295 0.091020964 2.4119471e-39
0.82523412 0.19792295 0.093520962 4.2594751e-39
0.82523412 0.20042294 0.091020964 3.3335377e-39
0.82523412 0.20042294 0.093520962 4.7197316e-39
0.82773411 0.19292295 0.093520962 6.1001507e-39
0.82773411 0.19542295 0.093520962 6.0990717e-39
0.82773411 0.19792295 0.093520962 5.7302906e-39
0.82773411 0.20042294 0.093520962 5.4554987e-39
0.82523412 0.19292295 0.096020959 6.100515e-39
0.82523412 0.19542295 0.096020959 5.7313654e-39
0.82523412 0.20042294 0.096020959 4.1647599e-39
0.82523412 0.20042294 0.098520964 2.5077651e-39
0.82773411 0.19792295 0.096020959 3.6097869e-39
0.82773411 0.20042294 0.096020959 2.9683845e-39
0.82273412 0.20292294 0.088520959 2.2235776e-39
0.82273412 0.20292294 0.091020964 3.2431399e-39
0.82273412 0.20292294 0.093520962 4.901232e-39
0.82273412 0.20542295 0.091020964 3.4275312e-39
0.82273412 0.20292294 0.096020959 3.2471154e-39
0.82273412 0.20292294 0.098520964 3.0602088e-39
0.82273412 0.20542295 0.096020959 4.4395251e-39
0.82523412 0.20292294 0.096020959 3.4307934e-39
0.82523412 0.20292294 0.098520964 2.7836233e-39
0.82273412 0.20292294 0.10102096 1.865983e-39
0.82773411 0.21042295 0.10352096 3.2420679e-39
0.83023411 0.21042295 0.10352096 3.7952417e-39
0.81773412 0.20292294 0.10602096 2.4166387e-39
0.81773412 0.20542295 0.10602096 2.3244431e-39
0.81773412 0.20792295 0.10602096 3.8863514e-39
0.81773412 0.21042295 0.10602096 5.2678256e-39
0.82023412 0.20792295 0.10852096 3.0573194e-39
0.82023412 0.21042295 0.10852096 3.8841877e-39
0.82023412 0.20792295 0.11102096 2.8750805e-39
0.82023412 0.21042295 0.11102096 2.4151898e-39
0.82273412 0.20542295 0.10602096 3.2424365e-39
0.82273412 0.20792295 0.10602096 4.0693007e-39
0.82273412 0.21042295 0.10602096 4.6224745e-39
0.82273412 0.21042295 0.10852096 3.1498723e-39
0.82523412 0.21042295 0.10852096 2.7825275e-39
0.82273412 0.20792295 0.11102096 3.1498667e-39
0.82273412 0.21042295 0.11102096 2.4148338e-39
0.82523412 0.21042295 0.11102096 2.1393231e-39
0.83023411 0.21042295 0.10602096 3.4260963e-39
0.82773411 0.21042295 0.11352096 2.5970615e-39
0.82523412 0.20792295 0.11852096 2.4123031e-39
0.82523412 0.21042295 0.11852096 2.7799982e-39
0.82273412 0.20792295 0.12352096 2.7785619e-39
0.82273412 0.21042295 0.12352096 1.8584034e-39
0.82523412 0.20792295 0.12102097 2.5019848e-39
0.82523412 0.20792295 0.12352096 2.4108555e-39
0.82523412 0.21042295 0.12102097 2.4108527e-39
0.82523412 0.21042295 0.12352096 2.0427933e-39
0.82773411 0.20792295 0.11852096 2.4123031e-39
0.82773411 0.21042295 0.11602096 2.7799912e-39
0.82773411 0.21042295 0.11852096 2.7799982e-39
0.82773411 0.21042295 0.12102097 2.4108583e-39
0.82773411 0.21042295 0.12352096 1.9502487e-39
0.82523412 0.20792295 0.12602097 1.8591307e-39
0.82523412 0.21042295 0.12602097 1.3059569e-39
0.82023412 0.21292295 0.068520963 3.6195539e-42
0.82023412 0.21542294 0.068520963 8.3012921e-42
0.82023412 0.21292295 0.071020961 6.1573055e-42
0.82023412 0.21292295 0.073520958 8.3484038e-40
0.82023412 0.21542294 0.073520958 2.9585797e-39
0.82023412 0.21792294 0.073520958 4.0649272e-39
0.81773412 0.21292295 0.078520961 2.9582307e-39
0.81773412 0.21542294 0.078520961 3.4192075e-39
0.82023412 0.21292295 0.076020963 2.9582265e-39
0.82023412 0.21292295 0.078520961 2.591972e-39
0.82023412 0.21542294 0.076020963 3.0507795e-39
0.82023412 0.21542294 0.078520961 3.142622e-39
0.81773412 0.21292295 0.081020959 2.5930566e-39
0.81773412 0.21292295 0.083520964 2.4997735e-39
0.81773412 0.21542294 0.081020959 3.4192075e-39
0.81773412 0.21542294 0.083520964 3.1451429e-39
0.82023412 0.21292295 0.081020959 2.6823851e-39
0.82023412 0.21292295 0.083520964 1.9484186e-39
0.82023412 0.21542294 0.081020959 3.0529459e-39
0.82023412 0.21542294 0.083520964 2.5916188e-39
0.81773412 0.21792294 0.078520961 5.0722072e-39
0.82023412 0.21792294 0.076020963 3.6961489e-39
0.82023412 0.21792294 0.078520961 4.8874572e-39
0.81773412 0.21792294 0.081020959 4.6112304e-39
0.82023412 0.21792294 0.081020959 4.7967119e-39
0.82023412 0.21792294 0.083520964 6.5473415e-39
0.82023412 0.22042295 0.083520964 8.202537e-39
0.81523412 0.21292295 0.086020961 2.4075765e-39
0.81523412 0.21542294 0.086020961 4.7963588e-39
0.81273413 0.21542294 0.093520962 4.7041631e-39
0.81523412 0.21292295 0.091020964 2.6852494e-39
0.81523412 0.21292295 0.093520962 2.589835e-39
0.81523412 0.21542294 0.091020964 5.4420813e-39
0.81523412 0.21542294 0.093520962 4.520132e-39
0.81523412 0.21792294 0.086020961 6.9157639e-39
0.81773412 0.21292295 0.086020961 2.2257034e-39
0.81773412 0.21292295 0.088520959 2.1324343e-39
0.81773412 0.21542294 0.086020961 2.6866829e-39
0.81773412 0.21542294 0.088520959 5.4399303e-39
0.82023412 0.21292295 0.088520959 2.6827327e-39
0.82023412 0.21542294 0.088520959 2.5916188e-39
0.81773412 0.21292295 0.091020964 2.9571742e-39
0.81773412 0.21292295 0.093520962 2.129933e-39
0.81773412 0.21542294 0.093520962 4.4282993e-39
0.82023412 0.21292295 0.091020964 2.4976394e-39
0.82023412 0.21292295 0.093520962 2.957177e-39
0.81773412 0.21792294 0.086020961 6.2714903e-39
0.81773412 0.21792294 0.088520959 6.6391868e-39
0.82023412 0.21792294 0.088520959 6.546638e-39
0.81773412 0.21792294 0.091020964 6.5462821e-39
0.82023412 0.21792294 0.091020964 6.2714931e-39
0.82023412 0.21792294 0.093520962 7.4664167e-39
0.82023412 0.22042295 0.091020964 7.0057987e-39
0.81773412 0.21292295 0.096020959 2.6849019e-39
0.81773412 0.21292295 0.098520964 5.6326481e-39
0.81773412 0.21542294 0.096020959 4.1524383e-39
0.81773412 0.21542294 0.098520964 4.6181234e-39
0.82023412 0.21542294 0.098520964 4.7095778e-39
0.81773412 0.21292295 0.10102096 6.4609668e-39
0.81773412 0.21292295 0.10352096 6.1858219e-39
0.81773412 0.21542294 0.10102096 4.9883507e-39
0.82023412 0.21292295 0.10102096 6.4606263e-39
0.82023412 0.21292295 0.10352096 5.4504345e-39
0.82023412 0.21542294 0.10102096 4.8068531e-39
0.82023412 0.21542294 0.10352096 4.8997648e-39
0.82023412 0.21792294 0.10102096 6.1792932e-39
0.82023412 0.21792294 0.10352096 5.5346469e-39
0.82023412 0.22042295 0.10102096 7.0998048e-39
0.82023412 0.22042295 0.10352096 6.5487988e-39
0.82273412 0.21292295 0.068520963 3.643376e-42
0.82273412 0.21542294 0.068520963 4.653488e-40
0.82273412 0.21292295 0.071020961 3.3056631e-42
0.82273412 0.21542294 0.071020961 3.0464593e-39
0.82273412 0.21792294 0.068520963 2.4921883e-39
0.82523412 0.21792294 0.068520963 4.984343e-39
0.82273412 0.21792294 0.071020961 4.9825675e-39
0.82523412 0.21792294 0.071020961 3.6039519e-39
0.82273412 0.21542294 0.076020963 4.0599022e-39
0.82273412 0.21792294 0.076020963 4.3368478e-39
0.82273412 0.21792294 0.078520961 4.9796556e-39
0.82273412 0.22292295 0.083520964 7.9263102e-39
0.82523412 0.22292295 0.083520964 7.7433581e-39
0.82273412 0.21792294 0.086020961 6.2718434e-39
0.82273412 0.22042295 0.086020961 7.3745742e-39
0.82523412 0.22042295 0.086020961 6.1792932e-39
0.82273412 0.22042295 0.091020964 7.4664167e-39
0.82273412 0.22042295 0.093520962 7.3753001e-39
0.82273412 0.21792294 0.096020959 5.1694797e-39
0.82523412 0.22042295 0.096020959 6.6398874e-39
0.82523412 0.22042295 0.098520964 6.4569437e-39
0.82273412 0.21792294 0.10102096 6.2703916e-39
0.82273412 0.21792294 0.10352096 5.5335749e-39
0.82273412 0.22042295 0.10352096 6.4555312e-39
0.82773411 0.22042295 0.096020959 6.9157639e-39
0.82523412 0.22292295 0.086020961 7.4674999e-39
0.82273412 0.22292295 0.091020964 7.8341104e-39
0.82273412 0.22292295 0.093520962 7.7419148e-39
0.82523412 0.22292295 0.091020964 7.4664167e-39
0.82523412 0.22292295 0.093520962 8.0185059e-39
0.82773411 0.22292295 0.093520962 6.8235654e-39
0.83023411 0.22542295 0.093520962 7.743714e-39
0.82773411 0.22292295 0.096020959 7.0079595e-39
0.81773412 0.21292295 0.10602096 5.2678256e-39
0.82023412 0.21292295 0.10852096 3.4232096e-39
0.82023412 0.21542294 0.10852096 2.9643768e-39
0.82023412 0.21292295 0.11102096 1.3088436e-39
0.82023412 0.21542294 0.11102096 2.1342728e-39
0.81773412 0.21792294 0.10602096 5.7222822e-39
0.81773412 0.22042295 0.10602096 8.0185059e-39
0.81773412 0.22042295 0.10852096 8.202537e-39
0.82023412 0.21792294 0.10852096 3.4206368e-39
0.82023412 0.22042295 0.10852096 8.1121392e-39
0.81773412 0.22042295 0.11102096 7.6508122e-39
0.82023412 0.21792294 0.11102096 3.5157191e-39
0.82023412 0.22042295 0.11102096 7.4689348e-39
0.82023412 0.22042295 0.11352096 6.9143163e-39
0.82023412 0.22292295 0.10852096 8.2021839e-39
0.82023412 0.22292295 0.11102096 8.386215e-39
0.82023412 0.22292295 0.12352096 1.2441723e-38
0.82023412 0.22542295 0.12352096 1.2165137e-38
0.81523412 0.22542295 0.13352096 1.5297262e-38
0.81523412 0.22792295 0.13352096 1.5665673e-38
0.81523412 0.22542295 0.13602096 1.6679836e-38
0.81523412 0.22792295 0.13602096 1.6587282e-38
0.81773412 0.22542295 0.13602096 1.6221376e-38
0.81773412 0.22792295 0.13602096 1.6312496e-38
0.82023412 0.22792295 0.13602096 7.3727595e-39
0.82023412 0.22792295 0.13852096 3.9604464e-39
0.82023412 0.23042294 0.13602096 6.906015e-39
0.82273412 0.21292295 0.10602096 5.0827169e-39
0.82273412 0.21292295 0.10852096 2.4123031e-39
0.82273412 0.21542294 0.10602096 4.9926863e-39
0.82273412 0.21542294 0.10852096 3.0562221e-39
0.82523412 0.21292295 0.10852096 1.3995959e-39
0.82523412 0.21542294 0.10852096 2.318304e-39
0.82273412 0.21292295 0.11102096 1.124095e-39
0.82523412 0.21292295 0.11102096 7.5638868e-40
0.82523412 0.21542294 0.11102096 1.7651358e-39
0.82273412 0.21792294 0.10602096 4.8003385e-39
0.82273412 0.21792294 0.10852096 3.3284552e-39
0.82273412 0.22042295 0.10602096 5.2616767e-39
0.82273412 0.22042295 0.10852096 4.1582159e-39
0.82523412 0.21792294 0.10852096 2.2249817e-39
0.82523412 0.22042295 0.10852096 3.6986797e-39
0.82273412 0.21792294 0.11102096 2.686348e-39
0.82273412 0.21792294 0.11352096 2.8689414e-39
0.82273412 0.22042295 0.11102096 6.8235654e-39
0.82273412 0.22042295 0.11352096 5.625025e-39
0.82523412 0.21792294 0.11102096 2.1331742e-39
0.82523412 0.22042295 0.11102096 2.8689414e-39
0.82773411 0.21292295 0.11352096 1.6751038e-39
0.82773411 0.21542294 0.11352096 1.8580475e-39
0.82773411 0.21792294 0.11352096 2.1324736e-39
0.82773411 0.22042295 0.11352096 1.0293658e-39
0.82523412 0.21292295 0.11852096 2.5952468e-39
0.82523412 0.21542294 0.11852096 9.3681987e-40
0.82523412 0.21292295 0.12352096 1.8584006e-39
0.82273412 0.21792294 0.11602096 1.3063072e-39
0.82273412 0.21792294 0.11852096 6.6166231e-40
0.82273412 0.22042295 0.11602096 4.4289846e-39
0.82273412 0.22042295 0.11852096 3.7818187e-39
0.82523412 0.21792294 0.11602096 1.5807389e-39
0.82523412 0.21792294 0.11852096 8.4605357e-40
0.82523412 0.22042295 0.11602096 4.5190334e-39
0.82523412 0.22042295 0.11852096 2.5854433e-39
0.82523412 0.21792294 0.12102097 1.7004757e-41
0.82523412 0.21792294 0.12352096 1.2688758e-41
0.82523412 0.22042295 0.12102097 2.5829252e-39
0.82523412 0.22042295 0.12352096 2.58187e-39
0.82773411 0.21292295 0.11602096 2.6877956e-39
0.82773411 0.21292295 0.11852096 2.4108555e-39
0.82773411 0.21542294 0.11602096 1.674738e-39
0.82773411 0.21542294 0.11852096 1.4906971e-39
0.82773411 0.21292295 0.12102097 1.6747352e-39
0.82773411 0.21292295 0.12352096 8.485717e-40
0.82773411 0.21542294 0.12102097 1.1215615e-39
0.82773411 0.21542294 0.12352096 1.9164158e-41
0.83023411 0.21292295 0.12352096 5.7342955e-40
0.83023411 0.21542294 0.12352096 6.6418044e-40
0.82773411 0.21792294 0.11852096 7.5421106e-40
0.82773411 0.22042295 0.11852096 8.3004976e-39
0.82773411 0.21792294 0.12102097 3.8686768e-40
0.82773411 0.21792294 0.12352096 1.5922954e-41
0.82773411 0.22042295 0.12102097 8.8511714e-39
0.82773411 0.22042295 0.12352096 5.6293242e-40
0.83023411 0.21792294 0.12352096 2.9324973e-40
0.83023411 0.22042295 0.12352096 5.5411307e-39
0.82273412 0.22292295 0.10602096 8.0185031e-39
0.82273412 0.22292295 0.10852096 8.202537e-39
0.82523412 0.22292295 0.10852096 8.2947326e-39
0.82273412 0.22292295 0.11102096 8.5702461e-39
0.82273412 0.22292295 0.11352096 9.0290607e-39
0.82523412 0.22292295 0.11102096 8.5705992e-39
0.82773411 0.22292295 0.11352096 9.0290607e-39
0.82773411 0.22542295 0.11352096 9.3092447e-39
0.82273412 0.22292295 0.11852096 1.0412326e-38
0.82273412 0.22542295 0.11852096 1.1149891e-38
0.82523412 0.22292295 0.11602096 9.6772985e-39
0.82523412 0.22292295 0.11852096 1.2347375e-38
0.82523412 0.22542295 0.11602096 1.004608e-38
0.82523412 0.22542295 0.11852096 1.179456e-38
0.82273412 0.22292295 0.12102097 1.207187e-38
0.82273412 0.22292295 0.12352096 1.225733e-38
0.82273412 0.22542295 0.12352096 1.2808e-38
0.82523412 0.22292295 0.12102097 1.2165116e-38
0.82523412 0.22292295 0.12352096 1.2257697e-38
0.82523412 0.22542295 0.12102097 1.2441702e-38
0.82523412 0.22542295 0.12352096 1.3180012e-38
0.82773411 0.22292295 0.11852096 1.2439911e-38
0.82773411 0.22542295 0.11852096 1.2162964e-38
0.82773411 0.22292295 0.12102097 1.2255535e-38
0.82773411 0.22292295 0.12352096 1.0234456e-38
0.82773411 0.22542295 0.12102097 1.4007609e-38
0.82773411 0.22542295 0.12352096 1.1709586e-38
0.83023411 0.22292295 0.12352096 3.7868774e-39
0.83023411 0.22542295 0.12352096 1.1800337e-38
0.82773411 0.22792295 0.12352096 1.4282743e-38
0.83023411 0.22792295 0.12352096 1.4006523e-38
0.8377341 0.23042294 0.12102097 1.5206145e-38
0.8377341 0.23042294 0.12352096 1.5853335e-38
0.82523412 0.21542294 0.12852097 3.4232152e-39
0.82523412 0.21792294 0.12602097 2.7800136e-39
0.82523412 0.21792294 0.12852097 5.0823778e-39
0.82523412 0.22042295 0.12852097 9.458078e-40
0.82773411 0.21292295 0.12602097 1.3999434e-39
0.82773411 0.21542294 0.12602097 2.1360637e-39
0.82773411 0.21542294 0.12852097 1.3424439e-41
0.83023411 0.21542294 0.12602097 3.239519e-39
0.83023411 0.21542294 0.12852097 1.0544771e-41
0.82773411 0.21792294 0.12602097 2.4126506e-39
0.82773411 0.21792294 0.12852097 4.1651103e-39
0.82773411 0.22042295 0.12602097 6.692125e-40
0.82773411 0.22042295 0.12852097 4.6246254e-39
0.83023411 0.21792294 0.12602097 5.1756272e-39
0.83023411 0.21792294 0.12852097 5.2674879e-39
0.83023411 0.22042295 0.12602097 2.8815601e-39
0.83023411 0.22042295 0.12852097 5.4529414e-39
0.82273412 0.22292295 0.12602097 1.3271502e-38
0.82273412 0.22292295 0.12852097 9.5952021e-39
0.82273412 0.22542295 0.12602097 1.3730665e-38
0.82273412 0.22542295 0.12852097 1.4468946e-38
0.82523412 0.22292295 0.12602097 1.0324841e-38
0.82523412 0.22292295 0.12852097 3.2322743e-39
0.82523412 0.22542295 0.12602097 1.391576e-38
0.82523412 0.22542295 0.12852097 1.4469299e-38
0.82273412 0.22542295 0.13102096 1.5114669e-38
0.82523412 0.22542295 0.13102096 1.5944449e-38
0.82273412 0.22792295 0.12602097 1.4373881e-38
0.82273412 0.22792295 0.12852097 1.5297268e-38
0.82523412 0.22792295 0.12602097 1.4373881e-38
0.82523412 0.22792295 0.12852097 1.57568e-38
0.82523412 0.23042294 0.12852097 1.5389092e-38
0.82273412 0.22792295 0.13102096 1.5389814e-38
0.82273412 0.22792295 0.13352096 1.5944431e-38
0.82273412 0.23042294 0.13102096 1.5757874e-38
0.82273412 0.23042294 0.13352096 1.6312493e-38
0.82523412 0.22792295 0.13102096 1.667948e-38
0.82523412 0.23042294 0.13102096 1.6495442e-38
0.82773411 0.22292295 0.12602097 3.1440289e-39
0.82773411 0.22292295 0.12852097 8.7665386e-39
0.82773411 0.22542295 0.12602097 9.2285803e-39
0.82773411 0.22542295 0.12852097 1.4285651e-38
0.83023411 0.22292295 0.12602097 2.5890587e-39
0.83023411 0.22292295 0.12852097 5.1705503e-39
0.83023411 0.22542295 0.12602097 8.9505571e-39
0.83023411 0.22542295 0.12852097 9.2253461e-39
0.82773411 0.22792295 0.12602097 1.511395e-38
0.83023411 0.22792295 0.12602097 1.5114669e-38
0.83023411 0.22792295 0.12852097 1.5578175e-38
0.83023411 0.23042294 0.12602097 1.5390167e-38
0.82773411 0.22792295 0.13352096 7.6493478e-39
0.82273412 0.22792295 0.13852096 4.4253902e-39
0.83273411 0.21542294 0.12852097 9.8343126e-42
0.83273411 0.21542294 0.13102096 1.1258032e-41
0.83273411 0.21792294 0.12602097 1.0489139e-40
0.83273411 0.21792294 0.12852097 9.8231022e-42
0.83273411 0.22042295 0.12852097 6.0975891e-39
0.83523411 0.21792294 0.12852097 9.8301087e-42
0.83273411 0.21792294 0.13102096 1.018744e-41
0.83273411 0.22042295 0.13102096 5.9121259e-39
0.83523411 0.21792294 0.13102096 9.1112426e-42
0.83523411 0.21792294 0.13352096 8.3965804e-42
0.83523411 0.22042295 0.13102096 5.4518694e-39
0.83523411 0.22042295 0.13352096 5.3596738e-39
0.8377341 0.21542294 0.13102096 8.7441024e-42
0.8377341 0.21542294 0.13352096 9.0972296e-42
0.8402341 0.21542294 0.13102096 7.6637013e-42
0.8377341 0.21792294 0.13102096 1.018744e-41
0.8377341 0.21792294 0.13352096 9.8343126e-42
0.8377341 0.22042295 0.13102096 3.9774806e-39
0.8377341 0.22042295 0.13352096 3.8849318e-39
0.8402341 0.21792294 0.13102096 9.8217009e-42
0.8402341 0.22042295 0.13102096 3.7927236e-39
0.83273411 0.22292295 0.12602097 4.9872352e-39
0.83273411 0.22292295 0.12852097 6.4594772e-39
0.83273411 0.22542295 0.12602097 8.674343e-39
0.83273411 0.22542295 0.12852097 8.9494823e-39
0.83523411 0.22292295 0.12602097 5.8159057e-39
0.83523411 0.22292295 0.12852097 6.3680383e-39
0.83523411 0.22542295 0.12602097 8.674343e-39
0.83523411 0.22542295 0.12852097 7.1974501e-39
0.83273411 0.22542295 0.13102096 7.6536792e-39
0.83273411 0.22792295 0.12602097 1.5945531e-38
0.83273411 0.22792295 0.12852097 1.5303386e-38
0.83273411 0.23042294 0.12602097 1.6588357e-38
0.83273411 0.23042294 0.12852097 1.6129181e-38
0.83523411 0.22792295 0.12602097 1.4470401e-38
0.83523411 0.22792295 0.12852097 8.3887275e-39
0.83523411 0.23042294 0.12852097 8.2907515e-39
0.83273411 0.22792295 0.13102096 8.383666e-39
0.83273411 0.23042294 0.13102096 7.7408204e-39
0.83523411 0.22792295 0.13102096 2.0322471e-39
0.83523411 0.22792295 0.13352096 1.7588874e-39
0.83523411 0.23042294 0.13102096 3.7760551e-39
0.83523411 0.23042294 0.13352096 3.9644121e-39
0.8377341 0.22292295 0.12852097 5.3600241e-39
0.8377341 0.22542295 0.12602097 8.9505571e-39
0.8377341 0.22542295 0.12852097 6.6442763e-39
0.8402341 0.22542295 0.12852097 5.8167058e-39
0.8377341 0.22292295 0.13102096 4.9923304e-39
0.8377341 0.22292295 0.13352096 4.9001347e-39
0.8402341 0.22292295 0.13102096 5.2678284e-39
0.8402341 0.22542295 0.13102096 6.0932703e-39
0.8377341 0.22792295 0.12602097 1.3365122e-38
0.8377341 0.22792295 0.12852097 5.9033888e-39
0.8377341 0.23042294 0.12852097 2.6765417e-39
0.8402341 0.22792295 0.12602097 1.2997769e-38
0.8402341 0.22792295 0.12852097 5.540821e-39
0.8402341 0.23042294 0.12602097 1.5486692e-38
0.8402341 0.23042294 0.12852097 1.7556616e-39
0.8377341 0.22792295 0.13102096 6.0881486e-39
0.8377341 0.23042294 0.13102096 4.2392011e-39
0.8377341 0.23042294 0.13352096 4.6079836e-39
0.8402341 0.22792295 0.13102096 7.0100853e-39
0.8402341 0.23292294 0.12352096 1.6588354e-38
0.8402341 0.23292294 0.12602097 8.4758617e-39
0.8402341 0.23292294 0.12852097 3.9586471e-39
0.8377341 0.23292294 0.13102096 4.3317555e-39
0.8377341 0.23292294 0.13352096 5.161156e-39
0.85523409 0.12542294 0.063520961 1.1164846e-39
0.85523409 0.12792295 0.063520961 2.5847847e-39
0.85523409 0.13042295 0.063520961 2.7688158e-39
0.8452341 0.11042295 0.083520964 3.7015789e-39
0.84773409 0.10792295 0.078520961 1.9480627e-39
0.84773409 0.11042295 0.078520961 1.8558671e-39
0.85023409 0.10792295 0.076020963 2.871098e-39
0.85023409 0.11042295 0.076020963 2.3168424e-39
0.84773409 0.10792295 0.083520964 4.2525975e-39
0.84773409 0.11042295 0.083520964 4.3447932e-39
0.85023409 0.10792295 0.081020959 3.8848884e-39
0.85023409 0.10792295 0.083520964 3.7019419e-39
0.85023409 0.11042295 0.081020959 3.8848884e-39
0.85523409 0.10042295 0.073520958 1.1698831e-38
0.85773408 0.10042295 0.073520958 2.0826196e-38
0.85523409 0.10042295 0.078520961 1.2255571e-38
0.85523409 0.097922944 0.083520964 2.1566587e-38
0.85523409 0.10042295 0.081020959 1.3361915e-38
0.85523409 0.10042295 0.083520964 1.5112893e-38
0.85773408 0.10042295 0.076020963 1.197469e-38
0.85773408 0.10042295 0.078520961 1.2438536e-38
0.85773408 0.10042295 0.081020959 1.4099467e-38
0.85523409 0.10292295 0.073520958 5.08021e-39
0.85523409 0.10542294 0.073520958 3.3288518e-39
0.85523409 0.10792295 0.068520963 5.5754443e-40
0.85273409 0.10792295 0.071020961 2.5908761e-39
0.85273409 0.11042295 0.071020961 2.9578804e-39
0.85273409 0.11042295 0.073520958 3.0500732e-39
0.85523409 0.10792295 0.073520958 2.6805803e-39
0.85523409 0.11042295 0.073520958 3.0500788e-39
0.86023408 0.10542294 0.068520963 3.643376e-44
0.85773408 0.10292295 0.071020961 2.7709458e-39
0.85773408 0.10292295 0.073520958 1.1606283e-38
0.85773408 0.10542294 0.071020961 5.0446745e-44
0.85773408 0.10542294 0.073520958 4.2500612e-39
0.86023408 0.10292295 0.073520958 1.1514432e-38
0.86023408 0.10542294 0.071020961 2.6791061e-39
0.85773408 0.10792295 0.068520963 6.4937712e-40
0.85773408 0.11042295 0.068520963 3.7840285e-39
0.86023408 0.10792295 0.066020966 4.0133188e-42
0.86023408 0.10792295 0.068520963 5.0783056e-42
0.86023408 0.11042295 0.066020966 3.0468292e-39
0.85773408 0.10792295 0.071020961 1.8525166e-42
0.85773408 0.11042295 0.071020961 2.9575245e-39
0.85273409 0.10542294 0.076020963 3.3317174e-39
0.85523409 0.10292295 0.078520961 5.2660264e-39
0.85523409 0.10542294 0.078520961 3.424269e-39
0.85273409 0.10292295 0.083520964 3.4210474e-39
0.85273409 0.10542294 0.081020959 3.7919781e-39
0.85273409 0.10542294 0.083520964 3.3324391e-39
0.85523409 0.10292295 0.081020959 5.2656733e-39
0.85523409 0.10292295 0.083520964 5.8199288e-39
0.85523409 0.10542294 0.081020959 3.8827388e-39
0.85523409 0.10542294 0.083520964 3.606875e-39
0.85273409 0.10792295 0.076020963 2.8689414e-39
0.85273409 0.10792295 0.078520961 3.8852443e-39
0.85273409 0.11042295 0.076020963 2.7767472e-39
0.85273409 0.11042295 0.078520961 3.8852443e-39
0.85523409 0.10792295 0.078520961 3.8848884e-39
0.85273409 0.10792295 0.081020959 3.7944906e-39
0.85523409 0.10792295 0.081020959 3.6083099e-39
0.85773408 0.10292295 0.076020963 5.1713098e-39
0.85773408 0.10292295 0.078520961 4.897604e-39
0.85773408 0.10542294 0.076020963 4.7106918e-39
0.85773408 0.10292295 0.081020959 5.6355376e-39
0.85773408 0.10792295 0.076020963 3.6090162e-39
0.85023409 0.10042295 0.086020961 6.0947179e-39
0.85023409 0.10042295 0.088520959 7.5669711e-39
0.85023409 0.10042295 0.093520962 1.1617101e-38
0.8452341 0.11042295 0.086020961 3.4246347e-39
0.84773409 0.10542294 0.088520959 3.9774582e-39
0.85023409 0.10292295 0.086020961 3.3306482e-39
0.85023409 0.10292295 0.088520959 4.1546608e-39
0.85023409 0.10542294 0.086020961 3.1484234e-39
0.85023409 0.10542294 0.088520959 2.9629545e-39
0.84773409 0.10542294 0.091020964 3.977105e-39
0.85023409 0.10292295 0.093520962 5.3477992e-39
0.85023409 0.10542294 0.091020964 3.7919879e-39
0.85023409 0.10542294 0.093520962 3.2420651e-39
0.84773409 0.10792295 0.086020961 3.9767365e-39
0.84773409 0.10792295 0.088520959 4.0692881e-39
0.84773409 0.11042295 0.086020961 3.7923438e-39
0.84773409 0.11042295 0.088520959 3.792341e-39
0.85023409 0.10792295 0.086020961 3.7019475e-39
0.85023409 0.10792295 0.088520959 3.8834717e-39
0.85023409 0.11042295 0.086020961 3.332086e-39
0.84773409 0.10792295 0.091020964 3.4268025e-39
0.84773409 0.11042295 0.091020964 2.7814331e-39
0.85023409 0.10792295 0.091020964 3.7012412e-39
0.85023409 0.10792295 0.093520962 3.7008937e-39
0.85023409 0.11042295 0.091020964 3.9781868e-39
0.85023409 0.11042295 0.093520962 4.5306544e-39
0.85023409 0.11042295 0.10352096 3.6129987e-39
0.85273409 0.10042295 0.086020961 1.4837385e-38
0.85523409 0.10042295 0.086020961 1.5758616e-38
0.85523409 0.10042295 0.088520959 1.6954638e-38
0.85273409 0.10042295 0.091020964 9.6806392e-39
0.85523409 0.10042295 0.091020964 1.7231948e-38
0.85523409 0.10042295 0.093520962 1.7785122e-38
0.85773408 0.097922944 0.086020961 2.1474745e-38
0.85273409 0.10042295 0.096020959 1.364433e-38
0.85273409 0.10042295 0.098520964 1.3740118e-38
0.85523409 0.10042295 0.096020959 1.3740118e-38
0.85523409 0.10042295 0.098520964 1.4292942e-38
0.85773408 0.10042295 0.098520964 1.4384418e-38
0.86023408 0.10042295 0.098520964 1.9999229e-38
0.85773408 0.10042295 0.10102096 1.9907753e-38
0.86023408 0.097922944 0.10352096 2.0458785e-38
0.86023408 0.10042295 0.10102096 1.990813e-38
0.86023408 0.10042295 0.10352096 2.0459145e-38
0.85273409 0.10292295 0.086020961 6.002525e-39
0.85273409 0.10542294 0.086020961 3.0555033e-39
0.85523409 0.10292295 0.086020961 8.2116272e-39
0.85523409 0.10292295 0.088520959 9.5887911e-39
0.85523409 0.10542294 0.086020961 3.0562221e-39
0.85273409 0.10292295 0.091020964 5.0708577e-39
0.85273409 0.10542294 0.091020964 2.7781961e-39
0.85523409 0.10292295 0.093520962 6.3576281e-39
0.85523409 0.10542294 0.093520962 2.5977677e-39
0.85273409 0.10792295 0.091020964 3.7919879e-39
0.85273409 0.10292295 0.096020959 6.1764836e-39
0.85273409 0.10292295 0.098520964 6.0878823e-39
0.85273409 0.10542294 0.096020959 3.330651e-39
0.85273409 0.10542294 0.098520964 4.3447988e-39
0.85523409 0.10292295 0.096020959 6.3644678e-39
0.85523409 0.10292295 0.098520964 6.087532e-39
0.85523409 0.10542294 0.096020959 4.2511752e-39
0.85523409 0.10542294 0.098520964 4.2525975e-39
0.85523409 0.10292295 0.10102096 6.0871789e-39
0.85523409 0.10542294 0.10102096 3.7937872e-39
0.85273409 0.10792295 0.096020959 7.4773188e-39
0.85273409 0.10792295 0.098520964 8.3967528e-39
0.85273409 0.11042295 0.096020959 7.3851232e-39
0.85273409 0.11042295 0.098520964 7.7513848e-39
0.85523409 0.10792295 0.098520964 8.3992555e-39
0.85523409 0.11042295 0.098520964 7.2929079e-39
0.85273409 0.10792295 0.10102096 6.3760131e-39
0.85273409 0.11042295 0.10102096 4.2576618e-39
0.85523409 0.10792295 0.10102096 6.4685591e-39
0.85523409 0.10792295 0.10352096 6.4664221e-39
0.85523409 0.11042295 0.10102096 5.0856246e-39
0.85523409 0.11042295 0.10352096 2.8750805e-39
0.85773408 0.10292295 0.098520964 6.5477899e-39
0.85773408 0.10542294 0.098520964 4.5270516e-39
0.86023408 0.10292295 0.098520964 1.5210946e-38
0.85773408 0.10292295 0.10102096 6.8215027e-39
0.85773408 0.10292295 0.10352096 6.0835845e-39
0.85773408 0.10542294 0.10352096 3.2413351e-39
0.86023408 0.10292295 0.10102096 6.3583736e-39
0.86023408 0.10292295 0.10352096 5.8070033e-39
0.85773408 0.10792295 0.10352096 5.3629332e-39
0.85773408 0.11042295 0.10352096 3.2424337e-39
0.8452341 0.11292294 0.081020959 2.8696505e-39
0.8452341 0.11292294 0.083520964 3.4246319e-39
0.8452341 0.11542295 0.081020959 2.8692973e-39
0.8452341 0.11542295 0.083520964 3.3309986e-39
0.8452341 0.11792295 0.081020959 2.7767472e-39
0.8452341 0.11792295 0.083520964 3.2388043e-39
0.8452341 0.12042294 0.081020959 3.2384288e-39
0.8452341 0.12042294 0.083520964 3.2388043e-39
0.84773409 0.11292294 0.078520961 2.2235748e-39
0.84773409 0.11542295 0.078520961 2.6845515e-39
0.85023409 0.11292294 0.076020963 2.4994232e-39
0.85023409 0.11542295 0.076020963 2.8667764e-39
0.84773409 0.11292294 0.081020959 3.4246319e-39
0.84773409 0.11292294 0.083520964 3.6997797e-39
0.84773409 0.11542295 0.081020959 3.3309986e-39
0.84773409 0.11542295 0.083520964 3.148408e-39
0.85023409 0.11292294 0.081020959 3.5171835e-39
0.85023409 0.11542295 0.081020959 3.3317202e-39
0.84773409 0.11792295 0.076020963 2.7745808e-39
0.84773409 0.11792295 0.078520961 2.5923559e-39
0.84773409 0.12042294 0.076020963 2.5898322e-39
0.84773409 0.12042294 0.078520961 2.961493e-39
0.85023409 0.11792295 0.076020963 2.7742276e-39
0.85023409 0.12042294 0.076020963 2.0402653e-39
0.84773409 0.11792295 0.081020959 3.0551263e-39
0.84773409 0.12042294 0.081020959 3.147322e-39
0.8452341 0.13042295 0.073520958 2.2192546e-39
0.85023409 0.12292295 0.073520958 1.6696765e-39
0.85023409 0.12542294 0.071020961 1.2112165e-39
0.85023409 0.12542294 0.073520958 1.8529944e-39
0.84773409 0.12792295 0.073520958 1.6696765e-39
0.84773409 0.13042295 0.073520958 2.0348633e-39
0.85023409 0.12792295 0.071020961 1.6696765e-39
0.85023409 0.12792295 0.073520958 1.1183146e-39
0.85023409 0.13042295 0.071020961 1.3019674e-39
0.8452341 0.12542294 0.078520961 2.686348e-39
0.8427341 0.12292295 0.081020959 3.5139437e-39
0.8427341 0.12542294 0.081020959 2.686348e-39
0.8427341 0.12542294 0.083520964 3.147322e-39
0.8452341 0.12292295 0.081020959 3.5139437e-39
0.8452341 0.12292295 0.083520964 3.3320733e-39
0.8452341 0.12542294 0.083520964 3.3309986e-39
0.8427341 0.13042295 0.078520961 5.665772e-40
0.8452341 0.12792295 0.078520961 2.686348e-39
0.8452341 0.13042295 0.076020963 7.5096145e-40
0.8452341 0.13042295 0.078520961 2.6881487e-39
0.8427341 0.12792295 0.081020959 2.5938021e-39
0.8427341 0.12792295 0.083520964 3.0555061e-39
0.8427341 0.13042295 0.081020959 2.7781933e-39
0.8427341 0.13042295 0.083520964 3.3317328e-39
0.84773409 0.12542294 0.076020963 2.5923503e-39
0.85023409 0.12292295 0.076020963 2.3161236e-39
0.85023409 0.12542294 0.076020963 2.4086751e-39
0.84773409 0.12792295 0.076020963 1.3030632e-39
0.84773409 0.13042295 0.076020963 7.5096145e-40
0.85523409 0.11542295 0.068520963 2.4043535e-39
0.85273409 0.11292294 0.071020961 2.3146718e-39
0.85273409 0.11292294 0.073520958 2.589835e-39
0.85273409 0.11542295 0.071020961 2.4072262e-39
0.85273409 0.11542295 0.073520958 2.682032e-39
0.85523409 0.11292294 0.073520958 2.9575245e-39
0.85523409 0.11792295 0.068520963 1.7622239e-39
0.85523409 0.12042294 0.068520963 1.7622239e-39
0.85273409 0.11792295 0.071020961 2.129933e-39
0.85273409 0.12042294 0.071020961 1.9462648e-39
0.85773408 0.11292294 0.068520963 2.1291959e-39
0.85773408 0.11542295 0.066020966 1.4841951e-39
0.85773408 0.11542295 0.068520963 2.4965491e-39
0.86023408 0.11292294 0.066020966 2.4054255e-39
0.85773408 0.11292294 0.071020961 2.8653275e-39
0.85773408 0.11542295 0.071020961 2.4072262e-39
0.85773408 0.11792295 0.066020966 1.0257351e-39
0.85773408 0.11792295 0.068520963 2.1284897e-39
0.85773408 0.12042294 0.066020966 1.9440942e-39
0.85773408 0.12042294 0.068520963 2.0362927e-39
0.85773408 0.11792295 0.071020961 2.129933e-39
0.85773408 0.12042294 0.071020961 2.129933e-39
0.85273409 0.12542294 0.066020966 1.1164846e-39
0.85273409 0.12542294 0.068520963 1.8519014e-39
0.85523409 0.12292295 0.068520963 1.6700269e-39
0.85523409 0.12542294 0.068520963 1.8519014e-39
0.85273409 0.12292295 0.071020961 1.8540692e-39
0.85273409 0.12542294 0.071020961 1.6696765e-39
0.85273409 0.12792295 0.066020966 1.2086844e-39
0.85273409 0.12792295 0.068520963 1.8519014e-39
0.85273409 0.13042295 0.066020966 1.5763907e-39
0.85273409 0.13042295 0.068520963 1.8519014e-39
0.85523409 0.12792295 0.068520963 1.8519014e-39
0.85523409 0.13042295 0.068520963 1.944097e-39
0.85273409 0.12792295 0.071020961 1.8515511e-39
0.85773408 0.12292295 0.066020966 1.9440942e-39
0.85773408 0.12542294 0.066020966 1.8519014e-39
0.8427341 0.11542295 0.086020961 3.4246347e-39
0.8452341 0.11292294 0.086020961 3.3324391e-39
0.8452341 0.11292294 0.088520959 3.3320832e-39
0.8452341 0.11542295 0.086020961 3.4246375e-39
0.8452341 0.11542295 0.088520959 3.3320832e-39
0.8427341 0.11792295 0.086020961 3.3310014e-39
0.8427341 0.12042294 0.086020961 3.6072281e-39
0.8452341 0.11792295 0.086020961 3.1480548e-39
0.8452341 0.11792295 0.088520959 3.1480548e-39
0.8452341 0.12042294 0.086020961 3.1480548e-39
0.8452341 0.12042294 0.088520959 3.332086e-39
0.8427341 0.11792295 0.091020964 2.9629545e-39
0.8427341 0.11792295 0.093520962 1.1820933e-40
0.8427341 0.12042294 0.091020964 3.4210614e-39
0.8427341 0.12042294 0.093520962 2.7095507e-41
0.8452341 0.11792295 0.093520962 2.3855705e-41
0.8452341 0.12042294 0.093520962 1.0365713e-39
0.84773409 0.11292294 0.086020961 3.332086e-39
0.84773409 0.11542295 0.086020961 3.606875e-39
0.85023409 0.11292294 0.086020961 3.5161143e-39
0.84773409 0.11292294 0.091020964 7.5888019e-40
0.84773409 0.11292294 0.093520962 3.9828672e-39
0.84773409 0.11542295 0.091020964 2.4568966e-41
0.84773409 0.11542295 0.093520962 4.7208008e-39
0.84773409 0.11792295 0.091020964 2.1040496e-40
0.84773409 0.11792295 0.093520962 6.100501e-39
0.84773409 0.12042294 0.091020964 2.6013705e-41
0.84773409 0.12042294 0.093520962 6.3785172e-39
0.85023409 0.11792295 0.093520962 6.2841832e-39
0.85023409 0.12042294 0.093520962 6.1001507e-39
0.8427341 0.11792295 0.096020959 5.918981e-39
0.8427341 0.12042294 0.096020959 5.8282301e-39
0.8452341 0.11792295 0.096020959 7.6667547e-39
0.8452341 0.11792295 0.098520964 5.6409676e-39
0.8452341 0.12042294 0.096020959 7.7585972e-39
0.8452341 0.12042294 0.098520964 5.1799923e-39
0.84773409 0.11292294 0.096020959 5.6402431e-39
0.84773409 0.11292294 0.098520964 6.3723964e-39
0.84773409 0.11542295 0.096020959 6.1012213e-39
0.84773409 0.11542295 0.098520964 6.0958095e-39
0.85023409 0.11292294 0.096020959 4.5353375e-39
0.85023409 0.11292294 0.098520964 1.8463509e-41
0.85023409 0.11542295 0.096020959 6.0068705e-39
0.85023409 0.11542295 0.098520964 1.7629806e-39
0.85023409 0.11292294 0.10352096 6.5986304e-40
0.85023409 0.11542295 0.10352096 2.5909308e-39
0.84773409 0.11792295 0.096020959 6.2845363e-39
0.84773409 0.11792295 0.098520964 4.8994313e-39
0.84773409 0.12042294 0.096020959 5.4547813e-39
0.85023409 0.11792295 0.096020959 6.2834601e-39
0.85023409 0.12042294 0.096020959 5.6406117e-39
0.8427341 0.12292295 0.086020961 3.6072281e-39
0.8427341 0.12292295 0.088520959 3.5143262e-39
0.8427341 0.12542294 0.086020961 3.6072281e-39
0.8427341 0.12542294 0.088520959 3.1480548e-39
0.8452341 0.12292295 0.086020961 3.330651e-39
0.8452341 0.12292295 0.088520959 2.5970461e-39
0.8452341 0.12542294 0.086020961 3.332086e-39
0.8452341 0.12542294 0.088520959 2.2297055e-39
0.8427341 0.12292295 0.091020964 3.4210614e-39
0.8427341 0.12542294 0.091020964 2.5019848e-39
0.8427341 0.12542294 0.093520962 2.7854212e-39
0.8452341 0.12292295 0.093520962 1.3131596e-39
0.8452341 0.12542294 0.093520962 6.4717989e-39
0.8427341 0.12792295 0.086020961 3.6072309e-39
0.8427341 0.12792295 0.088520959 2.8711106e-39
0.8427341 0.13042295 0.086020961 3.0558592e-39
0.8452341 0.12792295 0.086020961 3.3306454e-39
0.8452341 0.12792295 0.088520959 2.5030512e-39
0.8452341 0.13042295 0.086020961 2.9633076e-39
0.8452341 0.13042295 0.088520959 1.2184304e-39
0.8427341 0.12792295 0.091020964 3.7927236e-39
0.8427341 0.12792295 0.093520962 2.6024817e-39
0.8427341 0.13042295 0.091020964 4.5284852e-39
0.8427341 0.13042295 0.093520962 4.4434908e-39
0.8452341 0.12792295 0.093520962 6.4718017e-39
0.8452341 0.13042295 0.093520962 4.075081e-39
0.84773409 0.12292295 0.091020964 6.7031252e-40
0.84773409 0.12292295 0.093520962 6.4717947e-39
0.84773409 0.12542294 0.091020964 2.6914249e-39
0.84773409 0.12542294 0.093520962 6.1955707e-39
0.85023409 0.12292295 0.091020964 6.1040911e-39
0.85023409 0.12292295 0.093520962 7.5745689e-39
0.85023409 0.12542294 0.091020964 6.4710786e-39
0.85023409 0.12542294 0.093520962 7.9419095e-39
0.84773409 0.12792295 0.093520962 6.4718017e-39
0.84773409 0.13042295 0.091020964 3.4307934e-39
0.84773409 0.13042295 0.093520962 5.4619713e-39
0.8452341 0.12292295 0.096020959 7.0228273e-39
0.85023409 0.12292295 0.096020959 4.8083301e-39
0.85273409 0.11292294 0.091020964 3.98287e-39
0.85273409 0.11292294 0.098520964 4.7513967e-40
0.85273409 0.11542295 0.098520964 2.4973157e-39
0.85523409 0.11292294 0.098520964 1.4856566e-41
0.85273409 0.11292294 0.10102096 1.7008961e-41
0.85273409 0.11542295 0.10102096 2.590928e-39
0.85523409 0.11292294 0.10102096 1.6654432e-41
0.85523409 0.11292294 0.10352096 1.5942573e-41
0.85523409 0.11542295 0.10352096 1.9462803e-39
0.85273409 0.11792295 0.096020959 5.4511631e-39
0.85773408 0.11292294 0.10352096 5.6730868e-40
0.85273409 0.12542294 0.091020964 7.851146e-39
0.86273408 0.10292295 0.068520963 1.1419352e-38
0.86273408 0.10542294 0.068520963 1.4839751e-42
0.86523408 0.10292295 0.068520963 1.2063273e-38
0.86523408 0.10542294 0.066020966 1.8479357e-39
0.86273408 0.10292295 0.071020961 1.1606633e-38
0.86273408 0.10542294 0.071020961 5.6308656e-39
0.86523408 0.10292295 0.071020961 1.1516583e-38
0.86273408 0.10792295 0.066020966 7.4194129e-40
0.86273408 0.11042295 0.066020966 2.7702452e-39
0.87023407 0.10542294 0.066020966 3.7825768e-39
0.86273408 0.10042295 0.10102096 2.036695e-38
0.86523408 0.10042295 0.10352096 2.0827924e-38
0.86273408 0.10292295 0.10102096 1.5946718e-38
0.86523408 0.10292295 0.10352096 1.7882089e-38
0.85023409 0.10042295 0.11352096 6.5416718e-39
0.85023409 0.10292295 0.11352096 1.4495031e-41
0.85023409 0.11042295 0.11102096 1.3938366e-39
0.85023409 0.11042295 0.11352096 1.2094439e-39
0.85273409 0.10042295 0.11352096 1.8251945e-38
0.85523409 0.10042295 0.11352096 1.8621439e-38
0.86023408 0.10042295 0.10852096 1.8065404e-38
0.85773408 0.10042295 0.11352096 1.9814942e-38
0.86023408 0.10042295 0.11352096 2.0551697e-38
0.85273409 0.095422946 0.11852096 2.0089993e-38
0.85523409 0.095422946 0.11852096 2.0366231e-38
0.85523409 0.095422946 0.12102097 2.0642816e-38
0.85273409 0.097922944 0.11852096 2.1104505e-38
0.85273409 0.10042295 0.11602096 1.8804034e-38
0.85273409 0.10042295 0.11852096 2.00022e-38
0.85523409 0.097922944 0.11602096 2.1011953e-38
0.85523409 0.097922944 0.11852096 2.1103796e-38
0.85523409 0.10042295 0.11602096 1.8990575e-38
0.85523409 0.10042295 0.11852096 2.0370957e-38
0.85523409 0.097922944 0.12102097 2.1288186e-38
0.85523409 0.10042295 0.12102097 2.1198546e-38
