# .PCD v0.7 - Point Cloud Data file format
VERSION 0.7
FIELDS x y z rgb
SIZE 4 4 4 4
TYPE F F F F
COUNT 1 1 1 1
WIDTH 1021
HEIGHT 1
VIEWPOINT 0 0 0 1 0 0 0
POINTS 1021
DATA ascii
0.9677341 0.19792295 0.10852096 1.7679902e-39
0.9677341 0.20042294 0.10602096 8.7483063e-42
0.9677341 0.20042294 0.10852096 4.7099729e-39
0.9702341 0.19792295 0.10602096 8.4567522e-40
0.9702341 0.19792295 0.10852096 4.8936215e-39
0.9702341 0.20042294 0.10852096 6.5499157e-39
0.9652341 0.19542295 0.11602096 7.3731365e-39
0.9652341 0.19542295 0.11852096 5.0707372e-39
0.9652341 0.19792295 0.11602096 7.2805877e-39
0.9652341 0.20042294 0.11602096 2.7630018e-39
0.9677341 0.19542295 0.11102096 5.9005624e-39
0.9677341 0.19542295 0.11352096 6.3575678e-39
0.9702341 0.19292295 0.11102096 5.9869902e-39
0.9702341 0.19542295 0.11102096 6.5426878e-39
0.9677341 0.19292295 0.11852096 5.4431197e-39
0.9677341 0.19542295 0.11852096 5.3451801e-39
0.9702341 0.19292295 0.11602096 5.5353153e-39
0.9702341 0.19542295 0.11602096 7.3727833e-39
0.9677341 0.19792295 0.11102096 5.7161697e-39
0.9677341 0.19792295 0.11352096 6.3575678e-39
0.9677341 0.20042294 0.11102096 6.5495597e-39
0.9677341 0.20042294 0.11352096 5.8083793e-39
0.9702341 0.19792295 0.11102096 5.6250671e-39
0.9702341 0.20042294 0.11102096 5.2566573e-39
0.9677341 0.19792295 0.11852096 6.6359175e-39
0.9677341 0.20042294 0.11852096 0
0.9702341 0.19792295 0.11602096 7.64505e-39
0.9702341 0.20042294 0.11602096 6.0842081e-39
0.9652341 0.20792295 0.10352096 1.0544771e-41
0.9652341 0.21042295 0.10352096 1.0184637e-41
0.9652341 0.20792295 0.10602096 8.7511089e-42
0.9652341 0.20792295 0.10852096 2.9582868e-39
0.9677341 0.20292294 0.10102096 1.2334229e-41
0.9677341 0.20292294 0.10352096 7.3105741e-42
0.9677341 0.20542295 0.10102096 1.1258032e-41
0.9677341 0.20542295 0.10352096 8.023835e-42
0.9702341 0.20292294 0.10352096 9.1028348e-42
0.9702341 0.20542295 0.10352096 8.023835e-42
0.9677341 0.20292294 0.10602096 7.6665039e-42
0.9677341 0.20292294 0.10852096 5.2627866e-39
0.9677341 0.20542295 0.10602096 5.8672367e-42
0.9677341 0.20542295 0.10852096 4.6202912e-39
0.9702341 0.20292294 0.10852096 7.1030894e-39
0.9702341 0.20542295 0.10852096 8.3923583e-39
0.9677341 0.20792295 0.10102096 1.1258032e-41
0.9677341 0.20792295 0.10352096 1.0540567e-41
0.9677341 0.21042295 0.10102096 1.0544771e-41
0.9677341 0.21042295 0.10352096 1.0900701e-41
0.9702341 0.20792295 0.10352096 8.0350454e-42
0.9702341 0.21042295 0.10352096 1.0540567e-41
0.9677341 0.20792295 0.10602096 9.0972296e-42
0.9677341 0.20792295 0.10852096 3.2348779e-39
0.9677341 0.21042295 0.10602096 1.0176229e-41
0.9677341 0.21042295 0.10852096 7.3105741e-42
0.9702341 0.20792295 0.10852096 3.6983728e-39
0.9702341 0.21042295 0.10852096 7.6679052e-42
0.9652341 0.20292294 0.11602096 1.20003e-39
0.9652341 0.20542295 0.11602096 6.639212e-39
0.9627341 0.21042295 0.11352096 8.3769622e-42
0.9627341 0.21042295 0.11852096 1.3055898e-41
0.9652341 0.20792295 0.11602096 1.022166e-39
0.9652341 0.21042295 0.11602096 8.3741596e-42
0.9652341 0.21042295 0.11852096 1.1982503e-41
0.9677341 0.20292294 0.11102096 7.1027335e-39
0.9677341 0.20292294 0.11352096 2.6740866e-39
0.9677341 0.20542295 0.11102096 7.0115916e-39
0.9677341 0.20542295 0.11352096 7.4689376e-39
0.9702341 0.20292294 0.11102096 3.5967758e-39
0.9677341 0.20292294 0.11852096 5.6051939e-45
0.9677341 0.20542295 0.11852096 7.0976538e-39
0.9702341 0.20292294 0.11602096 1.9365006e-39
0.9702341 0.20542295 0.11602096 7.0994545e-39
0.9677341 0.20792295 0.11102096 4.1564769e-39
0.9677341 0.20792295 0.11352096 6.184415e-39
0.9677341 0.21042295 0.11102096 8.3769622e-42
0.9677341 0.20792295 0.11852096 3.7772336e-39
0.9677341 0.21042295 0.11852096 6.9364274e-42
0.9702341 0.20792295 0.11602096 9.2961439e-40
0.97273409 0.19292295 0.10102096 1.1982503e-41
0.97273409 0.19292295 0.10352096 1.1620968e-41
0.97273409 0.19542295 0.10102096 1.1265038e-41
0.97273409 0.19542295 0.10352096 1.1620968e-41
0.97273409 0.19292295 0.10602096 7.6637013e-42
0.97273409 0.19292295 0.10852096 3.6914756e-39
0.97273409 0.19542295 0.10852096 4.7978231e-39
0.97523409 0.19292295 0.10602096 2.306435e-39
0.97273409 0.19292295 0.11352096 6.2657099e-39
0.97273409 0.19542295 0.11352096 8.1096225e-39
0.97523409 0.19292295 0.11102096 6.3554196e-39
0.97273409 0.19292295 0.11602096 5.6239334e-39
0.97273409 0.19292295 0.11852096 4.5215389e-39
0.97273409 0.19542295 0.11852096 1.4012985e-45
0.97523409 0.19292295 0.11602096 4.6094312e-39
0.97523409 0.19292295 0.11852096 6.9190289e-39
0.97273409 0.19792295 0.11852096 7.0976566e-39
0.97273409 0.20042294 0.11852096 9.862822e-39
0.97273409 0.20792295 0.11852096 7.4700867e-39
0.9652341 0.19542295 0.12102097 1.5414283e-44
0.9652341 0.19542295 0.12352096 1.1210388e-44
0.9677341 0.19292295 0.12102097 2.1223744e-39
0.9677341 0.19542295 0.12102097 1.4012985e-45
0.9702341 0.19542295 0.12352096 1.9618179e-44
0.9677341 0.19792295 0.12102097 7.0976566e-39
0.9677341 0.20042294 0.12102097 3.0403454e-39
0.9702341 0.19792295 0.12352096 2.7705604e-39
0.9702341 0.20042294 0.12352096 5.8911218e-39
0.9702341 0.19542295 0.13102096 3.8780571e-39
0.9702341 0.19792295 0.13102096 2.2232273e-39
0.9702341 0.20042294 0.13102096 2.0384759e-39
0.9652341 0.21042295 0.12102097 1.1253828e-41
0.9652341 0.21042295 0.12352096 9.4573633e-42
0.9677341 0.20292294 0.12102097 4.2038954e-45
0.9677341 0.20292294 0.12352096 2.7713017e-39
0.9677341 0.20542295 0.12102097 5.8090688e-39
0.9677341 0.20542295 0.12352096 7.3774861e-39
0.9702341 0.20292294 0.12352096 8.4077908e-45
0.9702341 0.20542295 0.12352096 2.953542e-39
0.9677341 0.20292294 0.12602097 3.5027375e-39
0.9677341 0.20542295 0.12602097 7.0090553e-39
0.9702341 0.20292294 0.12852097 1.0510009e-38
0.9702341 0.20542295 0.12852097 1.0145912e-38
0.9677341 0.20792295 0.12102097 6.6377378e-39
0.9677341 0.20792295 0.12352096 6.3633356e-39
0.9677341 0.21042295 0.12102097 8.023835e-42
0.9677341 0.21042295 0.12352096 9.8245035e-42
0.9702341 0.20792295 0.12352096 6.545929e-39
0.9702341 0.21042295 0.12352096 1.0902102e-41
0.9677341 0.20792295 0.12602097 6.4562402e-39
0.9677341 0.21042295 0.12602097 1.343565e-41
0.9702341 0.20792295 0.12852097 8.1176085e-39
0.9702341 0.21042295 0.12852097 4.6214025e-39
0.9702341 0.20292294 0.13102096 6.5915398e-40
0.9702341 0.20542295 0.13102096 1.0670047e-40
0.9702341 0.20542295 0.13352096 1.0534962e-41
0.9702341 0.20542295 0.13602096 6.8240194e-39
0.9702341 0.20792295 0.13102096 1.3783172e-41
0.9702341 0.20792295 0.13352096 1.3055898e-41
0.9702341 0.21042295 0.13102096 1.0920319e-41
0.9702341 0.20792295 0.13602096 7.1006077e-39
0.97273409 0.19292295 0.12102097 8.4776819e-39
0.97273409 0.19542295 0.12102097 5.159693e-39
0.97523409 0.19292295 0.12102097 8.4787357e-39
0.97523409 0.19292295 0.12352096 6.364039e-39
0.97523409 0.19542295 0.12352096 2.6787137e-39
0.97273409 0.19292295 0.12852097 8.3923485e-39
0.97273409 0.19542295 0.12602097 6.4569535e-39
0.97273409 0.19542295 0.12852097 8.3948764e-39
0.97523409 0.19292295 0.12602097 8.2997941e-39
0.97523409 0.19542295 0.12602097 8.2072482e-39
0.97273409 0.19792295 0.12102097 5.2519686e-39
0.97273409 0.20042294 0.12102097 9.0257732e-39
0.97523409 0.19792295 0.12352096 2.5879586e-39
0.97523409 0.20042294 0.12352096 4.7973999e-39
0.97273409 0.19792295 0.12602097 7.5651143e-39
0.97273409 0.19792295 0.12852097 8.5796264e-39
0.97273409 0.20042294 0.12602097 8.8529707e-39
0.97273409 0.20042294 0.12852097 8.7629653e-39
0.97523409 0.19792295 0.12602097 9.1299261e-39
0.97523409 0.20042294 0.12602097 8.9462804e-39
0.97773409 0.19292295 0.12102097 5.9977578e-39
0.97773409 0.19292295 0.12352096 6.3636859e-39
0.97773409 0.19292295 0.12852097 8.757213e-39
0.97773409 0.19542295 0.12852097 6.9161744e-39
0.97273409 0.19292295 0.13102096 4.4312308e-39
0.97273409 0.19292295 0.13352096 3.7204474e-42
0.97273409 0.19542295 0.13102096 1.2094439e-39
0.97273409 0.19542295 0.13352096 2.2827152e-42
0.97523409 0.19292295 0.13102096 3.972768e-39
0.97523409 0.19292295 0.13352096 5.8770458e-42
0.97523409 0.19542295 0.13102096 2.0420898e-39
0.97523409 0.19542295 0.13352096 6.5945106e-42
0.97273409 0.19792295 0.13102096 1.4507643e-41
0.97273409 0.19792295 0.13352096 5.5211159e-42
0.97273409 0.20042294 0.13102096 1.3067108e-41
0.97273409 0.20042294 0.13352096 1.5694543e-42
0.97523409 0.19792295 0.13102096 2.907316e-40
0.97523409 0.19792295 0.13352096 7.3259884e-42
0.97523409 0.20042294 0.13102096 1.3780369e-41
0.97523409 0.20042294 0.13352096 7.4883568e-40
0.97273409 0.19792295 0.13602096 9.4587646e-42
0.97273409 0.20042294 0.13602096 5.640913e-40
0.98023409 0.19292295 0.13102096 5.5141095e-42
0.98023409 0.19542295 0.13102096 7.3189819e-42
0.98023409 0.19792295 0.13102096 2.2799126e-42
0.98023409 0.20042294 0.13102096 5.1581796e-42
0.97273409 0.20292294 0.12602097 9.5862197e-39
0.97273409 0.20292294 0.12852097 9.7724439e-39
0.97273409 0.20542295 0.12602097 1.096987e-38
0.97273409 0.21042295 0.12852097 5.3560962e-39
0.97773409 0.20292294 0.12852097 1.3778968e-41
0.97273409 0.20292294 0.13102096 1.3409025e-41
0.97273409 0.20292294 0.13352096 4.4337083e-42
0.97273409 0.20542295 0.13102096 8.0154272e-42
0.97273409 0.20542295 0.13352096 8.3769622e-42
0.97523409 0.20292294 0.13102096 6.2287717e-42
0.97523409 0.20292294 0.13352096 3.2298318e-39
0.97523409 0.20542295 0.13102096 4.7994472e-42
0.97523409 0.20542295 0.13352096 7.0984455e-39
0.97273409 0.20292294 0.13602096 4.8925789e-39
0.97273409 0.20542295 0.13602096 6.731821e-39
0.97523409 0.20542295 0.13602096 1.5299461e-38
0.97273409 0.20792295 0.13102096 8.0154272e-42
0.97273409 0.20792295 0.13352096 1.0537764e-41
0.97273409 0.21042295 0.13102096 5.8644341e-42
0.97273409 0.21042295 0.13352096 1.482854e-41
0.97523409 0.20792295 0.13352096 7.5590649e-39
0.97523409 0.21042295 0.13102096 5.5085043e-42
0.97523409 0.21042295 0.13352096 1.0233753e-38
0.97273409 0.20792295 0.13602096 7.1009637e-39
0.97273409 0.21042295 0.13602096 9.9582449e-39
0.97523409 0.20792295 0.13602096 1.594483e-38
0.98023409 0.20292294 0.13102096 5.5141095e-42
0.98273408 0.17292295 0.10852096 1.1982503e-41
0.98273408 0.17542295 0.10852096 1.1982503e-41
0.98273408 0.17792295 0.10852096 1.2695764e-41
0.98273408 0.17292295 0.11102096 1.2338433e-41
0.98273408 0.17292295 0.11352096 1.2338433e-41
0.98273408 0.17542295 0.11102096 1.1982503e-41
0.98273408 0.17792295 0.11102096 1.1613962e-41
0.98273408 0.17292295 0.12352096 1.1615363e-41
0.98273408 0.17292295 0.12852097 1.4889189e-39
0.98273408 0.17542295 0.12852097 1.7622673e-39
0.98273408 0.17792295 0.12852097 9.3430174e-40
0.98273408 0.18042295 0.12852097 3.8112936e-40
0.98523408 0.17792295 0.12852097 2.2200001e-39
0.98273408 0.17292295 0.13102096 1.3776165e-41
0.98273408 0.17292295 0.13352096 4.0917915e-42
0.98273408 0.17542295 0.13102096 1.4132095e-41
0.98273408 0.17542295 0.13352096 9.1042361e-42
0.98523408 0.17292295 0.13352096 2.4969597e-39
0.98523408 0.17542295 0.13352096 4.8897077e-39
0.98273408 0.17292295 0.13602096 3.0486818e-39
0.98523408 0.17292295 0.13602096 1.1894363e-38
0.98523408 0.17542295 0.13602096 1.281343e-38
0.98273408 0.17792295 0.13102096 1.0893694e-41
0.98273408 0.17792295 0.13352096 1.2692961e-41
0.98273408 0.18042295 0.13102096 1.0173427e-41
0.98273408 0.18042295 0.13352096 1.4853764e-41
0.98773408 0.17292295 0.13352096 1.2171307e-38
0.98773408 0.17542295 0.13352096 3.7851524e-39
0.98773408 0.17792295 0.13352096 5.6272727e-39
0.98273408 0.18292294 0.13352096 2.0174074e-40
0.84773409 0.22042295 0.12852097 1.0911911e-41
0.8452341 0.22042295 0.13102096 1.1265038e-41
0.8427341 0.22542295 0.12852097 5.8166792e-39
0.8452341 0.22542295 0.12852097 6.1883428e-39
0.8427341 0.22792295 0.12852097 6.0014306e-39
0.8427341 0.23042294 0.12602097 2.4917987e-39
0.8427341 0.23042294 0.12852097 2.5868628e-39
0.8452341 0.22792295 0.12852097 5.8177624e-39
0.8452341 0.23042294 0.12852097 5.7243925e-39
0.84773409 0.22292295 0.12852097 1.3077744e-39
0.84773409 0.22542295 0.12852097 4.9001375e-39
0.84773409 0.22792295 0.12852097 5.4507904e-39
0.84773409 0.23042294 0.12602097 6.3679627e-39
0.84773409 0.23042294 0.12852097 6.3679795e-39
0.85023409 0.22792295 0.12852097 5.5397462e-39
0.85023409 0.23042294 0.12852097 5.4504218e-39
0.8427341 0.22292295 0.13102096 5.1749238e-39
0.8427341 0.22542295 0.13102096 5.4486198e-39
0.8452341 0.22292295 0.13102096 3.7015944e-39
0.8452341 0.22542295 0.13102096 4.7154002e-39
0.8427341 0.22792295 0.13102096 6.0010775e-39
0.8452341 0.23042294 0.13102096 3.2315288e-39
0.85273409 0.22542295 0.12852097 2.8675247e-39
0.85273409 0.22792295 0.12852097 6.0954409e-39
0.85273409 0.23042294 0.12852097 5.0820079e-39
0.85773408 0.22792295 0.12852097 5.0823778e-39
0.85773408 0.23042294 0.12852097 5.4500715e-39
0.86023408 0.22792295 0.12852097 5.0820107e-39
0.86023408 0.23042294 0.12852097 6.0932731e-39
0.85273409 0.22292295 0.13102096 1.7644295e-39
0.85273409 0.22542295 0.13102096 2.6856474e-39
0.85523409 0.22792295 0.13102096 5.3600241e-39
0.8427341 0.23292294 0.12602097 4.052642e-39
0.8452341 0.23292294 0.12602097 2.5850509e-39
0.8452341 0.23292294 0.12852097 4.6079836e-39
0.84773409 0.23292294 0.12602097 2.1269637e-39
0.84773409 0.23292294 0.12852097 2.8645539e-39
0.85023409 0.23292294 0.12602097 2.5879586e-39
0.85023409 0.23542295 0.12602097 4.7916714e-39
0.85023409 0.23542295 0.12852097 5.434873e-39
0.85023409 0.23292294 0.13102096 2.7730618e-39
0.85023409 0.23292294 0.13352096 2.5879586e-39
0.85023409 0.23542295 0.13102096 4.9778255e-39
0.85023409 0.23542295 0.13352096 5.2537034e-39
0.85523409 0.23292294 0.12602097 5.9995557e-39
0.85523409 0.23542295 0.12602097 2.680513e-39
0.86023408 0.23292294 0.12352096 6.2757824e-39
0.86023408 0.23542295 0.12352096 2.680513e-39
0.85773408 0.23292294 0.12602097 6.0917513e-39
0.85773408 0.23292294 0.12852097 5.8144554e-39
0.85773408 0.23542295 0.12602097 3.1411324e-39
0.85773408 0.23542295 0.12852097 2.6798039e-39
0.86023408 0.23292294 0.12602097 6.0921044e-39
0.86023408 0.23292294 0.12852097 5.9081728e-39
0.86023408 0.23542295 0.12602097 2.7730618e-39
0.86023408 0.23542295 0.12852097 2.955302e-39
0.86023408 0.23792295 0.12352096 5.161156e-39
0.85773408 0.23792295 0.12602097 5.1608029e-39
0.86023408 0.23792295 0.12602097 4.9767718e-39
0.86023408 0.23792295 0.12852097 4.7923749e-39
0.86023408 0.24042295 0.12602097 5.2529999e-39
0.86023408 0.24042295 0.12852097 5.345899e-39
0.86273408 0.22792295 0.12852097 4.8972635e-39
0.86273408 0.23042294 0.12852097 5.7266612e-39
0.86523408 0.23042294 0.12852097 4.4395251e-39
0.86773407 0.23042294 0.12852097 6.2769385e-39
0.86273408 0.22792295 0.13102096 4.0721747e-39
0.86273408 0.23042294 0.13102096 5.0827323e-39
0.87273407 0.23042294 0.12852097 5.4500715e-39
0.88023412 0.23042294 0.12352096 1.2720987e-41
0.88023412 0.23042294 0.12602097 1.1625172e-41
0.86273408 0.23292294 0.12602097 5.9995557e-39
0.86273408 0.23292294 0.12852097 5.7226101e-39
0.86273408 0.23542295 0.12602097 2.680513e-39
0.86273408 0.23542295 0.12852097 2.7727086e-39
0.86523408 0.23292294 0.12852097 4.3469638e-39
0.86523408 0.23542295 0.12602097 5.8148057e-39
0.86523408 0.23542295 0.12852097 4.8010125e-39
0.86273408 0.23792295 0.12602097 5.161156e-39
0.86273408 0.23792295 0.12852097 5.161156e-39
0.86273408 0.24042295 0.12602097 5.253353e-39
0.86523408 0.23792295 0.12852097 4.6097815e-39
0.86773407 0.23542295 0.12352096 5.9995557e-39
0.86773407 0.23292294 0.12852097 6.1847429e-39
0.86773407 0.23542295 0.12602097 5.7226101e-39
0.87023407 0.23292294 0.12852097 5.725564e-39
0.87023407 0.23542295 0.12602097 4.8010125e-39
0.87023407 0.23542295 0.12852097 4.5240669e-39
0.86773407 0.23792295 0.12352096 2.8649043e-39
0.86773407 0.24042295 0.12352096 5.1611532e-39
0.86773407 0.23792295 0.12602097 2.7727086e-39
0.86773407 0.24042295 0.12602097 4.7927308e-39
0.87023407 0.23792295 0.12602097 2.680513e-39
0.87023407 0.23792295 0.12852097 3.2336812e-39
0.87023407 0.24042295 0.12602097 5.253353e-39
0.87023407 0.24042295 0.12852097 4.978564e-39
0.86273408 0.23292294 0.13102096 4.52956e-39
0.86273408 0.23542295 0.13102096 2.5879586e-39
0.86273408 0.23792295 0.13102096 4.9771249e-39
0.86273408 0.24042295 0.13102096 5.1615063e-39
0.86273408 0.24292295 0.12352096 5.2529999e-39
0.86273408 0.24542294 0.12352096 5.253353e-39
0.86523408 0.24292295 0.12602097 5.161156e-39
0.86523408 0.24292295 0.12852097 5.2537034e-39
0.86523408 0.24542294 0.12602097 5.2529999e-39
0.86273408 0.24792294 0.12352096 5.253353e-39
0.86523408 0.24792294 0.12602097 5.2529999e-39
0.86773407 0.24542294 0.12602097 5.2529999e-39
0.87023407 0.24292295 0.12852097 5.253353e-39
0.87023407 0.24542294 0.12602097 5.7114543e-39
0.87023407 0.24542294 0.12852097 5.253353e-39
0.86773407 0.24792294 0.12602097 5.2529999e-39
0.86773407 0.25042295 0.12602097 5.2533502e-39
0.87023407 0.24792294 0.12602097 5.5274218e-39
0.87023407 0.25042295 0.12602097 5.5274218e-39
0.87023407 0.24292295 0.13102096 6.268214e-39
0.87023407 0.24542294 0.13102096 6.5444408e-39
0.87273407 0.23292294 0.12852097 6.3680677e-39
0.87273407 0.23542295 0.12852097 4.7088169e-39
0.87523413 0.23292294 0.12602097 4.8986956e-39
0.87523413 0.23292294 0.12852097 5.2671222e-39
0.87523413 0.23542295 0.12852097 6.0007244e-39
0.87273407 0.23792295 0.12602097 2.680513e-39
0.87273407 0.23792295 0.12852097 3.0489354e-39
0.87273407 0.24042295 0.12602097 5.253353e-39
0.87273407 0.24042295 0.12852097 5.5299399e-39
0.87523413 0.23792295 0.12602097 4.8010125e-39
0.87523413 0.23792295 0.12852097 6.1824994e-39
0.88023412 0.23292294 0.12352096 2.7792681e-39
0.87773412 0.23292294 0.12602097 5.3575186e-39
0.87773412 0.23542295 0.12602097 5.2656789e-39
0.88023412 0.23292294 0.12602097 3.0544257e-39
0.88023412 0.23792295 0.12352096 4.6159122e-39
0.88023412 0.24042295 0.12352096 3.3237244e-39
0.87773412 0.23792295 0.12602097 6.4583758e-39
0.87773412 0.23792295 0.12852097 6.5520204e-39
0.87773412 0.24042295 0.12602097 4.0634475e-39
0.87773412 0.24042295 0.12852097 3.7861515e-39
0.88023412 0.23792295 0.12602097 6.6406035e-39
0.88023412 0.24042295 0.12602097 4.7044953e-39
0.87273407 0.24042295 0.13102096 6.3589649e-39
0.87523413 0.24042295 0.13102096 5.249386e-39
0.87273407 0.24542294 0.12852097 5.7114543e-39
0.87523413 0.24792294 0.12602097 5.5274218e-39
0.87773412 0.24292295 0.12102097 5.3455459e-39
0.87773412 0.24542294 0.12102097 5.4373912e-39
0.88023412 0.24292295 0.12102097 4.7956021e-39
0.88023412 0.24292295 0.12352096 5.6224943e-39
0.88023412 0.24542294 0.12102097 5.2551509e-39
0.88023412 0.24542294 0.12352096 5.6228446e-39
0.88023412 0.24292295 0.12602097 6.7270342e-39
0.87773412 0.24792294 0.12102097 5.3451955e-39
0.88023412 0.24792294 0.12102097 5.1629553e-39
0.88023412 0.24792294 0.12352096 5.6228446e-39
0.88023412 0.25042295 0.12102097 5.3451955e-39
0.88023412 0.25042295 0.12602097 6.8177851e-39
0.87273407 0.24292295 0.13102096 6.544075e-39
0.87273407 0.24542294 0.13102096 6.7284677e-39
0.87523413 0.24292295 0.13102096 5.0653548e-39
0.87523413 0.24542294 0.13102096 4.9731592e-39
0.88023412 0.25292295 0.12102097 5.3455487e-39
0.87773412 0.25292295 0.12602097 5.5274218e-39
0.88273412 0.23042294 0.12352096 1.3783172e-41
0.88273412 0.23042294 0.12602097 1.2699968e-41
0.88523412 0.23042294 0.12602097 9.8301087e-42
0.88523412 0.23042294 0.12852097 1.1615363e-41
0.88523412 0.23042294 0.13102096 1.0896497e-41
0.88273412 0.25042295 0.11852096 5.3451955e-39
0.89273411 0.24792294 0.11852096 5.3455459e-39
0.89273411 0.25042295 0.11602096 5.253353e-39
0.89273411 0.25042295 0.11852096 5.804359e-39
0.88273412 0.23292294 0.12352096 3.2388211e-39
0.88273412 0.23292294 0.12602097 3.0537068e-39
0.88273412 0.23542295 0.12602097 5.5429888e-39
0.88523412 0.23292294 0.12602097 1.8551664e-39
0.88523412 0.23292294 0.12852097 1.3941925e-39
0.88523412 0.23542295 0.12602097 5.4507876e-39
0.88273412 0.23792295 0.12352096 5.7248605e-39
0.88273412 0.24042295 0.12352096 4.0616496e-39
0.88523412 0.23792295 0.12352096 6.2776644e-39
0.88523412 0.24042295 0.12352096 7.1040984e-39
0.88273412 0.23792295 0.12602097 6.2773113e-39
0.88273412 0.23792295 0.12852097 6.8275185e-39
0.88273412 0.24042295 0.12602097 6.6449251e-39
0.88273412 0.24042295 0.12852097 3.8768982e-39
0.88523412 0.23792295 0.12602097 6.0028908e-39
0.88523412 0.24042295 0.12602097 7.1037452e-39
0.88523412 0.24042295 0.12852097 7.2899442e-39
0.88773412 0.23292294 0.12602097 1.054337e-41
0.88773412 0.23292294 0.12852097 7.6623e-42
0.88773412 0.23542295 0.12602097 5.5429888e-39
0.88773412 0.23542295 0.12852097 6.2776798e-39
0.89023411 0.23292294 0.12602097 1.054337e-41
0.89023411 0.23542295 0.12602097 2.2235902e-39
0.88773412 0.24042295 0.12352096 6.9193638e-39
0.89023411 0.24042295 0.12352096 6.5549743e-39
0.88773412 0.23792295 0.12602097 5.8174093e-39
0.88773412 0.24042295 0.12602097 7.1037452e-39
0.88773412 0.24042295 0.12852097 7.1981087e-39
0.89023411 0.23792295 0.12602097 5.6330166e-39
0.89023411 0.24042295 0.12602097 6.5549743e-39
0.88523412 0.23292294 0.13102096 1.5757027e-39
0.88273412 0.24042295 0.13602096 4.7077575e-39
0.88273412 0.24042295 0.13852096 5.8068757e-39
0.88523412 0.24042295 0.13602096 5.4438932e-39
0.89023411 0.23292294 0.13102096 9.817497e-42
0.89023411 0.23542295 0.13102096 5.7252319e-39
0.88773412 0.24042295 0.13102096 1.9462228e-39
0.88273412 0.24292295 0.12352096 6.083464e-39
0.88273412 0.24542294 0.12352096 6.1763687e-39
0.88523412 0.24292295 0.12352096 4.6148164e-39
0.88523412 0.24542294 0.12352096 6.8195829e-39
0.88273412 0.24292295 0.12602097 6.8195829e-39
0.88273412 0.24292295 0.12852097 5.249386e-39
0.88273412 0.24542294 0.12602097 6.9124988e-39
0.88523412 0.24292295 0.12602097 5.7107242e-39
0.88523412 0.24292295 0.12852097 4.3306989e-39
0.88523412 0.24542294 0.12602097 5.4352262e-39
0.88523412 0.24542294 0.12852097 4.3306989e-39
0.88273412 0.24792294 0.12352096 6.4536787e-39
0.88273412 0.25042295 0.12352096 5.6224943e-39
0.88523412 0.25042295 0.12352096 6.7277642e-39
0.88273412 0.24792294 0.12602097 6.8199333e-39
0.88273412 0.25042295 0.12602097 7.0957845e-39
0.88773412 0.24292295 0.12352096 4.3389399e-39
0.88773412 0.24542294 0.12352096 6.8192144e-39
0.89023411 0.24292295 0.12352096 4.2460408e-39
0.89023411 0.24542294 0.12352096 5.4352262e-39
0.88773412 0.24292295 0.12602097 4.0616496e-39
0.88773412 0.24292295 0.12852097 3.5938317e-39
0.88773412 0.24542294 0.12602097 5.4355765e-39
0.88773412 0.24542294 0.12852097 3.4094404e-39
0.89023411 0.24292295 0.12602097 2.7723583e-39
0.89023411 0.24542294 0.12602097 5.3426774e-39
0.88773412 0.24792294 0.12602097 5.7107242e-39
0.88773412 0.25042295 0.12602097 4.9735095e-39
0.89023411 0.24792294 0.12602097 5.0664436e-39
0.89023411 0.25042295 0.12602097 4.6054655e-39
0.88523412 0.24292295 0.13102096 3.0417523e-39
0.88523412 0.24292295 0.13352096 3.4097908e-39
0.88523412 0.24542294 0.13102096 3.133948e-39
0.88523412 0.24542294 0.13352096 3.8700641e-39
0.88273412 0.24292295 0.13602096 4.7902071e-39
0.88273412 0.24292295 0.13852096 4.3321058e-39
0.88273412 0.24542294 0.13602096 5.1582861e-39
0.88273412 0.24542294 0.13852096 5.3451955e-39
0.88523412 0.24792294 0.13102096 3.6863861e-39
0.88523412 0.24792294 0.13352096 3.8700641e-39
0.88523412 0.25042295 0.13102096 3.4090873e-39
0.88523412 0.25042295 0.13352096 3.6863861e-39
0.88273412 0.24792294 0.13602096 5.0660905e-39
0.88273412 0.24792294 0.13852096 5.2540523e-39
0.88773412 0.24292295 0.13102096 3.5931339e-39
0.88773412 0.24292295 0.13352096 4.697308e-39
0.88773412 0.24542294 0.13102096 3.869362e-39
0.88773412 0.24542294 0.13352096 4.6051124e-39
0.89023411 0.24292295 0.13102096 3.5945408e-39
0.89023411 0.24542294 0.13102096 3.4097908e-39
0.88773412 0.25042295 0.13602096 5.1618567e-39
0.89273411 0.23292294 0.12852097 9.1028348e-42
0.89273411 0.23542295 0.12852097 5.7273801e-39
0.89523411 0.23542295 0.12852097 1.0218128e-39
0.89273411 0.23792295 0.12352096 5.817059e-39
0.89273411 0.24042295 0.12352096 6.554624e-39
0.89273411 0.23792295 0.12852097 6.001446e-39
0.89273411 0.24042295 0.12852097 6.7404026e-39
0.89523411 0.23792295 0.12602097 5.8170618e-39
0.89523411 0.23792295 0.12852097 5.7248605e-39
0.89523411 0.24042295 0.12602097 6.3698768e-39
0.89523411 0.24042295 0.12852097 6.8312067e-39
0.89773411 0.24042295 0.12602097 6.6453777e-39
0.89773411 0.24042295 0.12852097 5.2664033e-39
0.9002341 0.24042295 0.12852097 5.4496988e-39
0.89273411 0.23292294 0.13352096 1.0177631e-41
0.89273411 0.23542295 0.13102096 7.4487001e-40
0.89273411 0.23542295 0.13352096 4.8972663e-39
0.89523411 0.23542295 0.13102096 1.0180433e-41
0.89773411 0.23542295 0.13102096 4.7007818e-40
0.9002341 0.23542295 0.13102096 9.8231022e-42
0.89773411 0.23792295 0.13102096 5.0798597e-39
0.9002341 0.23792295 0.13102096 4.2526227e-39
0.89273411 0.24292295 0.12102097 4.0609405e-39
0.89273411 0.24292295 0.12352096 6.9211518e-39
0.89273411 0.24542294 0.12102097 6.2664106e-39
0.89273411 0.24542294 0.12352096 4.146302e-39
0.89523411 0.24542294 0.12352096 3.6860329e-39
0.89273411 0.24542294 0.12852097 4.0522917e-39
0.89523411 0.24292295 0.12602097 7.3803419e-39
0.89523411 0.24292295 0.12852097 7.7488036e-39
0.89523411 0.24542294 0.12602097 3.593487e-39
0.89523411 0.24542294 0.12852097 3.5931339e-39
0.89273411 0.24792294 0.12352096 4.2384977e-39
0.89523411 0.24792294 0.12102097 5.9883999e-39
0.89523411 0.24792294 0.12352096 3.9615576e-39
0.89523411 0.24792294 0.12602097 3.3172448e-39
0.89523411 0.24792294 0.12852097 3.4097908e-39
0.89773411 0.24292295 0.12602097 8.0260995e-39
0.89773411 0.24292295 0.12852097 7.0129986e-39
0.89773411 0.24542294 0.12602097 2.7709486e-39
0.89773411 0.24542294 0.12852097 4.8006622e-39
0.9002341 0.24292295 0.12602097 5.8177806e-39
0.9002341 0.24292295 0.12852097 7.1992101e-39
0.9002341 0.24542294 0.12602097 4.6155647e-39
0.9002341 0.24542294 0.12852097 4.7099281e-39
0.89773411 0.24792294 0.12102097 5.4337786e-39
0.89773411 0.24792294 0.12602097 3.4097908e-39
0.89773411 0.24792294 0.12852097 4.7902071e-39
0.89773411 0.25042295 0.12602097 3.6860329e-39
0.9002341 0.24792294 0.12602097 4.6079836e-39
0.89273411 0.24542294 0.13102096 4.7001765e-39
0.9052341 0.25042295 0.11602096 6.4511605e-39
0.9052341 0.23792295 0.12852097 1.0186039e-41
0.9052341 0.24042295 0.12852097 5.2674781e-39
0.9077341 0.23792295 0.12852097 1.0904905e-41
0.9077341 0.24042295 0.12852097 3.9767519e-39
0.9027341 0.23792295 0.13102096 1.0903503e-41
0.9027341 0.24042295 0.13102096 5.2678256e-39
0.9052341 0.23792295 0.13102096 9.4587646e-42
0.9052341 0.24042295 0.13102096 4.5274048e-39
0.9077341 0.23792295 0.13102096 8.3867713e-42
0.9077341 0.24042295 0.13102096 3.6072561e-39
0.91023409 0.23792295 0.13102096 9.1042361e-42
0.91023409 0.24042295 0.13102096 2.8718533e-39
0.9027341 0.24292295 0.12852097 7.4718313e-39
0.9027341 0.24542294 0.12602097 6.3712445e-39
0.9027341 0.24542294 0.12852097 5.8123086e-39
0.9052341 0.24292295 0.12602097 6.0950682e-39
0.9052341 0.24292295 0.12852097 4.9930366e-39
0.9052341 0.24542294 0.12602097 7.5647458e-39
0.9052341 0.24542294 0.12852097 6.7382348e-39
0.9027341 0.24792294 0.12602097 4.6983618e-39
0.9027341 0.24792294 0.12852097 4.9774752e-39
0.9027341 0.25042295 0.12602097 4.1455467e-39
0.9052341 0.24792294 0.12602097 5.253353e-39
0.9052341 0.24792294 0.12852097 5.4362855e-39
0.9052341 0.25042295 0.12602097 5.1589896e-39
0.9052341 0.25042295 0.12852097 4.4217735e-39
0.91023409 0.24542294 0.12352096 7.0151888e-39
0.9077341 0.24292295 0.12602097 5.9106797e-39
0.9077341 0.24292295 0.12852097 5.1749238e-39
0.9077341 0.24542294 0.12602097 7.1959703e-39
0.9077341 0.24542294 0.12852097 7.8395432e-39
0.91023409 0.24542294 0.12602097 7.1066613e-39
0.91023409 0.24792294 0.12352096 4.7102812e-39
0.91023409 0.25042295 0.12352096 6.083464e-39
0.9077341 0.24792294 0.12602097 5.345899e-39
0.9077341 0.24792294 0.12852097 6.3640544e-39
0.9077341 0.25042295 0.12602097 4.2399102e-39
0.91023409 0.24792294 0.12602097 4.8943222e-39
0.91023409 0.25042295 0.12602097 5.345899e-39
0.9027341 0.24292295 0.13102096 6.4634527e-39
0.9027341 0.24542294 0.13102096 4.3433134e-39
0.9027341 0.24792294 0.13102096 5.345899e-39
0.91023409 0.24292295 0.13102096 5.5436895e-39
0.91273409 0.24042295 0.12852097 2.9640517e-39
0.91273409 0.24292295 0.12852097 5.5433363e-39
0.91273409 0.24542294 0.12852097 5.9106741e-39
0.91523409 0.24292295 0.12852097 5.1752601e-39
0.91523409 0.24542294 0.12852097 5.820282e-39
0.91273409 0.24792294 0.12352096 4.3415155e-39
0.91273409 0.25042295 0.12352096 4.8852796e-39
0.91523409 0.25042295 0.12352096 4.9774752e-39
0.91273409 0.24792294 0.12602097 4.8939662e-39
0.91273409 0.24792294 0.12852097 6.3637041e-39
0.91273409 0.25042295 0.12602097 5.7125123e-39
0.91273409 0.25042295 0.12852097 5.2511852e-39
0.91523409 0.24792294 0.12602097 5.2620299e-39
0.91523409 0.24792294 0.12852097 7.2867366e-39
0.91523409 0.25042295 0.12602097 4.8827614e-39
0.91523409 0.25042295 0.12852097 6.8141403e-39
0.92023408 0.24542294 0.12852097 4.9905185e-39
0.92023408 0.25042295 0.12352096 5.7222878e-39
0.91773409 0.24792294 0.12602097 6.6435336e-39
0.91773409 0.24792294 0.12852097 7.5611935e-39
0.91773409 0.25042295 0.12602097 5.1589896e-39
0.92023408 0.25042295 0.12602097 5.9978083e-39
0.91273409 0.24292295 0.13102096 5.4507876e-39
0.91273409 0.24542294 0.13102096 5.450405e-39
0.91773409 0.24292295 0.13102096 5.0820079e-39
0.91773409 0.24542294 0.13102096 5.542986e-39
0.92023408 0.24542294 0.13102096 4.4377076e-39
0.88523412 0.25292295 0.11602096 5.2537034e-39
0.88523412 0.25292295 0.11852096 5.2537034e-39
0.88523412 0.25542295 0.11602096 5.161156e-39
0.88523412 0.25542295 0.11852096 5.1615063e-39
0.88773412 0.25292295 0.11602096 5.2537034e-39
0.88773412 0.25292295 0.11852096 5.2537034e-39
0.89023411 0.25292295 0.11852096 5.804359e-39
0.89273411 0.25292295 0.11602096 4.9771249e-39
0.89273411 0.25292295 0.11852096 5.7121634e-39
0.89273411 0.25542295 0.11852096 6.5415583e-39
0.89523411 0.25292295 0.11852096 6.6341043e-39
0.89523411 0.25542295 0.11852096 6.6341043e-39
0.88273412 0.25292295 0.12352096 5.9883999e-39
0.88523412 0.25292295 0.12352096 7.0961796e-39
0.88523412 0.25542295 0.12352096 7.1879801e-39
0.88773412 0.25292295 0.12102097 5.7121634e-39
0.88773412 0.25542295 0.12102097 5.5277721e-39
0.88773412 0.25292295 0.12602097 4.6965625e-39
0.89273411 0.25292295 0.12352096 3.8714738e-39
0.89773411 0.25292295 0.12602097 3.8700641e-39
0.9027341 0.25542295 0.11602096 6.8181354e-39
0.9027341 0.25542295 0.11852096 4.9731592e-39
0.9052341 0.25292295 0.11602096 7.095081e-39
0.9027341 0.25792295 0.11852096 4.2352354e-39
0.92023408 0.25542295 0.11852096 4.7005296e-39
0.9027341 0.25292295 0.12102097 4.5129167e-39
0.9027341 0.25542295 0.12102097 4.0519386e-39
0.9052341 0.25292295 0.12102097 3.3168917e-39
0.9052341 0.25292295 0.12352096 3.5016417e-39
0.9052341 0.25542295 0.12102097 3.4094404e-39
0.9052341 0.25542295 0.12352096 3.4097908e-39
0.9027341 0.25792295 0.12102097 3.959743e-39
0.9052341 0.25792295 0.12102097 3.3172448e-39
0.9052341 0.25792295 0.12352096 3.3175951e-39
0.9077341 0.25542295 0.12102097 3.5938373e-39
0.9077341 0.25542295 0.12352096 4.6076305e-39
0.9077341 0.25292295 0.12602097 4.4250371e-39
0.91273409 0.25292295 0.12352096 4.7005296e-39
0.91523409 0.25292295 0.12102097 4.608334e-39
0.91523409 0.25292295 0.12352096 4.6983618e-39
0.91273409 0.25292295 0.12602097 4.1473558e-39
0.91523409 0.25292295 0.12602097 4.052642e-39
0.91523409 0.25292295 0.12852097 5.2464615e-39
0.91773409 0.25542295 0.12102097 4.2392067e-39
0.92023408 0.25292295 0.12352096 5.4377443e-39
0.92023408 0.25542295 0.12352096 4.237392e-39
0.92023408 0.25292295 0.12602097 6.080185e-39
0.92023408 0.25542295 0.12602097 4.5128593e-39
0.96023411 0.22792295 0.071020961 9.817497e-42
0.96023411 0.22792295 0.073520958 9.817497e-42
0.96023411 0.23042294 0.071020961 9.817497e-42
0.96023411 0.23042294 0.073520958 9.817497e-42
0.96023411 0.22792295 0.076020963 9.817497e-42
0.96023411 0.23042294 0.076020963 9.4615672e-42
0.96023411 0.22792295 0.083520964 9.817497e-42
0.96023411 0.23042294 0.083520964 9.817497e-42
0.96023411 0.22792295 0.091020964 9.4615672e-42
0.96023411 0.23042294 0.091020964 9.817497e-42
0.95023412 0.25042295 0.078520961 9.4615672e-42
0.96023411 0.23292294 0.068520963 9.1042361e-42
0.96023411 0.23542295 0.068520963 8.7483063e-42
0.96023411 0.23792295 0.068520963 8.7483063e-42
0.96023411 0.24042295 0.068520963 1.0184637e-41
0.96023411 0.23292294 0.071020961 1.0536363e-41
0.96023411 0.23292294 0.073520958 9.817497e-42
0.96023411 0.23542295 0.071020961 1.0540567e-41
0.96023411 0.23542295 0.073520958 9.817497e-42
0.95773411 0.23292294 0.078520961 9.0972296e-42
0.95773411 0.23542295 0.078520961 9.817497e-42
0.96023411 0.23292294 0.076020963 9.817497e-42
0.96023411 0.23542295 0.076020963 9.4573633e-42
0.96023411 0.23792295 0.071020961 1.0184637e-41
0.96023411 0.23792295 0.073520958 1.0540567e-41
0.96023411 0.24042295 0.071020961 1.0184637e-41
0.96023411 0.24042295 0.073520958 1.1253828e-41
0.95773411 0.23792295 0.078520961 1.0536363e-41
0.96023411 0.23792295 0.076020963 8.7441024e-42
0.96023411 0.24042295 0.076020963 8.7441024e-42
0.96023411 0.24292295 0.068520963 1.0544771e-41
0.96023411 0.24542294 0.068520963 1.0900701e-41
0.96023411 0.24792294 0.068520963 1.0897898e-41
0.95523411 0.25042295 0.078520961 1.0909109e-41
0.96023411 0.24292295 0.071020961 1.0544771e-41
0.96023411 0.24542294 0.071020961 1.0897898e-41
0.96023411 0.24542294 0.073520958 1.0540567e-41
0.96023411 0.24292295 0.076020963 1.0536363e-41
0.96023411 0.24542294 0.076020963 1.0184637e-41
0.96023411 0.24792294 0.071020961 1.0897898e-41
0.96023411 0.24792294 0.073520958 1.1253828e-41
0.96023411 0.25042295 0.073520958 1.0550376e-41
0.95773411 0.24792294 0.078520961 1.0537764e-41
0.95773411 0.25042295 0.078520961 9.4671724e-42
0.96023411 0.24792294 0.076020963 1.0184637e-41
0.96023411 0.25042295 0.076020963 9.1042361e-42
0.94273412 0.25042295 0.083520964 1.1636382e-41
0.94523412 0.25042295 0.081020959 1.0924523e-41
0.94523412 0.25042295 0.083520964 1.0555981e-41
0.94273412 0.25042295 0.086020961 1.0899299e-41
0.94523412 0.25042295 0.088520959 1.0920319e-41
0.94773412 0.25042295 0.081020959 9.817497e-42
0.95023412 0.25042295 0.081020959 9.817497e-42
0.95023412 0.25042295 0.083520964 5.6262414e-40
0.94773412 0.24792294 0.088520959 9.4671724e-42
0.94773412 0.25042295 0.086020961 1.1258032e-41
0.94773412 0.25042295 0.088520959 1.1982503e-41
0.95023412 0.25042295 0.086020961 1.0194446e-41
0.94773412 0.25042295 0.091020964 1.1273446e-41
0.95023412 0.24792294 0.091020964 1.0911911e-41
0.95023412 0.25042295 0.091020964 1.1276249e-41
0.95773411 0.23292294 0.083520964 9.817497e-42
0.95773411 0.23542295 0.083520964 9.817497e-42
0.96023411 0.23292294 0.081020959 8.7441024e-42
0.96023411 0.23292294 0.083520964 9.817497e-42
0.96023411 0.23542295 0.081020959 9.817497e-42
0.96023411 0.23542295 0.083520964 9.4531594e-42
0.95773411 0.23292294 0.086020961 9.4573633e-42
0.95773411 0.23542295 0.086020961 9.817497e-42
0.96023411 0.23292294 0.086020961 9.817497e-42
0.96023411 0.23292294 0.088520959 9.817497e-42
0.96023411 0.23542295 0.086020961 9.4643698e-42
0.96023411 0.23542295 0.088520959 9.1014335e-42
0.96023411 0.23792295 0.081020959 9.817497e-42
0.96023411 0.23792295 0.083520964 9.817497e-42
0.96023411 0.24042295 0.081020959 1.0536363e-41
0.96023411 0.24042295 0.083520964 8.0210324e-42
0.95773411 0.23792295 0.086020961 9.817497e-42
0.95773411 0.24042295 0.086020961 8.0210324e-42
0.96023411 0.23792295 0.086020961 9.4573633e-42
0.96023411 0.23792295 0.088520959 9.817497e-42
0.96023411 0.24042295 0.086020961 9.817497e-42
0.96023411 0.24042295 0.088520959 9.817497e-42
0.96023411 0.23292294 0.091020964 9.817497e-42
0.96023411 0.23542295 0.091020964 9.4615672e-42
0.96023411 0.23542295 0.093520962 9.1042361e-42
0.95773411 0.24042295 0.091020964 9.817497e-42
0.96023411 0.23792295 0.091020964 9.817497e-42
0.96023411 0.23792295 0.093520962 9.817497e-42
0.96023411 0.24042295 0.091020964 9.817497e-42
0.96023411 0.24042295 0.093520962 9.817497e-42
0.96023411 0.23792295 0.098520964 8.7441024e-42
0.96023411 0.24042295 0.098520964 9.0972296e-42
0.95523411 0.24542294 0.086020961 1.0540567e-41
0.95273411 0.25042295 0.081020959 9.4671724e-42
0.95273411 0.25042295 0.083520964 8.7441024e-42
0.95523411 0.25042295 0.081020959 1.1265038e-41
0.95273411 0.25042295 0.086020961 1.0897898e-41
0.95273411 0.25042295 0.088520959 1.1993714e-41
0.95523411 0.24792294 0.086020961 1.018744e-41
0.95523411 0.25042295 0.086020961 1.0180433e-41
0.95523411 0.25042295 0.088520959 1.2355249e-41
0.95773411 0.24292295 0.083520964 1.0540567e-41
0.95773411 0.24542294 0.083520964 9.4615672e-42
0.96023411 0.24292295 0.081020959 9.817497e-42
0.96023411 0.24292295 0.083520964 9.4615672e-42
0.96023411 0.24542294 0.081020959 1.0540567e-41
0.96023411 0.24542294 0.083520964 9.4615672e-42
0.95773411 0.24292295 0.086020961 8.0210324e-42
0.95773411 0.24542294 0.086020961 9.1042361e-42
0.95773411 0.24542294 0.088520959 1.0540567e-41
0.96023411 0.24292295 0.086020961 1.0170624e-41
0.96023411 0.24292295 0.088520959 1.0526554e-41
0.96023411 0.24542294 0.086020961 9.4615672e-42
0.96023411 0.24542294 0.088520959 1.0533561e-41
0.95773411 0.24792294 0.083520964 9.4615672e-42
0.95773411 0.25042295 0.083520964 9.8245035e-42
0.96023411 0.24792294 0.081020959 1.0540567e-41
0.95773411 0.24792294 0.086020961 9.1042361e-42
0.95773411 0.24792294 0.088520959 1.0900701e-41
0.95773411 0.25042295 0.086020961 1.0184637e-41
0.95773411 0.25042295 0.088520959 1.1265038e-41
0.96023411 0.24792294 0.086020961 9.4615672e-42
0.96023411 0.24792294 0.088520959 1.0893694e-41
0.96023411 0.25042295 0.086020961 9.4671724e-42
0.96023411 0.25042295 0.088520959 1.0184637e-41
0.95523411 0.25042295 0.093520962 1.1265038e-41
0.95273411 0.24792294 0.096020959 1.0184637e-41
0.95273411 0.25042295 0.096020959 1.1985306e-41
0.95523411 0.24792294 0.098520964 1.0540567e-41
0.95523411 0.25042295 0.098520964 1.1623771e-41
0.95773411 0.24292295 0.091020964 9.4615672e-42
0.95773411 0.24292295 0.093520962 9.0972296e-42
0.95773411 0.24542294 0.091020964 1.0173427e-41
0.95773411 0.24542294 0.093520962 9.4615672e-42
0.96023411 0.24292295 0.091020964 1.0170624e-41
0.96023411 0.24292295 0.093520962 9.817497e-42
0.96023411 0.24542294 0.093520962 9.4615672e-42
0.95773411 0.24292295 0.096020959 9.0972296e-42
0.95773411 0.24292295 0.098520964 8.7398985e-42
0.95773411 0.24542294 0.096020959 1.0537764e-41
0.95773411 0.24542294 0.098520964 8.7356946e-42
0.96023411 0.24292295 0.098520964 9.4517581e-42
0.96023411 0.24542294 0.098520964 9.817497e-42
0.95773411 0.24792294 0.091020964 1.0893694e-41
0.95773411 0.24792294 0.093520962 9.4615672e-42
0.95773411 0.25042295 0.091020964 1.1619567e-41
0.95773411 0.25042295 0.093520962 1.0540567e-41
0.96023411 0.24792294 0.093520962 9.4615672e-42
0.96023411 0.25042295 0.091020964 1.0900701e-41
0.96023411 0.25042295 0.093520962 1.0540567e-41
0.95773411 0.24792294 0.096020959 1.0537764e-41
0.95773411 0.24792294 0.098520964 9.4615672e-42
0.95773411 0.25042295 0.096020959 1.0540567e-41
0.95773411 0.25042295 0.098520964 1.0536363e-41
0.96023411 0.24792294 0.098520964 1.0540567e-41
0.96023411 0.25042295 0.098520964 1.1253828e-41
0.92273408 0.24542294 0.12602097 5.4507904e-39
0.92273408 0.24542294 0.12852097 4.622822e-39
0.92523408 0.24542294 0.12602097 5.2656789e-39
0.92523408 0.24542294 0.12852097 3.9785344e-39
0.92273408 0.24792294 0.12602097 5.1749097e-39
0.92273408 0.24792294 0.12852097 6.9161744e-39
0.92273408 0.25042295 0.12602097 5.9063455e-39
0.92523408 0.24792294 0.12602097 5.5422671e-39
0.92523408 0.24792294 0.12852097 4.3473169e-39
0.92523408 0.25042295 0.12602097 5.905963e-39
0.92523408 0.25042295 0.12852097 7.0083518e-39
0.92773408 0.24792294 0.12352096 5.2671068e-39
0.93023407 0.25042295 0.12352096 7.1009188e-39
0.92773408 0.24792294 0.12602097 4.8983229e-39
0.92773408 0.25042295 0.12602097 7.1012691e-39
0.93023407 0.24792294 0.12602097 4.6221059e-39
0.93023407 0.24792294 0.12852097 3.7030419e-39
0.93023407 0.25042295 0.12602097 7.0087078e-39
0.93023407 0.25042295 0.12852097 7.0991027e-39
0.92273408 0.24542294 0.13102096 4.8057685e-39
0.92273408 0.24792294 0.13102096 5.0827141e-39
0.92273408 0.25042295 0.13102096 8.0224996e-39
0.92773408 0.24792294 0.13102096 4.2547681e-39
0.92773408 0.25042295 0.13102096 6.4562529e-39
0.93023407 0.24792294 0.13102096 4.8983481e-39
0.93023407 0.25042295 0.13102096 6.2725623e-39
0.93273407 0.24792294 0.12852097 3.8874346e-39
0.93273407 0.25042295 0.12602097 6.9168751e-39
0.93273407 0.25042295 0.12852097 6.2729126e-39
0.93523407 0.24792294 0.12602097 4.2536933e-39
0.93523407 0.24792294 0.12852097 4.0700013e-39
0.93523407 0.25042295 0.12602097 4.7146701e-39
0.93523407 0.25042295 0.12852097 5.0820247e-39
0.93773413 0.25042295 0.12852097 5.0820079e-39
0.94023412 0.25042295 0.12602097 4.6214053e-39
0.94023412 0.25042295 0.12852097 5.3575214e-39
0.93523407 0.25042295 0.13102096 5.0797896e-39
0.93523407 0.25042295 0.13352096 5.0783827e-39
0.93773413 0.25042295 0.13102096 5.2671222e-39
0.96023411 0.22042295 0.10852096 1.0893694e-41
0.96023411 0.21292295 0.11352096 1.0911911e-41
0.96023411 0.21542294 0.11352096 1.0544771e-41
0.96023411 0.21792294 0.11352096 1.0540567e-41
0.96023411 0.22042295 0.11352096 1.0897898e-41
0.96023411 0.21792294 0.11852096 1.0544771e-41
0.96023411 0.22042295 0.11852096 1.0897898e-41
0.96023411 0.22292295 0.10852096 9.4615672e-42
0.96023411 0.22542295 0.10602096 1.0540567e-41
0.96023411 0.22542295 0.10852096 1.0540567e-41
0.96023411 0.22792295 0.10602096 1.0893694e-41
0.96023411 0.22792295 0.10852096 1.0893694e-41
0.96023411 0.23042294 0.10602096 1.0893694e-41
0.96023411 0.23042294 0.10852096 1.0893694e-41
0.96023411 0.22292295 0.11102096 1.0184637e-41
0.96023411 0.22292295 0.11352096 1.0897898e-41
0.96023411 0.22542295 0.11102096 1.1253828e-41
0.96023411 0.22542295 0.11352096 1.1253828e-41
0.95773411 0.23042294 0.11102096 1.0540567e-41
0.96023411 0.22792295 0.11102096 1.0893694e-41
0.96023411 0.22792295 0.11352096 1.0893694e-41
0.96023411 0.23042294 0.11102096 1.1253828e-41
0.96023411 0.23042294 0.11352096 1.1253828e-41
0.96023411 0.22792295 0.11852096 1.1972694e-41
0.96023411 0.23042294 0.11852096 1.1253828e-41
0.96023411 0.21542294 0.12102097 1.1258032e-41
0.96023411 0.21792294 0.12102097 1.1258032e-41
0.96023411 0.22042295 0.12102097 1.0900701e-41
0.96023411 0.22792295 0.12102097 1.1972694e-41
0.96023411 0.23042294 0.12102097 1.1253828e-41
0.96023411 0.22542295 0.13852096 1.4475112e-38
0.94773412 0.24792294 0.10102096 1.0540567e-41
0.95023412 0.24792294 0.10102096 9.4671724e-42
0.95523411 0.24042295 0.10602096 9.0972296e-42
0.96023411 0.23542295 0.10102096 8.0140259e-42
0.96023411 0.23292294 0.10602096 1.0540567e-41
0.96023411 0.23292294 0.10852096 1.0893694e-41
0.96023411 0.23542295 0.10602096 9.817497e-42
0.96023411 0.23542295 0.10852096 1.0530758e-41
0.95773411 0.23792295 0.10352096 9.817497e-42
0.95773411 0.24042295 0.10352096 9.4531594e-42
0.96023411 0.23792295 0.10102096 8.0210324e-42
0.96023411 0.24042295 0.10102096 8.0210324e-42
0.95773411 0.24042295 0.10852096 9.817497e-42
0.96023411 0.23792295 0.10602096 1.0536363e-41
0.96023411 0.23792295 0.10852096 1.0530758e-41
0.96023411 0.24042295 0.10602096 9.0930257e-42
0.96023411 0.24042295 0.10852096 9.4531594e-42
0.95773411 0.23292294 0.11102096 1.0540567e-41
0.96023411 0.23292294 0.11102096 1.0893694e-41
0.96023411 0.23292294 0.11352096 1.0536363e-41
0.96023411 0.23542295 0.11102096 1.0540567e-41
0.96023411 0.23542295 0.11352096 1.0893694e-41
0.96023411 0.23292294 0.11852096 1.0900701e-41
0.96023411 0.23542295 0.11852096 1.1253828e-41
0.95773411 0.23792295 0.11102096 9.817497e-42
0.95773411 0.24042295 0.11102096 1.0170624e-41
0.95773411 0.24042295 0.11352096 1.0530758e-41
0.96023411 0.23792295 0.11102096 1.0540567e-41
0.96023411 0.23792295 0.11352096 1.0893694e-41
0.96023411 0.24042295 0.11102096 9.817497e-42
0.96023411 0.24042295 0.11352096 1.0536363e-41
0.95773411 0.24042295 0.11602096 1.0530758e-41
0.96023411 0.23792295 0.11852096 1.0537764e-41
0.96023411 0.24042295 0.11852096 1.0540567e-41
0.95523411 0.24292295 0.10602096 9.0972296e-42
0.95523411 0.24542294 0.10602096 9.1014335e-42
0.95273411 0.24792294 0.10102096 1.0540567e-41
0.95273411 0.25042295 0.10102096 1.1262236e-41
0.95523411 0.24792294 0.10352096 9.4615672e-42
0.95523411 0.25042295 0.10352096 1.1974095e-41
0.95523411 0.24792294 0.10602096 9.1042361e-42
0.95523411 0.25042295 0.10602096 1.1255229e-41
0.95523411 0.25042295 0.10852096 8.7412998e-42
0.95773411 0.24292295 0.10352096 8.7398985e-42
0.95773411 0.24542294 0.10352096 8.7398985e-42
0.96023411 0.24292295 0.10102096 8.0210324e-42
0.96023411 0.24542294 0.10102096 9.0972296e-42
0.95773411 0.24292295 0.10852096 8.3755609e-42
0.95773411 0.24542294 0.10852096 8.7412998e-42
0.96023411 0.24292295 0.10602096 9.0930257e-42
0.96023411 0.24292295 0.10852096 8.7314907e-42
0.96023411 0.24542294 0.10602096 9.4531594e-42
0.96023411 0.24542294 0.10852096 8.7314907e-42
0.95773411 0.24792294 0.10352096 1.0540567e-41
0.96023411 0.24792294 0.10102096 9.1014335e-42
0.96023411 0.25042295 0.10102096 9.4615672e-42
0.95773411 0.24792294 0.10852096 9.4573633e-42
0.95773411 0.25042295 0.10852096 1.0176229e-41
0.96023411 0.24792294 0.10602096 1.0536363e-41
0.96023411 0.24792294 0.10852096 9.0972296e-42
0.95523411 0.25042295 0.11102096 6.2273704e-42
0.95273411 0.25042295 0.11852096 8.0182298e-42
0.95523411 0.24792294 0.11602096 9.1028348e-42
0.95523411 0.25042295 0.11602096 6.5861028e-42
0.95773411 0.24292295 0.11102096 8.3811661e-42
0.95773411 0.24292295 0.11352096 1.0530758e-41
0.95773411 0.24542294 0.11102096 8.0280389e-42
0.95773411 0.24542294 0.11352096 9.4461529e-42
0.96023411 0.24292295 0.11102096 9.4531594e-42
0.96023411 0.24292295 0.11352096 9.4601659e-42
0.96023411 0.24542294 0.11102096 9.817497e-42
0.96023411 0.24542294 0.11352096 9.4573633e-42
0.95773411 0.24292295 0.11602096 1.0536363e-41
0.95773411 0.24542294 0.11602096 1.0536363e-41
0.95773411 0.24542294 0.11852096 9.4601659e-42
0.96023411 0.24292295 0.11852096 1.1253828e-41
0.96023411 0.24542294 0.11852096 1.0896497e-41
0.95773411 0.24792294 0.11102096 9.0972296e-42
0.95773411 0.24792294 0.11352096 9.817497e-42
0.95773411 0.25042295 0.11102096 9.1028348e-42
0.95773411 0.25042295 0.11352096 6.5818989e-42
0.96023411 0.24792294 0.11102096 9.817497e-42
0.96023411 0.24792294 0.11352096 8.7398985e-42
0.96023411 0.25042295 0.11102096 1.0181835e-41
0.95773411 0.24792294 0.11602096 9.817497e-42
0.95773411 0.24792294 0.11852096 9.1056374e-42
0.95773411 0.25042295 0.11852096 6.2245678e-42
0.96023411 0.24792294 0.11852096 9.817497e-42
0.94273412 0.25042295 0.12352096 3.4228593e-39
0.94523412 0.25042295 0.12352096 3.3317328e-39
0.94273412 0.25042295 0.12602097 3.791639e-39
0.94273412 0.25042295 0.12852097 3.3310168e-39
0.94523412 0.25042295 0.12602097 4.5277607e-39
0.94773412 0.25042295 0.12102097 3.4228593e-39
0.94773412 0.25042295 0.12352096 3.0555033e-39
0.95023412 0.25042295 0.12102097 3.6076093e-39
0.95023412 0.25042295 0.12352096 1.4907223e-39
0.94773412 0.25042295 0.12602097 3.2377463e-39
0.94773412 0.25042295 0.12852097 3.0555243e-39
0.95023412 0.25042295 0.12602097 1.489272e-39
0.94273412 0.25042295 0.13102096 4.0696776e-39
0.96023411 0.23292294 0.12102097 1.1972694e-41
0.96023411 0.23542295 0.12102097 1.0540567e-41
0.96023411 0.23292294 0.12602097 2.1367952e-39
0.96023411 0.23542295 0.12602097 2.5974146e-39
0.95773411 0.23792295 0.12102097 1.1253828e-41
0.95773411 0.24042295 0.12102097 1.1253828e-41
0.96023411 0.23792295 0.12102097 1.0540567e-41
0.96023411 0.23792295 0.12352096 9.817497e-42
0.96023411 0.24042295 0.12102097 1.0540567e-41
0.96023411 0.24042295 0.12352096 1.0536363e-41
0.95773411 0.23792295 0.12852097 2.3222542e-39
0.95773411 0.24042295 0.12602097 1.0896497e-41
0.95773411 0.24042295 0.12852097 2.1400168e-39
0.96023411 0.23792295 0.12602097 1.0896497e-41
0.96023411 0.23792295 0.12852097 3.9756673e-39
0.96023411 0.24042295 0.12602097 1.0177631e-41
0.96023411 0.24042295 0.12852097 4.1593327e-39
0.95523411 0.24042295 0.13602096 4.3440477e-39
0.95523411 0.24042295 0.13852096 1.3086404e-38
0.96023411 0.23792295 0.13102096 1.0188841e-41
0.96023411 0.24042295 0.13102096 6.5973132e-42
0.95773411 0.24042295 0.13602096 8.4962828e-40
