# .PCD v0.7 - Point Cloud Data file format
VERSION 0.7
FIELDS x y z rgb
SIZE 4 4 4 4
TYPE F F F F
COUNT 1 1 1 1
WIDTH 1024
HEIGHT 1
VIEWPOINT 0 0 0 1 0 0 0
POINTS 1024
DATA ascii
0.83993322 0.17550774 0.064692162 1.6624683e-39
0.83993322 0.17800774 0.064692162 9.2742136e-40
0.83993322 0.17550774 0.092192166 3.6144756e-39
0.83993322 0.15550774 0.097192161 4.2584059e-39
0.83993322 0.15800774 0.097192161 4.0750838e-39
0.83993322 0.16050774 0.097192161 3.9825351e-39
0.83993322 0.16800773 0.099692166 3.3378915e-39
0.83993322 0.17050774 0.099692166 3.5208381e-39
0.9174332 0.11550774 0.12469216 4.0667671e-39
0.9174332 0.11800773 0.12469216 5.5383197e-39
0.9174332 0.12050774 0.12469216 8.0258038e-39
0.9174332 0.11550774 0.12719217 5.5386546e-39
0.9174332 0.11800773 0.12719217 5.537598e-39
0.9174332 0.12050774 0.12719217 8.3023879e-39
0.83993322 0.21800774 0.12969217 1.0201453e-41
0.84243321 0.21800774 0.12969217 8.7525102e-42
0.83993322 0.21550773 0.13219216 8.023835e-42
0.83993322 0.21800774 0.13219216 8.7525102e-42
0.83993322 0.22050774 0.12969217 3.6097925e-39
0.83993322 0.22300774 0.12969217 5.0845316e-39
0.84243321 0.22050774 0.12969217 3.6998189e-39
0.84243321 0.22300774 0.12969217 5.1749294e-39
0.83993322 0.22050774 0.13219216 3.056969e-39
0.83993322 0.22300774 0.13219216 5.0852295e-39
0.84743321 0.22050774 0.12969217 1.2720987e-41
0.84743321 0.22300774 0.12969217 2.9470988e-40
0.84493321 0.22050774 0.13219216 1.0561587e-41
0.84493321 0.22300774 0.13219216 3.2435057e-39
0.84993321 0.22300774 0.13219216 1.855556e-39
0.83993322 0.23050773 0.12469216 1.5578175e-38
0.83993322 0.22550774 0.12719217 6.4595291e-39
0.83993322 0.22550774 0.12969217 6.1854659e-39
0.83993322 0.22800773 0.12719217 7.1052544e-39
0.83993322 0.22800773 0.12969217 5.9098614e-39
0.84243321 0.22550774 0.12719217 6.000374e-39
0.84243321 0.22550774 0.12969217 5.4504345e-39
0.84243321 0.22800773 0.12719217 5.9081784e-39
0.84243321 0.22800773 0.12969217 6.0932703e-39
0.83993322 0.22550774 0.13219216 5.8188316e-39
0.83993322 0.22800773 0.13219216 5.1755586e-39
0.83993322 0.22800773 0.13469216 2.6798039e-39
0.83993322 0.23050773 0.12719217 7.4667698e-39
0.83993322 0.23050773 0.12969217 4.6079808e-39
0.84243321 0.23050773 0.12719217 6.6402504e-39
0.84243321 0.23300774 0.12719217 4.1441342e-39
0.83993322 0.23050773 0.13469216 4.9771249e-39
0.84493321 0.22550774 0.12719217 5.4515163e-39
0.84493321 0.22550774 0.12969217 5.8202988e-39
0.84493321 0.22800773 0.12719217 4.8976194e-39
0.84493321 0.22800773 0.12969217 6.2780175e-39
0.84743321 0.22550774 0.12969217 4.257659e-39
0.84743321 0.22800773 0.12719217 5.3578745e-39
0.84743321 0.22800773 0.12969217 5.6348187e-39
0.84493321 0.22550774 0.13219216 4.1658123e-39
0.84493321 0.23050773 0.12719217 5.5407201e-39
0.84493321 0.23050773 0.12969217 6.2754321e-39
0.84493321 0.23300774 0.12719217 4.0562546e-39
0.84743321 0.23050773 0.12719217 6.091401e-39
0.84743321 0.23300774 0.12719217 2.6798039e-39
0.84743321 0.23300774 0.12969217 4.9767718e-39
0.84743321 0.23550774 0.12719217 5.0704065e-39
0.84743321 0.23550774 0.12969217 5.4373912e-39
0.84993321 0.23050773 0.12469216 6.7342242e-39
0.84993321 0.23300774 0.12469216 2.2187908e-39
0.8574332 0.23300774 0.12469216 6.091401e-39
0.84993321 0.22800773 0.12719217 5.8159758e-39
0.8524332 0.22550774 0.12969217 2.7749465e-39
0.8524332 0.22800773 0.12969217 6.4620486e-39
0.84993321 0.22550774 0.13219216 5.4504345e-39
0.84993321 0.22800773 0.13219216 5.8163261e-39
0.8524332 0.22550774 0.13219216 3.5146822e-39
0.8524332 0.22800773 0.13219216 6.0010775e-39
0.84993321 0.23050773 0.12719217 5.6348187e-39
0.84993321 0.23300774 0.12719217 2.6798039e-39
0.8524332 0.23050773 0.12719217 5.9081728e-39
0.8524332 0.23300774 0.12969217 2.8649043e-39
0.8549332 0.22800773 0.12969217 5.5408182e-39
0.8574332 0.22800773 0.12969217 4.8979669e-39
0.8549332 0.23050773 0.12969217 6.4606109e-39
0.8549332 0.23300774 0.12719217 6.5505715e-39
0.8574332 0.23050773 0.12719217 6.4620486e-39
0.8574332 0.23050773 0.12969217 5.7252109e-39
0.8574332 0.23300774 0.12719217 6.7353229e-39
0.8574332 0.23300774 0.12969217 6.3679795e-39
0.84993321 0.23550774 0.12469216 4.3321058e-39
0.8549332 0.23550774 0.12469216 2.6798039e-39
0.8574332 0.23550774 0.12469216 2.6798039e-39
0.84993321 0.23550774 0.12719217 4.9767718e-39
0.8524332 0.23550774 0.12969217 5.253353e-39
0.8524332 0.23550774 0.13219216 5.0707596e-39
0.8549332 0.23550774 0.12719217 2.955302e-39
0.8574332 0.23550774 0.12719217 3.2315288e-39
0.8574332 0.23550774 0.12969217 3.1411324e-39
0.8599332 0.23300774 0.12469216 6.2761356e-39
0.8599332 0.22800773 0.12969217 5.3585779e-39
0.8624332 0.22800773 0.12969217 4.7153763e-39
0.8624332 0.22800773 0.13219216 5.3578745e-39
0.8599332 0.23050773 0.12969217 6.1858219e-39
0.8599332 0.23300774 0.12719217 6.091401e-39
0.8599332 0.23300774 0.12969217 5.9992054e-39
0.8624332 0.23050773 0.12969217 4.6228248e-39
0.8624332 0.23300774 0.12719217 5.7226101e-39
0.8624332 0.23300774 0.12969217 4.1618466e-39
0.8624332 0.23050773 0.13219216 5.3575059e-39
0.86493319 0.22800773 0.13219216 5.4500715e-39
0.86743319 0.23050773 0.12719217 4.6224717e-39
0.86743319 0.23050773 0.12969217 6.0943451e-39
0.86743319 0.23300774 0.12719217 4.2529759e-39
0.86743319 0.23300774 0.12969217 5.8177596e-39
0.86493319 0.23050773 0.13219216 6.3694845e-39
0.86493319 0.23300774 0.13219216 6.1850932e-39
0.8599332 0.23550774 0.12469216 2.5876083e-39
0.8599332 0.23800774 0.12469216 4.9771249e-39
0.8624332 0.23550774 0.12219217 6.2754321e-39
0.86493319 0.23550774 0.12469216 6.1817987e-39
0.86743319 0.23550774 0.12469216 5.9992054e-39
0.86743319 0.23800774 0.12469216 3.0485851e-39
0.8599332 0.23550774 0.12719217 2.7723583e-39
0.8599332 0.23550774 0.12969217 3.1407821e-39
0.8624332 0.23550774 0.12719217 2.7727086e-39
0.8624332 0.23550774 0.12969217 2.4961161e-39
0.8624332 0.23800774 0.12719217 4.9771221e-39
0.8624332 0.23550774 0.13219216 3.0485851e-39
0.86493319 0.23550774 0.12719217 5.8148057e-39
0.86743319 0.23550774 0.12719217 5.1694363e-39
0.86743319 0.23550774 0.12969217 3.4166305e-39
0.86493319 0.23550774 0.13219216 2.8645539e-39
0.87743324 0.23050773 0.12469216 3.6065092e-39
0.87743324 0.23300774 0.12469216 5.4504218e-39
0.86993319 0.23300774 0.12719217 5.8177652e-39
0.86993319 0.23300774 0.12969217 6.3684307e-39
0.87243325 0.23050773 0.12719217 4.8986956e-39
0.87243325 0.23050773 0.12969217 5.0827295e-39
0.87243325 0.23300774 0.12719217 6.0021495e-39
0.87243325 0.23300774 0.12969217 5.3567997e-39
0.87493324 0.23300774 0.12719217 5.635169e-39
0.87743324 0.23300774 0.12719217 5.6355376e-39
0.87743324 0.23800774 0.12469216 5.261985e-39
0.87743324 0.24050774 0.12469216 2.7730618e-39
0.86993319 0.23550774 0.12719217 4.160329e-39
0.86993319 0.23550774 0.12969217 6.8250003e-39
0.86993319 0.23800774 0.12719217 3.1407821e-39
0.87243325 0.23550774 0.12719217 5.725564e-39
0.87243325 0.23550774 0.12969217 6.1851156e-39
0.87243325 0.23800774 0.12719217 3.4155711e-39
0.87243325 0.23800774 0.12969217 4.7966965e-39
0.87243325 0.23800774 0.13219216 4.3382365e-39
0.87493324 0.23550774 0.12719217 6.1854687e-39
0.87493324 0.23800774 0.12719217 4.6166212e-39
0.87743324 0.23550774 0.12719217 5.2664033e-39
0.87993324 0.23050773 0.12469216 1.235665e-41
0.87993324 0.23300774 0.12469216 3.3302979e-39
0.88243324 0.23050773 0.12469216 1.3061503e-41
0.88243324 0.23300774 0.12469216 2.2271901e-39
0.88243324 0.23050773 0.12719217 1.0551777e-41
0.88243324 0.23300774 0.12719217 3.3284958e-39
0.88493323 0.23050773 0.12719217 8.037848e-42
0.88493323 0.23050773 0.12969217 1.0896497e-41
0.88493323 0.23300774 0.12719217 2.0395619e-39
0.88493323 0.23300774 0.12969217 1.7626149e-39
0.88743323 0.23300774 0.12719217 9.1112426e-42
0.88743323 0.23050773 0.13219216 1.0533561e-41
0.88743323 0.23300774 0.13219216 1.1154448e-39
0.87993324 0.23550774 0.12469216 5.4493484e-39
0.87993324 0.23800774 0.12469216 6.6434761e-39
0.88243324 0.23550774 0.12469216 5.5429888e-39
0.88243324 0.23800774 0.12469216 6.8290529e-39
0.87993324 0.24050774 0.12469216 4.7966909e-39
0.88243324 0.24050774 0.12219217 3.1411324e-39
0.88243324 0.24050774 0.12469216 4.5226207e-39
0.88243324 0.24300773 0.12219217 5.2551509e-39
0.88243324 0.24300773 0.12469216 6.6362707e-39
0.88743323 0.23550774 0.12469216 5.5426357e-39
0.88743323 0.23800774 0.12469216 6.5528219e-39
0.88493323 0.24300773 0.12219217 4.6148164e-39
0.88743323 0.24050774 0.12469216 6.9197141e-39
0.88743323 0.24300773 0.12219217 3.8786975e-39
0.88743323 0.24300773 0.12469216 4.3382365e-39
0.88243324 0.23550774 0.12719217 5.9074525e-39
0.88243324 0.23800774 0.12719217 6.5542485e-39
0.88243324 0.24050774 0.12719217 4.0634475e-39
0.88243324 0.24300773 0.12719217 6.7270342e-39
0.88493323 0.23550774 0.12719217 5.0827295e-39
0.88493323 0.23800774 0.12719217 6.2780329e-39
0.88743323 0.23550774 0.12719217 5.8174247e-39
0.88743323 0.23800774 0.12719217 6.1840366e-39
0.88493323 0.24050774 0.12719217 6.7353229e-39
0.88493323 0.24300773 0.12719217 5.7121634e-39
0.88743323 0.24300773 0.13469216 4.3321058e-39
0.88993323 0.23300774 0.12969217 8.7497076e-42
0.88993323 0.23300774 0.13219216 7.4738394e-40
0.89243323 0.23300774 0.13219216 4.6971244e-40
0.88993323 0.24050774 0.12469216 6.2780357e-39
0.88993323 0.24300773 0.12219217 4.0634475e-39
0.88993323 0.24300773 0.12469216 4.0609405e-39
0.89243323 0.24050774 0.12469216 6.8308508e-39
0.89243323 0.24300773 0.12219217 7.4707229e-39
0.89243323 0.24300773 0.12469216 7.5650835e-39
0.89493322 0.24300773 0.12219217 6.0967904e-39
0.89743322 0.24300773 0.12469216 7.5650835e-39
0.88993323 0.23550774 0.12719217 5.5422798e-39
0.88993323 0.23550774 0.12969217 5.4504401e-39
0.88993323 0.23800774 0.12719217 6.0000083e-39
0.88993323 0.23800774 0.12969217 5.5422671e-39
0.89243323 0.23550774 0.12719217 5.4500841e-39
0.89243323 0.23550774 0.12969217 1.0236051e-39
0.89243323 0.23800774 0.12719217 6.2762379e-39
0.89243323 0.23800774 0.12969217 5.8152569e-39
0.88993323 0.23550774 0.13219216 5.5419168e-39
0.89243323 0.23550774 0.13219216 5.6326663e-39
0.88993323 0.24050774 0.12719217 7.1059957e-39
0.88993323 0.24300773 0.12719217 2.7720052e-39
0.89243323 0.24050774 0.12719217 5.1784396e-39
0.89243323 0.24300773 0.12719217 2.9243137e-40
0.88993323 0.24300773 0.13219216 4.882058e-39
0.88993323 0.24300773 0.13469216 5.2537034e-39
0.89243323 0.24300773 0.13219216 5.1615063e-39
0.89493322 0.23550774 0.12969217 6.5447224e-40
0.89493322 0.23800774 0.12719217 5.6323104e-39
0.89493322 0.23800774 0.12969217 5.6330307e-39
0.89743322 0.23550774 0.12969217 2.8496385e-40
0.89743322 0.23800774 0.12969217 5.7245074e-39
0.89493322 0.23550774 0.13219216 6.5375338e-40
0.89743322 0.23550774 0.13219216 1.0202153e-40
0.89743322 0.23800774 0.13219216 4.5270516e-39
0.89493322 0.24050774 0.12719217 6.9216073e-39
0.89493322 0.24300773 0.12719217 6.2819159e-39
0.89743322 0.24050774 0.12719217 6.5528219e-39
0.89743322 0.24300773 0.12719217 6.9258448e-39
0.88743323 0.24550773 0.12219217 6.3586118e-39
0.88493323 0.24800773 0.13469216 5.1589896e-39
0.88743323 0.24550773 0.13219216 4.882058e-39
0.88743323 0.24550773 0.13469216 4.7927252e-39
0.88743323 0.24800773 0.13469216 4.8852796e-39
0.88493323 0.25050774 0.13469216 5.2504818e-39
0.88743323 0.25050774 0.13469216 5.161156e-39
0.88993323 0.24550773 0.12219217 6.6351917e-39
0.88993323 0.24550773 0.12469216 5.4352262e-39
0.89243323 0.24550773 0.12219217 5.6185286e-39
0.89243323 0.24550773 0.12469216 4.1470111e-39
0.89243323 0.24800773 0.12469216 4.5150831e-39
0.89493322 0.24550773 0.12219217 4.5154335e-39
0.89743322 0.24550773 0.12469216 2.6754879e-39
0.89743322 0.24800773 0.12469216 2.7647773e-39
0.88993323 0.24550773 0.12719217 4.0544567e-39
0.89243323 0.24550773 0.12719217 2.7658689e-39
0.89243323 0.24550773 0.12969217 3.6853295e-39
0.89243323 0.24800773 0.12969217 4.236683e-39
0.89243323 0.25050774 0.12969217 4.236683e-39
0.89243323 0.25300774 0.12969217 4.1444873e-39
0.89493322 0.24550773 0.12719217 2.9484679e-39
0.89493322 0.24800773 0.12719217 3.4090873e-39
0.89743322 0.24550773 0.12719217 2.3160633e-39
0.89743322 0.24800773 0.12719217 3.4097908e-39
0.89993322 0.24300773 0.12469216 7.6573114e-39
0.90243322 0.24300773 0.12469216 5.9103266e-39
0.90743321 0.24300773 0.12469216 6.2773113e-39
0.89993322 0.23550774 0.12969217 1.9421716e-40
0.89993322 0.23800774 0.12969217 4.5270516e-39
0.89993322 0.24050774 0.12719217 5.5426329e-39
0.89993322 0.24050774 0.12969217 5.9085287e-39
0.89993322 0.24300773 0.12719217 5.8177806e-39
0.89993322 0.24300773 0.12969217 7.2914029e-39
0.90243322 0.24050774 0.12969217 5.2678256e-39
0.90243322 0.24300773 0.12719217 7.6565911e-39
0.90493321 0.23800774 0.12969217 1.0181835e-41
0.90743321 0.23800774 0.13219216 9.1042361e-42
0.90493321 0.24050774 0.12969217 5.2678284e-39
0.90493321 0.24300773 0.12719217 5.9106769e-39
0.90743321 0.24300773 0.12719217 5.2678284e-39
0.90743321 0.24050774 0.13219216 3.2399128e-39
0.90993321 0.24050774 0.12969217 4.5274076e-39
0.90993321 0.24300773 0.12969217 5.9106741e-39
0.91243321 0.24300773 0.12969217 4.8997648e-39
0.9174332 0.24300773 0.12969217 6.0021439e-39
0.89993322 0.24550773 0.12469216 2.955302e-39
0.89993322 0.24800773 0.12469216 3.9600961e-39
0.90243322 0.24550773 0.12469216 7.0122951e-39
0.90243322 0.24800773 0.12469216 5.066794e-39
0.90243322 0.25050774 0.12469216 4.608334e-39
0.90493321 0.24550773 0.12469216 7.2881407e-39
0.90493321 0.24800773 0.12219217 3.9626142e-39
0.90493321 0.24800773 0.12469216 5.1676398e-39
0.90743321 0.24550773 0.12469216 6.6463993e-39
0.90743321 0.24800773 0.12469216 4.8021209e-39
0.90743321 0.25050774 0.12219217 3.5938317e-39
0.90743321 0.25300774 0.12219217 4.0541064e-39
0.89993322 0.24550773 0.12719217 4.9839912e-39
0.89993322 0.24550773 0.12969217 4.8021209e-39
0.89993322 0.24800773 0.12719217 4.1473558e-39
0.90243322 0.24550773 0.12719217 5.443896e-39
0.90243322 0.24800773 0.12719217 5.8990714e-39
0.90493321 0.24550773 0.12719217 7.4721999e-39
0.90493321 0.24550773 0.12969217 6.5552854e-39
0.90493321 0.24800773 0.12719217 5.1615063e-39
0.90493321 0.24800773 0.12969217 4.7030365e-39
0.90743321 0.24550773 0.12719217 7.0133923e-39
0.90743321 0.24800773 0.12719217 5.2616767e-39
0.90493321 0.25050774 0.12719217 4.3321058e-39
0.90493321 0.25050774 0.12969217 3.6885244e-39
0.90993321 0.24550773 0.12469216 6.4634247e-39
0.90993321 0.24800773 0.12469216 4.4340643e-39
0.91243321 0.24800773 0.12219217 4.2507282e-39
0.91243321 0.24800773 0.12469216 4.8024768e-39
0.90993321 0.25050774 0.12219217 4.7005296e-39
0.90993321 0.25050774 0.12469216 5.1615063e-39
0.90993321 0.25300774 0.12219217 4.7923749e-39
0.90993321 0.25300774 0.12469216 4.7927252e-39
0.91243321 0.25050774 0.12219217 5.898019e-39
0.91243321 0.25050774 0.12469216 5.161156e-39
0.91243321 0.25300774 0.12469216 3.4097908e-39
0.9174332 0.25300774 0.11969216 5.6228446e-39
0.9149332 0.25050774 0.12219217 5.4380946e-39
0.9149332 0.25300774 0.12219217 4.3321058e-39
0.9174332 0.25050774 0.12469216 6.4562501e-39
0.9174332 0.25300774 0.12469216 4.2392011e-39
0.90993321 0.24550773 0.12719217 6.6463894e-39
0.90993321 0.24800773 0.12719217 4.8939718e-39
0.91243321 0.24550773 0.12719217 5.9106741e-39
0.91243321 0.24550773 0.12969217 5.45257e-39
0.91243321 0.24800773 0.12719217 5.905963e-39
0.90993321 0.25050774 0.12719217 5.4380946e-39
0.90993321 0.25300774 0.12719217 4.2399102e-39
0.91243321 0.25050774 0.12719217 4.7927252e-39
0.91243321 0.25300774 0.12719217 4.6980114e-39
0.9149332 0.24550773 0.12719217 6.0954241e-39
0.9149332 0.24800773 0.12719217 8.207967e-39
0.9174332 0.24550773 0.12969217 5.7259171e-39
0.9174332 0.24800773 0.12719217 7.3782106e-39
0.9174332 0.24800773 0.12969217 6.73466e-39
0.9149332 0.25050774 0.12719217 5.8965546e-39
0.9149332 0.25300774 0.12719217 4.1448377e-39
0.9174332 0.25050774 0.12719217 6.548101e-39
0.9174332 0.25050774 0.12969217 7.0932775e-39
0.9174332 0.25300774 0.12719217 4.5132124e-39
0.9149332 0.25550774 0.12219217 4.7927252e-39
0.9174332 0.25550774 0.12469216 4.8827614e-39
0.9224332 0.11300774 0.12219217 6.8229096e-39
0.9224332 0.11300774 0.12469216 7.1012719e-39
0.9249332 0.11050773 0.12469216 6.8235654e-39
0.9249332 0.11300774 0.12469216 7.2823982e-39
0.9224332 0.11300774 0.12719217 6.5466324e-39
0.9224332 0.11300774 0.12969217 7.0965454e-39
0.9249332 0.11300774 0.12719217 6.9136157e-39
0.92743319 0.11050773 0.12969217 7.3731365e-39
0.92743319 0.11300774 0.12969217 7.2791388e-39
0.9249332 0.11300774 0.13219216 6.9978603e-39
0.92743319 0.11050773 0.13219216 8.7491947e-39
0.92743319 0.11300774 0.13219216 7.1815103e-39
0.9199332 0.11550774 0.12469216 4.9851305e-39
0.9199332 0.11800773 0.12469216 5.8123898e-39
0.9224332 0.11550774 0.12219217 4.4355468e-39
0.9224332 0.11550774 0.12469216 5.8130933e-39
0.9224332 0.11800773 0.12469216 4.9829753e-39
0.9199332 0.12300774 0.12469216 4.8104685e-39
0.9224332 0.12050774 0.12469216 8.486782e-39
0.9224332 0.12300774 0.12469216 5.4561882e-39
0.9249332 0.11550774 0.12469216 7.9321466e-39
0.9249332 0.11800773 0.12469216 6.917636e-39
0.9249332 0.12050774 0.12469216 7.7513497e-39
0.9249332 0.12300774 0.12469216 6.1012017e-39
0.92743319 0.12050774 0.12469216 6.3684335e-39
0.92743319 0.12300774 0.12469216 6.7397117e-39
0.9224332 0.11550774 0.12719217 7.5640872e-39
0.9224332 0.11550774 0.12969217 6.7317874e-39
0.9224332 0.11800773 0.12719217 4.800735e-39
0.9224332 0.12050774 0.12719217 7.6591541e-39
0.9224332 0.12300774 0.12719217 6.4696156e-39
0.9249332 0.11550774 0.12719217 6.9190681e-39
0.9249332 0.11800773 0.12719217 7.3800463e-39
0.92743319 0.11550774 0.12969217 6.5470458e-39
0.92743319 0.11800773 0.12969217 7.8377846e-39
0.9249332 0.11550774 0.13219216 5.9002274e-39
0.92743319 0.11550774 0.13219216 6.0802999e-39
0.92743319 0.11800773 0.13219216 8.7543319e-39
0.9249332 0.12050774 0.12719217 5.9099763e-39
0.9249332 0.12300774 0.12719217 6.5560435e-39
0.92743319 0.12050774 0.12969217 5.4471975e-39
0.92743319 0.12300774 0.12969217 7.1978032e-39
0.92993319 0.12300774 0.12469216 6.6482448e-39
0.92993319 0.11550774 0.13219216 7.0908169e-39
0.92993319 0.11800773 0.13219216 8.1053289e-39
0.93243319 0.11550774 0.13219216 7.0944168e-39
0.93243319 0.11800773 0.13219216 7.6475906e-39
0.92993319 0.12050774 0.12719217 6.0907522e-39
0.92993319 0.12050774 0.12969217 5.7255794e-39
0.92993319 0.12300774 0.12719217 7.1981563e-39
0.92993319 0.12300774 0.12969217 4.9869424e-39
0.93243319 0.12050774 0.12719217 3.0537068e-39
0.93243319 0.12050774 0.12969217 5.0755269e-39
0.93243319 0.12300774 0.12719217 5.3557207e-39
0.93243319 0.12300774 0.12969217 4.8018337e-39
0.93243319 0.12050774 0.13219216 7.1920621e-39
0.93493325 0.11550774 0.12969217 7.6439934e-39
0.93493325 0.11800773 0.12969217 8.0127774e-39
0.93743324 0.11550774 0.12969217 6.4476153e-39
0.93743324 0.11800773 0.12969217 7.5543229e-39
0.93493325 0.12050774 0.12969217 7.2828116e-39
0.93493325 0.12300774 0.12969217 4.7996827e-39
0.93743324 0.12050774 0.12969217 7.37501e-39
0.93743324 0.12300774 0.12719217 4.4326784e-39
0.93743324 0.12300774 0.12969217 5.9920755e-39
0.92743319 0.12550774 0.12469216 1.0775705e-40
0.9249332 0.12550774 0.12719217 1.9923942e-40
0.92993319 0.12550774 0.12469216 4.5273767e-39
0.92993319 0.12800774 0.12469216 1.9636816e-40
0.93243319 0.12800774 0.12219217 4.7152292e-40
0.93493325 0.12550774 0.12469216 7.1056076e-39
0.93493325 0.12800774 0.12469216 5.8602302e-42
0.92993319 0.12550774 0.12719217 7.1981563e-39
0.93243319 0.12550774 0.12719217 7.105602e-39
0.93243319 0.12550774 0.12969217 8.0265227e-39
0.93243319 0.12800774 0.12719217 2.4079871e-39
0.93243319 0.12800774 0.12969217 4.533876e-39
0.92993319 0.13050774 0.12969217 9.0762102e-42
0.93243319 0.13050774 0.12719217 8.7286881e-42
0.93243319 0.13050774 0.12969217 7.2895546e-42
0.93243319 0.13300774 0.12719217 1.088949e-41
0.93243319 0.13300774 0.12969217 8.7286881e-42
0.93493325 0.12550774 0.12719217 6.8308536e-39
0.93493325 0.12550774 0.12969217 8.210921e-39
0.93493325 0.12800774 0.12719217 4.3469638e-39
0.93493325 0.12800774 0.12969217 5.1799642e-39
0.93743324 0.12550774 0.12719217 7.5655488e-39
0.93743324 0.12550774 0.12969217 7.475151e-39
0.93743324 0.12800774 0.12719217 4.5342291e-39
0.93743324 0.12800774 0.12969217 5.1792454e-39
0.93493325 0.12800774 0.13219216 6.19377e-39
0.93493325 0.13050774 0.12719217 9.4419491e-42
0.93493325 0.13050774 0.12969217 9.8020828e-42
0.93493325 0.13300774 0.12719217 1.0883885e-41
0.93743324 0.13050774 0.12719217 9.4489555e-42
0.93743324 0.13050774 0.12969217 7.2951598e-42
0.93743324 0.13300774 0.12719217 9.4489555e-42
0.93743324 0.13300774 0.12969217 8.3755609e-42
0.93993324 0.11550774 0.13219216 1.648499e-38
0.93993324 0.11550774 0.13469216 1.7131789e-38
0.93993324 0.11800773 0.13219216 1.6761577e-38
0.93993324 0.11800773 0.13469216 1.6209832e-38
0.94243324 0.11800773 0.13219216 1.6945242e-38
0.93993324 0.12300774 0.12969217 1.0409515e-38
0.93993324 0.12050774 0.13219216 1.5752559e-38
0.93993324 0.12050774 0.13469216 1.4740575e-38
0.94243324 0.12050774 0.13219216 1.5753638e-38
0.94243324 0.12300774 0.13219216 1.2249484e-38
0.94493324 0.11800773 0.13469216 1.1137606e-38
0.94493324 0.12050774 0.13469216 9.3046288e-39
0.94743323 0.12050774 0.13219216 9.2149387e-39
0.94743323 0.12050774 0.13469216 9.9411925e-39
0.94743323 0.12300774 0.13219216 9.8578026e-39
0.94743323 0.12300774 0.13469216 9.8556362e-39
0.94993323 0.12050774 0.13219216 8.5663197e-39
0.94993323 0.12300774 0.13219216 9.673026e-39
0.95243323 0.12300774 0.13469216 7.9169706e-39
0.93993324 0.12550774 0.12969217 3.6947448e-39
0.93993324 0.12800774 0.12969217 6.5596757e-39
0.94243324 0.12550774 0.13219216 4.1579076e-39
0.94243324 0.12800774 0.13219216 6.9230338e-39
0.93993324 0.13050774 0.12719217 1.1608356e-41
0.93993324 0.13050774 0.12969217 1.3416031e-41
0.94243324 0.13050774 0.13219216 4.1600333e-39
0.94493324 0.12550774 0.12969217 5.0798625e-39
0.94493324 0.12800774 0.12969217 6.9230338e-39
0.94743323 0.12550774 0.12969217 5.5400993e-39
0.94743323 0.12800774 0.12969217 5.3550046e-39
0.94493324 0.12550774 0.13219216 5.5393959e-39
0.94493324 0.12800774 0.13219216 7.290352e-39
0.94743323 0.12550774 0.13219216 4.7168225e-39
0.94743323 0.12550774 0.13469216 7.1045356e-39
0.94493324 0.13050774 0.12719217 1.9853597e-40
0.94493324 0.13050774 0.12969217 4.8947299e-39
0.94493324 0.13300774 0.12719217 9.8104905e-42
0.94743323 0.13050774 0.12719217 2.010499e-40
0.94743323 0.13050774 0.12969217 4.8025343e-39
0.94493324 0.13050774 0.13219216 7.1981563e-39
0.94993323 0.13300774 0.12469216 8.7412998e-42
0.95243323 0.12800774 0.12969217 3.5135933e-39
0.94993323 0.12550774 0.13219216 5.7259297e-39
0.94993323 0.12800774 0.13219216 2.7785464e-39
0.95243323 0.12550774 0.13469216 6.1778905e-39
0.95243323 0.12800774 0.13219216 4.8936215e-39
0.95243323 0.12800774 0.13469216 6.2679183e-39
0.94993323 0.13050774 0.12719217 6.7400648e-39
0.94993323 0.13300774 0.12719217 5.6514787e-40
0.95243323 0.13050774 0.12969217 8.0254157e-39
0.95493323 0.12800774 0.13469216 6.5441479e-39
0.95493323 0.13050774 0.12719217 7.1974473e-39
0.95493323 0.13050774 0.12969217 5.818131e-39
0.95493323 0.13300774 0.12719217 7.5644375e-39
0.95493323 0.13300774 0.12969217 7.1056454e-39
0.95743322 0.13050774 0.12719217 5.6333866e-39
0.95743322 0.13300774 0.12719217 7.2906995e-39
0.97243321 0.12300774 0.094692163 7.3793246e-39
0.9774332 0.13300774 0.079692163 1.0530758e-41
0.9774332 0.13050774 0.08219216 7.2993637e-42
0.9774332 0.13050774 0.084692165 1.0174828e-41
0.9774332 0.13300774 0.08219216 9.094427e-42
0.9774332 0.13300774 0.084692165 8.0126246e-42
0.97243321 0.12550774 0.094692163 4.4341399e-39
0.9774332 0.12800774 0.08969216 7.6591723e-39
0.97493321 0.12550774 0.092192166 5.7248788e-39
0.97493321 0.12550774 0.094692163 4.987664e-39
0.97493321 0.12800774 0.092192166 7.935734e-39
0.97493321 0.12800774 0.094692163 8.1186651e-39
0.9774332 0.12550774 0.094692163 2.4123031e-39
0.9774332 0.12800774 0.094692163 5.7248633e-39
0.97493321 0.13050774 0.087192163 1.2688758e-41
0.97493321 0.13300774 0.087192163 8.7314907e-42
0.9774332 0.13050774 0.08969216 1.4521656e-41
0.9774332 0.13300774 0.08969216 1.0173427e-41
0.9774332 0.13050774 0.092192166 5.1702252e-39
0.9774332 0.13300774 0.092192166 1.2348242e-41
0.9774332 0.13550773 0.079692163 1.1252427e-41
0.9774332 0.13800773 0.079692163 1.0886688e-41
0.9774332 0.14050774 0.079692163 9.8062867e-42
0.9774332 0.13550773 0.092192166 8.3881726e-42
0.9824332 0.13550773 0.067192167 2.8783511e-40
0.9824332 0.13800773 0.067192167 2.8783511e-40
0.9799332 0.13550773 0.07469216 1.1249624e-41
0.9799332 0.13800773 0.072192162 1.0515344e-41
0.9799332 0.13800773 0.07469216 9.4433504e-42
0.9824332 0.13550773 0.07469216 1.1249624e-41
0.9824332 0.13800773 0.072192162 1.0529357e-41
0.9824332 0.13800773 0.07469216 1.1249624e-41
0.9824332 0.14050774 0.067192167 1.0200192e-40
0.9824332 0.14300774 0.067192167 6.925217e-42
0.9799332 0.14050774 0.072192162 1.0515344e-41
0.9799332 0.14050774 0.07469216 8.7286881e-42
0.9824332 0.14050774 0.072192162 1.0515344e-41
0.9824332 0.14050774 0.07469216 6.9350261e-42
0.9824332 0.14300774 0.072192162 9.080414e-42
0.9824332 0.14300774 0.07469216 6.925217e-42
0.9849332 0.13550773 0.069692165 1.1258032e-41
0.9849332 0.13800773 0.069692165 1.0536363e-41
0.9874332 0.13800773 0.069692165 1.1967089e-41
0.9849332 0.13800773 0.07469216 1.1252427e-41
0.9849332 0.14050774 0.069692165 9.0902231e-42
0.9849332 0.14300774 0.069692165 7.2783442e-42
0.9874332 0.14050774 0.067192167 9.4503568e-42
0.9874332 0.14050774 0.069692165 1.2317414e-41
0.9874332 0.14300774 0.067192167 8.7286881e-42
0.9874332 0.14300774 0.069692165 1.0516745e-41
0.9849332 0.14050774 0.07469216 9.080414e-42
0.9849332 0.14300774 0.07469216 8.0056181e-42
0.9799332 0.13300774 0.087192163 9.1112426e-42
0.9799332 0.13050774 0.094692163 6.9234051e-39
0.9799332 0.13300774 0.094692163 4.0700308e-39
0.9824332 0.13550773 0.077192165 1.1249624e-41
0.9824332 0.13550773 0.079692163 1.2328624e-41
0.9824332 0.13800773 0.077192165 1.0235504e-40
0.9824332 0.13800773 0.079692163 1.1249624e-41
0.9799332 0.13550773 0.08219216 2.8748199e-40
0.9799332 0.13800773 0.08219216 1.9420035e-40
0.9824332 0.13550773 0.084692165 1.1619567e-41
0.9824332 0.13800773 0.084692165 1.1246821e-41
0.9824332 0.14050774 0.077192165 1.0515344e-41
0.9824332 0.14050774 0.079692163 9.0902231e-42
0.9824332 0.14300774 0.077192165 8.3587453e-42
0.9824332 0.14300774 0.079692163 9.4433504e-42
0.9799332 0.14050774 0.08219216 1.016642e-41
0.9849332 0.13800773 0.079692163 1.2328624e-41
0.9874332 0.13800773 0.079692163 1.1972694e-41
0.9849332 0.13550773 0.08219216 1.2338433e-41
0.9849332 0.13800773 0.08219216 1.0886688e-41
0.9874332 0.13550773 0.084692165 1.0544771e-41
0.9874332 0.13800773 0.084692165 1.1246821e-41
0.9849332 0.14050774 0.077192165 8.7230829e-42
0.9849332 0.14300774 0.077192165 7.6454844e-42
0.9849332 0.14300774 0.079692163 8.0056181e-42
0.9874332 0.14300774 0.079692163 8.3587453e-42
0.9849332 0.14050774 0.08219216 9.8062867e-42
0.9849332 0.14300774 0.08219216 9.8034841e-42
0.9874332 0.14050774 0.08219216 1.016642e-41
0.9874332 0.14050774 0.084692165 9.4531594e-42
0.9874332 0.14300774 0.08219216 9.8104905e-42
0.9874332 0.14300774 0.084692165 9.4503568e-42
0.9799332 0.13550773 0.087192163 1.1252427e-41
0.9824332 0.13550773 0.087192163 9.83151e-42
0.9824332 0.13800773 0.087192163 1.0533561e-41
0.9799332 0.13550773 0.094692163 8.0196311e-42
0.9824332 0.14050774 0.087192163 9.0902231e-42
0.9824332 0.14300774 0.087192163 8.7146751e-42
0.9799332 0.14050774 0.094692163 1.0529357e-41
0.9799332 0.14300774 0.094692163 8.7286881e-42
0.9824332 0.14050774 0.092192166 1.2309006e-41
0.9824332 0.14300774 0.092192166 1.1228605e-41
0.9849332 0.13800773 0.08969216 8.3769622e-42
0.9874332 0.13550773 0.087192163 8.7441024e-42
0.9874332 0.13800773 0.087192163 1.0886688e-41
0.9849332 0.13800773 0.094692163 3.7751541e-40
0.9874332 0.13800773 0.092192166 8.0168285e-42
0.9849332 0.14050774 0.08969216 8.3769622e-42
0.9849332 0.14300774 0.08969216 8.7286881e-42
0.9874332 0.14050774 0.087192163 1.0886688e-41
0.9874332 0.14300774 0.087192163 9.4433504e-42
0.9849332 0.14050774 0.092192166 1.1237012e-41
0.9849332 0.14050774 0.094692163 1.0516745e-41
0.9849332 0.14300774 0.092192166 9.0762102e-42
0.9849332 0.14300774 0.094692163 9.0762102e-42
0.9874332 0.14050774 0.092192166 1.0342423e-40
0.9874332 0.14300774 0.092192166 7.2783442e-42
0.98993319 0.13800773 0.084692165 1.1602751e-41
0.98993319 0.14050774 0.08219216 1.0526554e-41
0.98993319 0.14050774 0.084692165 1.1602751e-41
0.98993319 0.14300774 0.08219216 9.8132931e-42
0.98993319 0.14300774 0.084692165 1.0529357e-41
0.98993319 0.13550773 0.08969216 6.2217652e-42
0.98993319 0.13800773 0.087192163 9.8062867e-42
0.98993319 0.13800773 0.08969216 8.0084207e-42
0.98993319 0.13800773 0.092192166 8.009822e-42
0.98993319 0.14050774 0.08969216 1.088949e-41
0.97493321 0.12550774 0.097192161 2.8732812e-39
0.96993321 0.13800773 0.11469217 1.0523751e-41
0.97243321 0.13800773 0.11469217 1.088949e-41
0.97243321 0.14050774 0.11469217 9.4503568e-42
0.97493321 0.13800773 0.11469217 8.7286881e-42
0.9774332 0.13800773 0.11469217 2.8891691e-40
0.97493321 0.14050774 0.11219216 1.1962885e-41
0.97493321 0.14050774 0.11469217 8.7286881e-42
0.97493321 0.14300774 0.11219216 1.0529357e-41
0.97493321 0.14300774 0.11469217 1.0176229e-41
0.9774332 0.14050774 0.11469217 8.7286881e-42
0.9774332 0.14300774 0.11219216 1.1606955e-41
0.9774332 0.14300774 0.11469217 1.1255229e-41
0.95993322 0.13300774 0.12219217 4.4351755e-39
0.95993322 0.13300774 0.12469216 7.3821973e-39
0.96493322 0.13300774 0.12469216 7.2003494e-39
0.96743321 0.13300774 0.12469216 5.5393987e-39
0.96243322 0.13050774 0.12719217 5.0798597e-39
0.96243322 0.13300774 0.12719217 7.016321e-39
0.96493322 0.13050774 0.12719217 5.2613264e-39
0.96493322 0.13300774 0.12719217 7.1081635e-39
0.96743321 0.13050774 0.12969217 1.1512225e-38
0.96243322 0.13550773 0.11969216 7.6594974e-42
0.96243322 0.13550773 0.12219217 1.3055898e-41
0.96243322 0.13550773 0.12469216 2.1321261e-39
0.96493322 0.13550773 0.11969216 1.9853036e-40
0.96493322 0.13800773 0.11969216 6.2203639e-42
0.96743321 0.13800773 0.11969216 8.0140259e-42
0.96493322 0.13550773 0.12219217 2.4094332e-39
0.96493322 0.13550773 0.12469216 3.8838374e-39
0.96743321 0.13550773 0.12469216 4.0721747e-39
0.97493321 0.13050774 0.12469216 5.0744142e-39
0.97493321 0.13300774 0.12469216 3.9763988e-39
0.9774332 0.13050774 0.12469216 1.4648322e-38
0.9774332 0.13300774 0.12219217 6.083174e-39
0.9774332 0.13300774 0.12469216 1.8526469e-39
0.97243321 0.12800774 0.12719217 1.4002956e-38
0.96993321 0.13050774 0.12719217 5.4403255e-39
0.96993321 0.13300774 0.12719217 3.7927236e-39
0.97243321 0.13050774 0.12719217 1.1421478e-38
0.97243321 0.13300774 0.12719217 2.7735116e-39
0.9774332 0.13300774 0.12719217 6.5804976e-42
0.96993321 0.13800773 0.11719216 6.5804976e-42
0.97243321 0.13800773 0.11719216 9.4531594e-42
0.97243321 0.13800773 0.11969216 3.3505046e-42
0.96993321 0.13550773 0.12469216 4.4405817e-39
0.96993321 0.13800773 0.12219217 5.1441667e-42
0.96993321 0.13800773 0.12469216 9.4447516e-42
0.97243321 0.13800773 0.12219217 3.7022305e-42
0.97243321 0.14050774 0.11969216 9.0972296e-42
0.97243321 0.14050774 0.12219217 2.8459811e-40
0.97493321 0.13800773 0.11719216 2.8926724e-40
0.97493321 0.13550773 0.12469216 7.1114103e-39
0.97493321 0.13800773 0.12219217 9.4293374e-42
0.97493321 0.13800773 0.12469216 1.3757948e-41
0.9774332 0.13550773 0.12219217 7.1117663e-39
0.9774332 0.13550773 0.12469216 7.1999934e-39
0.9774332 0.13800773 0.12219217 5.4587035e-39
0.9774332 0.13800773 0.12469216 6.2870377e-39
0.97493321 0.14050774 0.11719216 9.8146944e-42
0.9774332 0.14050774 0.11969216 5.6082487e-40
0.9774332 0.14300774 0.11719216 1.0537764e-41
0.9774332 0.14050774 0.12219217 7.6426818e-42
0.97243321 0.13550773 0.12719217 5.2743123e-39
0.9774332 0.13550773 0.12719217 4.1593453e-39
0.9799332 0.13550773 0.097192161 9.4433504e-42
0.9799332 0.13800773 0.097192161 1.088949e-41
0.9824332 0.13550773 0.099692166 6.9434339e-42
0.9824332 0.13800773 0.099692166 8.3755609e-42
0.9799332 0.14050774 0.097192161 9.4433504e-42
0.9799332 0.14300774 0.097192161 8.3615479e-42
0.9824332 0.14050774 0.099692166 1.0235504e-40
0.9824332 0.14300774 0.099692166 9.080414e-42
0.9824332 0.14050774 0.10469216 1.0173427e-41
0.9849332 0.13550773 0.097192161 1.3409025e-41
0.9849332 0.13800773 0.097192161 7.6552935e-42
0.9874332 0.13800773 0.099692166 1.3061503e-41
0.9849332 0.13800773 0.10219216 7.300765e-42
0.9849332 0.13800773 0.10469216 4.7784278e-42
0.9849332 0.14050774 0.097192161 9.7992802e-42
0.9849332 0.14300774 0.097192161 7.2783442e-42
0.9874332 0.14050774 0.099692166 9.8090893e-42
0.9874332 0.14300774 0.099692166 1.0200472e-40
0.9849332 0.14050774 0.10219216 8.7286881e-42
0.9849332 0.14050774 0.10469216 9.8132931e-42
0.9849332 0.14300774 0.10219216 8.7286881e-42
0.9849332 0.14300774 0.10469216 9.4489555e-42
0.9824332 0.14050774 0.10719217 9.4573633e-42
0.9799332 0.14300774 0.11219216 3.7751541e-40
0.9799332 0.14300774 0.11469217 4.6971244e-40
0.9849332 0.14300774 0.10719217 1.088949e-41
0.9874332 0.14050774 0.10719217 8.3657518e-42
0.9824332 0.12800774 0.12469216 2.2580354e-38
0.9799332 0.13050774 0.12469216 1.4371e-38
0.9799332 0.13300774 0.12469216 2.4969177e-39
0.9824332 0.13050774 0.12469216 2.3493343e-38
0.9824332 0.13300774 0.12469216 1.4449888e-38
0.9799332 0.12800774 0.12719217 2.2673282e-38
0.9824332 0.12800774 0.12969217 2.1935706e-38
0.9799332 0.12800774 0.13469216 2.2395238e-38
0.9824332 0.12800774 0.13219216 2.193355e-38
0.9824332 0.12800774 0.13469216 2.3497982e-38
0.9799332 0.13050774 0.12719217 2.3494424e-38
0.9799332 0.13300774 0.12719217 1.4174744e-38
0.9824332 0.13050774 0.12969217 2.2761868e-38
0.9824332 0.13300774 0.12969217 1.8336478e-38
0.9799332 0.13050774 0.13469216 2.248997e-38
0.9824332 0.13050774 0.13219216 2.3038064e-38
0.9824332 0.13050774 0.13469216 2.3496932e-38
0.9824332 0.13300774 0.13219216 2.1378902e-38
0.9849332 0.12800774 0.12719217 2.2116502e-38
0.9849332 0.12800774 0.12969217 2.2209045e-38
0.9849332 0.12800774 0.13219216 2.2395963e-38
0.9849332 0.12800774 0.13469216 2.3496194e-38
0.9849332 0.13050774 0.12719217 2.3128487e-38
0.9849332 0.13050774 0.12969217 2.3406149e-38
0.9849332 0.13300774 0.12719217 1.8887487e-38
0.9849332 0.13300774 0.12969217 2.1285649e-38
0.9849332 0.13050774 0.13219216 2.2214462e-38
0.9849332 0.13050774 0.13469216 2.3497291e-38
0.9849332 0.13300774 0.13219216 2.2214462e-38
0.9849332 0.13300774 0.13469216 2.3496569e-38
0.9799332 0.13550773 0.12469216 7.5676773e-39
0.9799332 0.13800773 0.12469216 6.7451389e-39
0.9824332 0.13550773 0.12469216 4.0623642e-42
0.9824332 0.13800773 0.12469216 6.8286732e-39
0.9799332 0.14300774 0.11969216 8.3777189e-40
0.9824332 0.14300774 0.11719216 2.8748199e-40
0.9824332 0.14300774 0.11969216 2.8748199e-40
0.9799332 0.14050774 0.12469216 1.5213897e-41
0.9799332 0.14300774 0.12219217 1.1975497e-41
0.9824332 0.14050774 0.12469216 5.4457359e-39
0.9824332 0.14300774 0.12469216 9.1042361e-42
0.9849332 0.14300774 0.12219217 1.1265038e-41
0.9849332 0.14300774 0.12469216 9.8062867e-42
0.9874332 0.14300774 0.12469216 8.0154272e-42
0.9799332 0.13550773 0.12719217 3.601473e-39
0.9799332 0.13800773 0.12719217 6.6442791e-39
0.9799332 0.14050774 0.12719217 5.4457359e-39
0.9849332 0.13550773 0.12719217 1.1518792e-38
0.9849332 0.13550773 0.12969217 1.6032767e-38
0.9849332 0.13800773 0.12719217 1.3967092e-39
0.9849332 0.13800773 0.12969217 8.3615479e-42
0.9874332 0.13550773 0.12969217 4.3239222e-39
0.9874332 0.13800773 0.12969217 8.7174777e-42
0.9874332 0.13550773 0.13219216 2.1652728e-38
0.9874332 0.13800773 0.13219216 2.9875683e-42
0.9874332 0.13800773 0.13469216 2.9511037e-39
0.9849332 0.14050774 0.12719217 5.0816575e-39
0.9849332 0.14050774 0.12969217 5.6330138e-39
0.9849332 0.14300774 0.12719217 1.9513263e-39
0.9849332 0.14300774 0.12969217 6.2776826e-39
0.9874332 0.14300774 0.12719217 2.3226102e-39
0.9874332 0.14300774 0.12969217 5.6323146e-39
0.9874332 0.14050774 0.13219216 3.8077343e-40
0.9874332 0.14050774 0.13469216 1.2915824e-39
0.9874332 0.14300774 0.13219216 2.7706557e-39
0.9874332 0.14300774 0.13469216 9.1168478e-42
0.98993319 0.13550773 0.12969217 7.4582177e-39
0.98993319 0.13550773 0.13219216 1.0863695e-38
0.98993319 0.13800773 0.13219216 6.2077522e-42
0.98993319 0.14300774 0.12969217 2.6784601e-39
0.99243319 0.14050774 0.13219216 2.2128128e-39
0.99243319 0.14300774 0.13219216 1.1626573e-41
0.9774332 0.16800773 0.072192162 1.3062904e-41
0.9774332 0.17300774 0.069692165 1.1634981e-41
0.9774332 0.17050774 0.072192162 1.1629376e-41
0.9774332 0.17300774 0.072192162 1.2346841e-41
0.97243321 0.18050773 0.072192162 1.3418834e-41
0.97243321 0.18300773 0.072192162 1.2346841e-41
0.9774332 0.17550774 0.069692165 1.0194446e-41
0.9774332 0.17800774 0.069692165 1.0194446e-41
0.9774332 0.17550774 0.072192162 1.2346841e-41
0.9774332 0.17800774 0.072192162 1.1629376e-41
0.9774332 0.18050773 0.069692165 1.30587e-41
0.9774332 0.18300773 0.069692165 1.0184637e-41
0.97493321 0.18050773 0.07469216 1.3418834e-41
0.97493321 0.18300773 0.07469216 1.1982503e-41
0.9774332 0.18050773 0.072192162 1.2346841e-41
0.9774332 0.18300773 0.072192162 1.1986707e-41
0.9774332 0.17300774 0.077192165 1.163358e-41
0.9774332 0.17300774 0.079692163 1.1629376e-41
0.9774332 0.16800773 0.092192166 1.0544771e-41
0.9774332 0.17050774 0.092192166 1.1265038e-41
0.9774332 0.17300774 0.092192166 1.1985306e-41
0.97243321 0.18300773 0.08219216 1.1986707e-41
0.97243321 0.18300773 0.084692165 1.2342637e-41
0.9774332 0.17550774 0.077192165 1.1269242e-41
0.9774332 0.17550774 0.079692163 1.1269242e-41
0.9774332 0.17800774 0.077192165 1.1269242e-41
0.9774332 0.17800774 0.079692163 1.1269242e-41
0.9774332 0.18050773 0.077192165 1.0911911e-41
0.9774332 0.18050773 0.079692163 1.1269242e-41
0.9774332 0.18300773 0.077192165 1.1982503e-41
0.9774332 0.18300773 0.079692163 1.1267841e-41
0.97493321 0.18050773 0.08219216 1.2346841e-41
0.97493321 0.18300773 0.08219216 1.2346841e-41
0.9774332 0.18050773 0.08219216 1.1269242e-41
0.9774332 0.18050773 0.084692165 1.2342637e-41
0.9774332 0.18300773 0.08219216 1.1986707e-41
0.9774332 0.18300773 0.084692165 1.1265038e-41
0.97243321 0.18300773 0.094692163 1.1280453e-41
0.97493321 0.17800774 0.094692163 1.1974095e-41
0.9774332 0.17550774 0.092192166 1.1267841e-41
0.9774332 0.17800774 0.092192166 1.3055898e-41
0.9774332 0.17800774 0.094692163 1.2334229e-41
0.97493321 0.18050773 0.087192163 1.1982503e-41
0.97493321 0.18300773 0.087192163 1.1985306e-41
0.9774332 0.18050773 0.08969216 1.163358e-41
0.9774332 0.18300773 0.08969216 1.163358e-41
0.97493321 0.18050773 0.094692163 1.1626573e-41
0.97493321 0.18300773 0.094692163 1.2346841e-41
0.9774332 0.18050773 0.092192166 1.1269242e-41
0.9774332 0.18050773 0.094692163 1.1986707e-41
0.9774332 0.18300773 0.092192166 1.1986707e-41
0.9774332 0.18300773 0.094692163 1.2346841e-41
0.9824332 0.14550774 0.067192167 5.1399628e-42
0.9824332 0.14550774 0.072192162 7.2783442e-42
0.9824332 0.14550774 0.07469216 5.8462172e-42
0.9824332 0.14800774 0.07469216 5.1427654e-42
0.9849332 0.14550774 0.069692165 5.117542e-42
0.9849332 0.14800774 0.069692165 5.4958926e-42
0.9874332 0.14550774 0.067192167 8.3587453e-42
0.9874332 0.14550774 0.069692165 7.9972103e-42
0.9874332 0.14800774 0.067192167 6.2203639e-42
0.9874332 0.14800774 0.069692165 8.7286881e-42
0.9849332 0.14550774 0.07469216 6.5650833e-42
0.9849332 0.14800774 0.072192162 9.0902231e-42
0.9849332 0.14800774 0.07469216 5.5028991e-42
0.9874332 0.14800774 0.07469216 9.8062867e-42
0.9849332 0.15050773 0.069692165 8.3797648e-42
0.9874332 0.15050773 0.067192167 5.4958926e-42
0.9874332 0.15050773 0.069692165 8.3839687e-42
0.9874332 0.15300773 0.067192167 9.1000322e-42
0.9874332 0.15300773 0.069692165 9.1000322e-42
0.9849332 0.15050773 0.072192162 8.3797648e-42
0.9849332 0.15050773 0.07469216 8.3797648e-42
0.9849332 0.15300773 0.072192162 1.0540567e-41
0.9849332 0.15300773 0.07469216 1.0537764e-41
0.9874332 0.15050773 0.07469216 9.0972296e-42
0.9874332 0.15300773 0.07469216 9.1000322e-42
0.9824332 0.15800774 0.067192167 1.2338433e-41
0.9824332 0.15550774 0.072192162 1.1258032e-41
0.9824332 0.15550774 0.07469216 1.0897898e-41
0.9824332 0.15800774 0.072192162 1.0900701e-41
0.9824332 0.15800774 0.07469216 1.1258032e-41
0.9799332 0.16300774 0.069692165 1.2342637e-41
0.9824332 0.16050774 0.067192167 1.1619567e-41
0.9824332 0.16300774 0.067192167 1.1982503e-41
0.9824332 0.16050774 0.072192162 1.1265038e-41
0.9824332 0.16050774 0.07469216 1.2338433e-41
0.9824332 0.16300774 0.072192162 1.1982503e-41
0.9824332 0.16300774 0.07469216 1.2338433e-41
0.9849332 0.15550774 0.069692165 1.0540567e-41
0.9849332 0.15800774 0.069692165 1.1265038e-41
0.9874332 0.15550774 0.067192167 9.4615672e-42
0.9874332 0.15800774 0.067192167 1.0900701e-41
0.9849332 0.15550774 0.072192162 9.817497e-42
0.9849332 0.15550774 0.07469216 1.0897898e-41
0.9849332 0.15800774 0.072192162 1.1625172e-41
0.9849332 0.15800774 0.07469216 1.2338433e-41
0.9874332 0.15550774 0.07469216 1.1258032e-41
0.9874332 0.15800774 0.07469216 1.1982503e-41
0.9849332 0.16050774 0.069692165 1.1265038e-41
0.9849332 0.16300774 0.069692165 1.1262236e-41
0.9849332 0.16050774 0.072192162 1.1265038e-41
0.9849332 0.16050774 0.07469216 1.2338433e-41
0.9849332 0.16300774 0.07469216 1.2338433e-41
0.98993319 0.15050773 0.069692165 8.7441024e-42
0.98993319 0.15300773 0.069692165 9.1000322e-42
0.98993319 0.15300773 0.072192162 1.0536363e-41
0.9824332 0.14550774 0.079692163 7.2923572e-42
0.9849332 0.14550774 0.077192165 5.8462172e-42
0.9849332 0.14550774 0.079692163 6.925217e-42
0.9849332 0.14800774 0.077192165 5.1427654e-42
0.9849332 0.14800774 0.079692163 6.5790963e-42
0.9874332 0.14550774 0.079692163 6.1993444e-42
0.9874332 0.14800774 0.079692163 6.5804976e-42
0.9849332 0.14550774 0.08219216 7.2895546e-42
0.9874332 0.14550774 0.08219216 6.9364274e-42
0.9874332 0.14550774 0.084692165 8.3685544e-42
0.9874332 0.14800774 0.08219216 7.6566948e-42
0.9849332 0.15050773 0.077192165 8.7286881e-42
0.9849332 0.15050773 0.079692163 8.7398985e-42
0.9849332 0.15300773 0.077192165 1.1253828e-41
0.9849332 0.15300773 0.079692163 9.1000322e-42
0.9874332 0.15050773 0.079692163 8.023835e-42
0.9874332 0.15300773 0.079692163 8.7441024e-42
0.9874332 0.15050773 0.08219216 8.7412998e-42
0.9874332 0.15300773 0.08219216 9.4615672e-42
0.9874332 0.15300773 0.084692165 1.0897898e-41
0.9824332 0.14550774 0.087192163 8.3755609e-42
0.9824332 0.14550774 0.092192166 8.0210324e-42
0.9849332 0.14550774 0.08969216 9.0930257e-42
0.9874332 0.14550774 0.087192163 8.7314907e-42
0.9874332 0.14800774 0.087192163 8.7314907e-42
0.9849332 0.14550774 0.092192166 9.0874205e-42
0.9849332 0.14550774 0.094692163 9.8062867e-42
0.9849332 0.14800774 0.092192166 9.8062867e-42
0.9849332 0.14800774 0.094692163 1.0893694e-41
0.9874332 0.14550774 0.092192166 9.4573633e-42
0.9874332 0.14550774 0.094692163 9.0930257e-42
0.9874332 0.14800774 0.092192166 9.8062867e-42
0.9849332 0.15300773 0.08969216 1.1258032e-41
0.9874332 0.15050773 0.087192163 9.4643698e-42
0.9874332 0.15300773 0.087192163 1.0897898e-41
0.9849332 0.15050773 0.092192166 1.1253828e-41
0.9849332 0.15050773 0.094692163 1.1253828e-41
0.9849332 0.15300773 0.092192166 1.0897898e-41
0.9849332 0.15300773 0.094692163 1.1619567e-41
0.9874332 0.15050773 0.092192166 1.0896497e-41
0.9874332 0.15050773 0.094692163 1.1253828e-41
0.9874332 0.15300773 0.092192166 1.1972694e-41
0.9874332 0.15300773 0.094692163 1.1258032e-41
0.9824332 0.16050774 0.077192165 1.1982503e-41
0.9824332 0.16050774 0.079692163 1.1629376e-41
0.9824332 0.16300774 0.077192165 1.2338433e-41
0.9824332 0.16300774 0.079692163 1.2338433e-41
0.9824332 0.16300774 0.084692165 1.2346841e-41
0.9849332 0.15550774 0.077192165 1.1972694e-41
0.9849332 0.15550774 0.079692163 1.1974095e-41
0.9849332 0.15800774 0.077192165 1.0897898e-41
0.9849332 0.15800774 0.079692163 1.1258032e-41
0.9874332 0.15550774 0.079692163 1.1258032e-41
0.9874332 0.15800774 0.079692163 1.1625172e-41
0.9849332 0.15550774 0.08219216 1.1265038e-41
0.9849332 0.15800774 0.08219216 1.1629376e-41
0.9874332 0.15550774 0.08219216 1.0897898e-41
0.9874332 0.15550774 0.084692165 1.0897898e-41
0.9874332 0.15800774 0.08219216 1.0544771e-41
0.9874332 0.15800774 0.084692165 1.0550376e-41
0.9849332 0.16050774 0.077192165 1.1258032e-41
0.9849332 0.16050774 0.079692163 1.1619567e-41
0.9849332 0.16300774 0.077192165 1.2338433e-41
0.9849332 0.16300774 0.079692163 1.1619567e-41
0.9874332 0.16050774 0.079692163 1.1265038e-41
0.9849332 0.16050774 0.08219216 1.1262236e-41
0.9849332 0.16300774 0.08219216 1.1982503e-41
0.9874332 0.16050774 0.08219216 1.1265038e-41
0.9874332 0.16050774 0.084692165 1.0911911e-41
0.9874332 0.16300774 0.084692165 1.2338433e-41
0.9824332 0.16050774 0.087192163 1.0544771e-41
0.9824332 0.16300774 0.087192163 1.1265038e-41
0.9824332 0.16300774 0.08969216 1.0544771e-41
0.9799332 0.16050774 0.094692163 1.1982503e-41
0.9799332 0.16300774 0.094692163 1.1265038e-41
0.9824332 0.16050774 0.092192166 1.1982503e-41
0.9824332 0.16300774 0.092192166 1.0544771e-41
0.9849332 0.15550774 0.08969216 1.1619567e-41
0.9849332 0.15800774 0.08969216 1.0900701e-41
0.9874332 0.15550774 0.087192163 1.0897898e-41
0.9874332 0.15800774 0.087192163 1.0544771e-41
0.9849332 0.15550774 0.092192166 1.1258032e-41
0.9849332 0.15550774 0.094692163 1.1265038e-41
0.9849332 0.15800774 0.092192166 1.1258032e-41
0.9849332 0.15800774 0.094692163 1.1265038e-41
0.9874332 0.15550774 0.092192166 1.1972694e-41
0.9874332 0.15800774 0.092192166 1.1258032e-41
0.9849332 0.16050774 0.08969216 1.0544771e-41
0.9849332 0.16300774 0.08969216 1.0897898e-41
0.9874332 0.16050774 0.087192163 1.0544771e-41
0.9874332 0.16300774 0.087192163 1.2338433e-41
0.9849332 0.16050774 0.092192166 1.1265038e-41
0.9849332 0.16050774 0.094692163 1.1265038e-41
0.9849332 0.16300774 0.092192166 1.1972694e-41
0.9849332 0.16300774 0.094692163 1.1265038e-41
0.98993319 0.14550774 0.08219216 7.6566948e-42
0.98993319 0.14800774 0.08219216 7.2965611e-42
0.98993319 0.15300773 0.077192165 9.8132931e-42
0.98993319 0.15300773 0.079692163 9.8160957e-42
0.98993319 0.15050773 0.08219216 1.0173427e-41
0.98993319 0.15050773 0.084692165 9.8217009e-42
0.98993319 0.15300773 0.08219216 1.1253828e-41
0.98993319 0.15300773 0.084692165 1.0540567e-41
0.98993319 0.14800774 0.08969216 9.8062867e-42
0.98993319 0.15050773 0.08969216 8.7412998e-42
0.98993319 0.15300773 0.087192163 1.0184637e-41
0.98993319 0.15300773 0.08969216 1.2334229e-41
0.98993319 0.15050773 0.092192166 1.1972694e-41
0.98993319 0.15550774 0.077192165 1.0897898e-41
0.98993319 0.15550774 0.079692163 1.0897898e-41
0.98993319 0.15550774 0.08219216 1.1265038e-41
0.98993319 0.15800774 0.08219216 1.1262236e-41
0.98993319 0.16050774 0.08219216 1.1258032e-41
0.98993319 0.15550774 0.08969216 1.1972694e-41
0.98993319 0.15800774 0.08969216 1.0897898e-41
0.98993319 0.16050774 0.08969216 1.1265038e-41
0.9799332 0.16550773 0.067192167 1.0540567e-41
0.9799332 0.16550773 0.069692165 1.2338433e-41
0.9799332 0.16800773 0.067192167 9.4615672e-42
0.9799332 0.16800773 0.069692165 1.2698567e-41
0.9824332 0.16550773 0.067192167 1.3061503e-41
0.9799332 0.16800773 0.072192162 1.2346841e-41
0.9799332 0.16800773 0.07469216 1.1986707e-41
0.9824332 0.16550773 0.072192162 1.2695764e-41
0.9824332 0.16550773 0.07469216 1.1972694e-41
0.9824332 0.16800773 0.072192162 1.3055898e-41
0.9824332 0.16800773 0.07469216 1.1972694e-41
0.9799332 0.17050774 0.067192167 1.018744e-41
0.9799332 0.17050774 0.069692165 1.2342637e-41
0.9799332 0.17300774 0.067192167 9.4741789e-42
0.9799332 0.17300774 0.069692165 1.1629376e-41
0.9799332 0.17050774 0.072192162 1.2346841e-41
0.9799332 0.17050774 0.07469216 1.2346841e-41
0.9799332 0.17300774 0.072192162 1.1993714e-41
0.9799332 0.17300774 0.07469216 1.1996516e-41
0.9824332 0.17050774 0.072192162 1.2706974e-41
0.9824332 0.17050774 0.07469216 1.1982503e-41
0.9849332 0.16550773 0.07469216 1.1625172e-41
0.9849332 0.16800773 0.07469216 1.2346841e-41
0.9799332 0.17550774 0.067192167 8.3909752e-42
0.9799332 0.17800774 0.067192167 1.0909109e-41
0.9799332 0.17550774 0.072192162 1.1993714e-41
