# .PCD v0.7 - Point Cloud Data file format
VERSION 0.7
FIELDS x y z rgb
SIZE 4 4 4 4
TYPE F F F F
COUNT 1 1 1 1
WIDTH 1004
HEIGHT 1
VIEWPOINT 0 0 0 1 0 0 0
POINTS 1004
DATA ascii
0.83119863 0.17106128 0.076253772 4.725795e-40
0.83369863 0.17106128 0.076253772 1.0257533e-39
0.83369863 0.17356128 0.076253772 1.4111076e-41
0.83369863 0.17856127 0.068753779 1.3027872e-41
0.83369863 0.17856127 0.071253777 1.0239386e-39
0.83119863 0.17606127 0.076253772 1.3749541e-41
0.83119863 0.17856127 0.076253772 1.2320216e-41
0.83369863 0.17606127 0.076253772 1.4111076e-41
0.83369863 0.17856127 0.073753774 1.0239386e-39
0.83369863 0.17856127 0.076253772 1.3032076e-41
0.82119864 0.17856127 0.083753772 1.5832431e-39
0.82119864 0.17856127 0.086253777 2.6888647e-39
0.82369864 0.17856127 0.083753772 2.5023085e-39
0.82369864 0.17856127 0.086253777 1.1204698e-39
0.82369864 0.17856127 0.088753775 1.027568e-39
0.82369864 0.17856127 0.091253772 1.6725716e-39
0.82869864 0.16106127 0.083753772 3.6997769e-39
0.82869864 0.16356127 0.083753772 2.2260915e-39
0.82869864 0.16606128 0.083753772 2.040994e-39
0.82869864 0.16856128 0.083753772 1.6725716e-39
0.83119863 0.16106127 0.078753777 1.3019674e-39
0.83119863 0.16106127 0.081253774 2.9640097e-39
0.83119863 0.16356127 0.078753777 1.4838546e-39
0.83119863 0.16356127 0.081253774 1.7633183e-39
0.83369863 0.16106127 0.078753777 5.6801493e-40
0.83369863 0.16106127 0.081253774 3.5153856e-39
0.83369863 0.16356127 0.078753777 2.8664233e-39
0.83119863 0.16106127 0.083753772 2.5041077e-39
0.83119863 0.16106127 0.086253777 2.0140302e-40
0.83119863 0.16356127 0.083753772 2.0417003e-39
0.83119863 0.16356127 0.086253777 1.2123151e-39
0.83369863 0.16106127 0.083753772 2.7806946e-39
0.83369863 0.16106127 0.086253777 1.5223707e-41
0.83119863 0.16606128 0.078753777 1.7608016e-39
0.83119863 0.16606128 0.081253774 1.7633183e-39
0.83119863 0.16856128 0.078753777 1.2108676e-39
0.83119863 0.16856128 0.081253774 2.6834824e-39
0.83119863 0.16606128 0.083753772 1.3967064e-39
0.83119863 0.16606128 0.086253777 2.1306729e-39
0.83119863 0.16856128 0.083753772 1.3045108e-39
0.83119863 0.16856128 0.086253777 2.1306729e-39
0.82869864 0.16356127 0.088753775 1.2123151e-39
0.82869864 0.16606128 0.088753775 1.4881762e-39
0.82869864 0.16856128 0.088753775 2.131382e-39
0.83119863 0.16106127 0.088753775 3.8436496e-40
0.83119863 0.16106127 0.091253772 5.7198061e-40
0.83119863 0.16356127 0.088753775 1.6722185e-39
0.83119863 0.16356127 0.091253772 1.8569629e-39
0.83369863 0.16106127 0.088753775 2.5927301e-39
0.83369863 0.16106127 0.091253772 1.3063072e-39
0.83369863 0.16356127 0.088753775 2.040994e-39
0.83369863 0.16356127 0.091253772 2.9576366e-40
0.83119863 0.16106127 0.093753777 3.4260991e-39
0.83119863 0.16356127 0.093753777 2.9694425e-39
0.83119863 0.16356127 0.096253775 5.1785545e-39
0.83369863 0.16106127 0.093753777 4.7182854e-39
0.83369863 0.16106127 0.096253775 4.8144453e-39
0.83369863 0.16356127 0.093753777 5.2714592e-39
0.83369863 0.16356127 0.096253775 5.1832265e-39
0.83119863 0.16606128 0.088753775 1.9480823e-39
0.83119863 0.16606128 0.091253772 2.5909308e-39
0.83119863 0.16856128 0.088753775 2.6834796e-39
0.83119863 0.16856128 0.091253772 2.1328267e-39
0.83369863 0.16606128 0.088753775 2.1324736e-39
0.83369863 0.16606128 0.091253772 2.0610298e-41
0.83369863 0.16856128 0.088753775 2.775678e-39
0.83369863 0.16856128 0.091253772 1.9531298e-41
0.83119863 0.16606128 0.093753777 3.5226107e-39
0.83119863 0.16606128 0.096253775 5.36258e-39
0.83119863 0.16856128 0.093753777 3.6155294e-39
0.83119863 0.16856128 0.096253775 4.6279017e-39
0.83369863 0.16606128 0.093753777 5.6391641e-39
0.83369863 0.16606128 0.096253775 5.7338821e-39
0.83369863 0.16856128 0.093753777 5.9164755e-39
0.83369863 0.16856128 0.096253775 4.9041284e-39
0.82869864 0.17106128 0.081253774 1.857316e-39
0.82869864 0.17356128 0.081253774 2.2250195e-39
0.82869864 0.17106128 0.083753772 8.4460322e-40
0.82869864 0.17106128 0.086253777 6.6021336e-40
0.82869864 0.17356128 0.083753772 9.3752332e-40
0.82869864 0.17356128 0.086253777 1.027568e-39
0.82619864 0.17606127 0.081253774 2.595953e-39
0.82619864 0.17856127 0.078753777 1.2330025e-41
0.82869864 0.17606127 0.081253774 2.778915e-39
0.82869864 0.17856127 0.081253774 2.0435009e-39
0.82619864 0.17606127 0.083753772 2.9633076e-39
0.82619864 0.17856127 0.086253777 4.7510044e-40
0.82869864 0.17606127 0.083753772 2.0177016e-40
0.82869864 0.17606127 0.086253777 1.4835547e-41
0.83119863 0.17106128 0.078753777 2.0391793e-39
0.83119863 0.17106128 0.081253774 1.8573132e-39
0.83119863 0.17356128 0.078753777 2.4094094e-39
0.83119863 0.17356128 0.081253774 3.054776e-39
0.83119863 0.17356128 0.083753772 1.0279211e-39
0.83119863 0.17356128 0.086253777 1.857316e-39
0.83119863 0.17606127 0.078753777 2.4094094e-39
0.83119863 0.17606127 0.081253774 2.8707449e-39
0.83119863 0.17606127 0.083753772 1.0919198e-40
0.83119863 0.17606127 0.086253777 2.1338959e-39
0.82869864 0.17106128 0.088753775 2.2235776e-39
0.82869864 0.17356128 0.088753775 1.6725716e-39
0.82619864 0.17856127 0.088753775 2.040994e-39
0.82619864 0.17856127 0.091253772 1.1219174e-39
0.82869864 0.17606127 0.088753775 2.1338959e-39
0.82869864 0.17856127 0.091253772 1.5825368e-39
0.82619864 0.17856127 0.093753777 2.0402906e-39
0.82869864 0.17856127 0.093753777 2.4969737e-41
0.82869864 0.17856127 0.096253775 5.1832237e-39
0.83119863 0.17106128 0.091253772 2.6834824e-39
0.83119863 0.17356128 0.088753775 2.5941552e-39
0.83119863 0.17356128 0.091253772 1.9480823e-39
0.83369863 0.17106128 0.091253772 2.0247362e-41
0.83369863 0.17356128 0.088753775 2.3154173e-39
0.83369863 0.17356128 0.091253772 2.0265578e-41
0.83119863 0.17106128 0.093753777 3.6155294e-39
0.83119863 0.17106128 0.096253775 4.3495197e-39
0.83119863 0.17356128 0.093753777 4.0783026e-39
0.83369863 0.17106128 0.093753777 5.9164755e-39
0.83369863 0.17106128 0.096253775 4.8119328e-39
0.83369863 0.17356128 0.093753777 6.744088e-39
0.83369863 0.17356128 0.096253775 3.7055993e-39
0.83119863 0.17606127 0.088753775 2.1328267e-39
0.83119863 0.17606127 0.091253772 1.4874755e-39
0.83369863 0.17606127 0.088753775 1.3949212e-39
0.83369863 0.17606127 0.091253772 2.2070451e-41
0.83119863 0.17606127 0.093753777 5.366173e-39
0.83119863 0.17856127 0.093753777 3.9879301e-39
0.83369863 0.16356127 0.098753773 6.0086711e-39
0.83369863 0.16356127 0.10125378 3.9811001e-39
0.83369863 0.16606128 0.098753773 5.8253561e-39
0.83369863 0.16606128 0.10125378 3.1556527e-39
0.83369863 0.16856128 0.098753773 4.7197316e-39
0.83369863 0.17106128 0.098753773 4.4431433e-39
0.85119861 0.10856128 0.073753774 2.9578804e-39
0.85119861 0.10856128 0.076253772 2.9611398e-39
0.85369861 0.10606127 0.073753774 3.5992673e-39
0.85369861 0.10856128 0.073753774 2.773129e-39
0.85369861 0.10856128 0.076253772 3.8834296e-39
0.85369861 0.11106128 0.071253777 2.9578804e-39
0.85369861 0.11356127 0.071253777 2.3143243e-39
0.85119861 0.11106128 0.073753774 2.8656834e-39
0.85119861 0.11106128 0.076253772 2.4079661e-39
0.85119861 0.11356127 0.073753774 2.864624e-39
0.85119861 0.11356127 0.076253772 2.5901881e-39
0.85369861 0.11606128 0.071253777 2.4072262e-39
0.85369861 0.11856128 0.071253777 2.222479e-39
0.85119861 0.11606128 0.073753774 2.956821e-39
0.85119861 0.11606128 0.076253772 2.3161264e-39
0.85119861 0.11856128 0.076253772 2.8649799e-39
0.84369862 0.11356127 0.086253777 3.5157584e-39
0.84369862 0.11606128 0.083753772 3.1484052e-39
0.84369862 0.11606128 0.086253777 3.3320832e-39
0.84369862 0.11856128 0.083753772 3.7901746e-39
0.84369862 0.11856128 0.086253777 3.6994237e-39
0.84369862 0.11106128 0.091253772 3.148408e-39
0.84369862 0.11356127 0.091253772 3.3306454e-39
0.84119862 0.11856128 0.088753775 3.4239187e-39
0.84369862 0.11606128 0.091253772 2.4926297e-41
0.84369862 0.11856128 0.088753775 3.4242816e-39
0.84369862 0.11856128 0.091253772 1.1856246e-40
0.84619862 0.10856128 0.081253774 3.7937718e-39
0.84869862 0.10856128 0.078753777 3.1466031e-39
0.84619862 0.10606127 0.086253777 4.0700069e-39
0.84619862 0.10856128 0.086253777 3.9767365e-39
0.84869862 0.10856128 0.083753772 4.2525975e-39
0.85369861 0.10106128 0.078753777 1.2531438e-38
0.85369861 0.10356127 0.078753777 4.9897968e-39
0.85119861 0.10106128 0.086253777 5.1770804e-39
0.85119861 0.10356127 0.083753772 3.6072281e-39
0.85119861 0.10356127 0.086253777 2.5956027e-39
0.85369861 0.10106128 0.083753772 1.4098764e-38
0.85369861 0.10106128 0.086253777 1.5113619e-38
0.85369861 0.10356127 0.083753772 5.4511407e-39
0.85369861 0.10356127 0.086253777 3.6994265e-39
0.85119861 0.10856128 0.078753777 3.8852443e-39
0.85369861 0.10606127 0.078753777 3.3320705e-39
0.85369861 0.10606127 0.081253774 3.7919781e-39
0.85369861 0.10856128 0.078753777 4.3451463e-39
0.85369861 0.10856128 0.081253774 3.7019419e-39
0.85119861 0.10606127 0.083753772 4.2525975e-39
0.85119861 0.10606127 0.086253777 3.332086e-39
0.85369861 0.10606127 0.083753772 3.1484178e-39
0.85369861 0.10606127 0.086253777 3.241691e-39
0.84619862 0.10856128 0.088753775 3.6079568e-39
0.84619862 0.10856128 0.091253772 3.2424155e-39
0.84869862 0.10606127 0.088753775 4.069651e-39
0.84869862 0.10606127 0.091253772 3.7930739e-39
0.84869862 0.10856128 0.091253772 3.1505912e-39
0.84869862 0.10856128 0.093753777 3.4271963e-39
0.84869862 0.10856128 0.096253775 5.8246148e-39
0.85119861 0.10106128 0.088753775 1.5480975e-38
0.85119861 0.10106128 0.091253772 1.7504945e-38
0.85119861 0.10356127 0.088753775 3.8791487e-39
0.85119861 0.10356127 0.091253772 5.3477992e-39
0.85369861 0.10106128 0.091253772 1.7231954e-38
0.85369861 0.10356127 0.091253772 5.0708549e-39
0.85119861 0.10106128 0.093753777 1.134159e-38
0.85119861 0.10106128 0.096253775 1.3737599e-38
0.85119861 0.10356127 0.093753777 2.5037672e-39
0.85119861 0.10356127 0.096253775 6.4541425e-39
0.85369861 0.10106128 0.093753777 1.7600377e-38
0.85369861 0.10106128 0.096253775 1.4290771e-38
0.85369861 0.10356127 0.093753777 5.4381983e-39
0.85369861 0.10356127 0.096253775 5.9052889e-39
0.85119861 0.10606127 0.088753775 2.9629545e-39
0.85119861 0.10606127 0.091253772 2.6860005e-39
0.85369861 0.10606127 0.091253772 1.7672868e-39
0.85119861 0.10606127 0.093753777 3.6104749e-39
0.85119861 0.10606127 0.096253775 7.1106677e-39
0.85119861 0.10856128 0.096253775 7.0213433e-39
0.85369861 0.10606127 0.093753777 3.3313671e-39
0.85369861 0.10606127 0.096253775 7.8468034e-39
0.84619862 0.11106128 0.081253774 3.4249878e-39
0.84619862 0.11356127 0.081253774 3.5164674e-39
0.84869862 0.11106128 0.078753777 1.9484186e-39
0.84869862 0.11356127 0.078753777 1.9462775e-39
0.84619862 0.11106128 0.083753772 3.5168303e-39
0.84619862 0.11106128 0.086253777 3.5157584e-39
0.84619862 0.11356127 0.083753772 3.4246347e-39
0.84619862 0.11356127 0.086253777 3.4246347e-39
0.84869862 0.11106128 0.083753772 4.2525975e-39
0.84619862 0.11606128 0.078753777 2.6845515e-39
0.84619862 0.11606128 0.081253774 3.1484052e-39
0.84619862 0.11856128 0.078753777 3.6968902e-39
0.84869862 0.11606128 0.078753777 2.1313778e-39
0.84869862 0.11856128 0.078753777 2.5912839e-39
0.84619862 0.11606128 0.083753772 3.4246319e-39
0.84619862 0.11856128 0.083753772 3.6072281e-39
0.84619862 0.11106128 0.088753775 3.6076065e-39
0.84619862 0.11106128 0.091253772 1.0372748e-39
0.84619862 0.11356127 0.088753775 3.6076065e-39
0.84619862 0.11356127 0.091253772 4.8410098e-40
0.84869862 0.11106128 0.091253772 4.2587338e-39
0.84869862 0.11356127 0.091253772 4.5353207e-39
0.84619862 0.11106128 0.093753777 4.1658123e-39
0.84619862 0.11106128 0.096253775 6.0064907e-39
0.84619862 0.11356127 0.093753777 4.8122831e-39
0.84619862 0.11356127 0.096253775 6.4678584e-39
0.84869862 0.11106128 0.093753777 5.4537023e-39
0.84869862 0.11106128 0.096253775 5.4572966e-39
0.84869862 0.11356127 0.093753777 5.5458979e-39
0.84869862 0.11356127 0.096253775 4.5353403e-39
0.84619862 0.11606128 0.088753775 3.332086e-39
0.84619862 0.11606128 0.091253772 2.5645163e-41
0.84619862 0.11856128 0.088753775 3.6994293e-39
0.84619862 0.11856128 0.091253772 2.4566163e-41
0.84869862 0.11606128 0.091253772 5.0906623e-39
0.84869862 0.11856128 0.091253772 5.7338667e-39
0.84619862 0.11606128 0.093753777 5.5494726e-39
0.84619862 0.11606128 0.096253775 7.9422626e-39
0.84619862 0.11856128 0.093753777 6.3792361e-39
0.84619862 0.11856128 0.096253775 8.2188495e-39
0.84869862 0.11606128 0.093753777 7.0210322e-39
0.84869862 0.11606128 0.096253775 6.4682087e-39
0.84869862 0.11856128 0.093753777 7.2994071e-39
0.84869862 0.11856128 0.096253775 6.3760131e-39
0.85119861 0.11106128 0.096253775 7.2007305e-39
0.85119861 0.11356127 0.096253775 6.37133e-39
0.85369861 0.11356127 0.096253775 8.4391799e-40
0.85119861 0.11606128 0.093753777 6.9309848e-39
0.85119861 0.11606128 0.096253775 6.462441e-39
0.85119861 0.11856128 0.093753777 6.2856181e-39
0.85119861 0.11856128 0.096253775 5.3607668e-39
0.85369861 0.11606128 0.096253775 2.0367032e-39
0.84119862 0.13356127 0.076253772 1.8519014e-39
0.84369862 0.13106127 0.076253772 2.0345102e-39
0.84369862 0.13356127 0.076253772 2.0345102e-39
0.84119862 0.13606128 0.076253772 2.3114544e-39
0.84119862 0.13856128 0.076253772 1.8529944e-39
0.84369862 0.13606128 0.076253772 2.0348661e-39
0.84369862 0.13856128 0.073753774 1.3927379e-39
0.85369861 0.12356128 0.066253774 1.7593498e-39
0.85369861 0.12606128 0.066253774 1.7593498e-39
0.85369861 0.12856127 0.066253774 2.2167253e-39
0.84869862 0.12356128 0.076253772 2.6849047e-39
0.84619862 0.12856127 0.076253772 1.1183146e-39
0.84869862 0.12606128 0.073753774 1.76404e-39
0.84869862 0.12606128 0.076253772 2.7785436e-39
0.84869862 0.12856127 0.073753774 1.2108676e-39
0.84869862 0.12856127 0.076253772 1.8576663e-39
0.85369861 0.12106127 0.071253777 2.3114516e-39
0.85369861 0.12356128 0.071253777 2.129933e-39
0.85119861 0.12106127 0.073753774 2.3114516e-39
0.85119861 0.12106127 0.076253772 2.4961988e-39
0.85119861 0.12356128 0.073753774 2.1302834e-39
0.85119861 0.12356128 0.076253772 2.1317309e-39
0.85119861 0.12606128 0.068753779 1.6685863e-39
0.85119861 0.12606128 0.071253777 1.7622239e-39
0.85119861 0.12856127 0.068753779 1.8515511e-39
0.85119861 0.12856127 0.071253777 1.7622239e-39
0.85369861 0.12606128 0.071253777 1.7622239e-39
0.85119861 0.12606128 0.073753774 2.222479e-39
0.85369861 0.13106127 0.066253774 1.483842e-39
0.85369861 0.13356127 0.066253774 1.2994493e-39
0.85119861 0.13856128 0.066253774 5.6368352e-40
0.85369861 0.13606128 0.066253774 1.2994493e-39
0.85369861 0.13856128 0.063753776 8.391886e-40
0.85369861 0.13856128 0.066253774 1.3916463e-39
0.84869862 0.13356127 0.071253777 1.6700269e-39
0.84619862 0.13106127 0.073753774 1.8511979e-39
0.84619862 0.13106127 0.076253772 7.5131178e-40
0.84619862 0.13356127 0.073753774 1.4859957e-39
0.84869862 0.13106127 0.073753774 2.0355906e-39
0.84869862 0.13606128 0.071253777 1.8515511e-39
0.84869862 0.13856128 0.068753779 1.483842e-39
0.84869862 0.13856128 0.071253777 1.3930911e-39
0.84619862 0.13856128 0.073753774 1.3005423e-39
0.85119861 0.13106127 0.068753779 1.8515511e-39
0.85119861 0.13356127 0.068753779 1.8515511e-39
0.84369862 0.12356128 0.081253774 3.0551263e-39
0.84369862 0.12106127 0.083753772 3.607584e-39
0.84369862 0.12106127 0.086253777 3.3324391e-39
0.84369862 0.12356128 0.083753772 3.3309986e-39
0.84369862 0.12356128 0.086253777 3.3324391e-39
0.84119862 0.12606128 0.081253774 3.1473248e-39
0.84119862 0.12856127 0.081253774 3.3306454e-39
0.84369862 0.12606128 0.078753777 2.7785436e-39
0.84369862 0.12606128 0.081253774 2.7785436e-39
0.84369862 0.12856127 0.078753777 2.9614958e-39
0.84119862 0.12606128 0.086253777 3.148408e-39
0.84119862 0.12856127 0.086253777 2.9643824e-39
0.84369862 0.12606128 0.083753772 2.9647328e-39
0.84369862 0.12606128 0.086253777 3.3324391e-39
0.84369862 0.12856127 0.083753772 3.1476989e-39
0.84369862 0.12856127 0.086253777 3.4232152e-39
0.83869863 0.12606128 0.088753775 3.1480548e-39
0.84119862 0.12106127 0.088753775 3.332086e-39
0.84119862 0.12356128 0.088753775 3.1480548e-39
0.84369862 0.12106127 0.088753775 3.0555033e-39
0.84369862 0.12106127 0.091253772 1.3135127e-39
0.84369862 0.12356128 0.088753775 2.7799912e-39
0.84369862 0.12356128 0.091253772 3.1473514e-39
0.84119862 0.12606128 0.088753775 2.7814303e-39
0.84119862 0.12606128 0.091253772 2.8696911e-39
0.84119862 0.12856127 0.088753775 2.7814359e-39
0.84119862 0.12856127 0.091253772 3.9778337e-39
0.84369862 0.12606128 0.088753775 2.0449499e-39
0.84369862 0.12856127 0.088753775 1.9531172e-39
0.84369862 0.12856127 0.091253772 3.792718e-39
0.84119862 0.12606128 0.093753777 2.4180862e-39
0.84119862 0.12856127 0.093753777 3.9828882e-39
0.84369862 0.12606128 0.096253775 6.4717989e-39
0.84369862 0.12856127 0.096253775 5.8285931e-39
0.83869863 0.13356127 0.083753772 2.9654586e-39
0.83869863 0.13606128 0.083753772 2.9654586e-39
0.83869863 0.13856128 0.083753772 2.9647328e-39
0.84119862 0.13106127 0.081253774 3.0562095e-39
0.84119862 0.13356127 0.078753777 1.1183174e-39
0.84119862 0.13356127 0.081253774 2.5055525e-39
0.84369862 0.13106127 0.078753777 2.4112059e-39
0.84369862 0.13356127 0.078753777 2.7803443e-39
0.84119862 0.13356127 0.086253777 1.5875773e-39
0.84369862 0.13106127 0.083753772 3.6072281e-39
0.84369862 0.13106127 0.086253777 3.1484052e-39
0.84369862 0.13356127 0.083753772 3.5150325e-39
0.84369862 0.13356127 0.086253777 3.1484052e-39
0.84119862 0.13606128 0.078753777 7.513342e-40
0.84119862 0.13606128 0.081253774 2.7817806e-39
0.84119862 0.13856128 0.078753777 1.6711227e-39
0.84119862 0.13856128 0.081253774 2.9640125e-39
0.84119862 0.13606128 0.086253777 1.0740953e-40
0.84119862 0.13856128 0.086253777 1.5219503e-41
0.84369862 0.13606128 0.083753772 1.5567025e-41
0.84119862 0.13106127 0.091253772 4.4373643e-39
0.84119862 0.13356127 0.088753775 2.5977551e-39
0.84119862 0.13356127 0.091253772 3.52008e-39
0.84369862 0.13106127 0.088753775 1.4924922e-39
0.84369862 0.13106127 0.091253772 4.6199535e-39
0.84369862 0.13356127 0.088753775 1.3999462e-39
0.84369862 0.13356127 0.091253772 5.3575186e-39
0.84119862 0.13106127 0.093753777 4.2594597e-39
0.84119862 0.13356127 0.093753777 3.9853895e-39
0.84119862 0.13356127 0.096253775 5.7353128e-39
0.84369862 0.13106127 0.096253775 6.3796018e-39
0.84369862 0.13356127 0.096253775 5.73531e-39
0.84119862 0.13606128 0.088753775 2.4094038e-39
0.84119862 0.13606128 0.091253772 2.6903193e-39
0.84119862 0.13856128 0.088753775 1.9477264e-39
0.84369862 0.13606128 0.088753775 3.8579568e-40
0.84369862 0.13606128 0.091253772 2.8707575e-39
0.84369862 0.13856128 0.088753775 1.8093566e-41
0.84369862 0.13856128 0.091253772 2.8725624e-39
0.84119862 0.13606128 0.093753777 3.3400201e-39
0.84119862 0.13606128 0.096253775 6.1037352e-39
0.84369862 0.13606128 0.096253775 6.0118955e-39
0.84619862 0.12106127 0.078753777 3.6046946e-39
0.84619862 0.12106127 0.081253774 2.9647328e-39
0.84619862 0.12356128 0.078753777 3.0536914e-39
0.84869862 0.12106127 0.078753777 2.686348e-39
0.84869862 0.12356128 0.078753777 2.686348e-39
0.84619862 0.12606128 0.078753777 2.7785436e-39
0.84619862 0.12856127 0.078753777 2.5034015e-39
0.84619862 0.12106127 0.088753775 3.4239285e-39
0.84619862 0.12106127 0.091253772 7.6106341e-40
0.84619862 0.12356128 0.088753775 3.1477017e-39
0.84619862 0.12356128 0.091253772 1.4057084e-39
0.84869862 0.12356128 0.091253772 6.1015744e-39
0.84619862 0.12106127 0.093753777 6.2859657e-39
0.84619862 0.12106127 0.096253775 8.4032338e-39
0.84619862 0.12356128 0.093753777 6.0111766e-39
0.84619862 0.12356128 0.096253775 7.574199e-39
0.84869862 0.12106127 0.093753777 7.6663988e-39
0.84869862 0.12106127 0.096253775 5.5476972e-39
0.84869862 0.12356128 0.093753777 7.7578644e-39
0.84869862 0.12356128 0.096253775 4.6257367e-39
0.84619862 0.12856127 0.088753775 1.6768904e-39
0.84619862 0.12856127 0.091253772 3.8006423e-39
0.84869862 0.12856127 0.091253772 5.3697701e-39
0.84619862 0.12606128 0.093753777 6.5643504e-39
0.84619862 0.12856127 0.093753777 5.3697701e-39
0.84869862 0.12606128 0.093753777 7.4823565e-39
0.85119861 0.12356128 0.093753777 4.3498729e-39
0.85119861 0.12606128 0.093753777 7.2994127e-39
0.84619862 0.13106127 0.078753777 3.0547732e-39
0.84619862 0.13106127 0.088753775 1.0322343e-39
0.84619862 0.13356127 0.088753775 1.4932124e-39
0.84619862 0.13106127 0.093753777 6.4717989e-39
0.84619862 0.13606128 0.088753775 3.8436216e-40
0.84619862 0.13856128 0.088753775 1.7373298e-41
0.85869861 0.10856128 0.066253774 3.5974849e-39
0.8611986 0.10606127 0.066253774 5.465064e-44
0.8611986 0.10856128 0.066253774 7.3942176e-40
0.8636986 0.10606127 0.066253774 3.3631163e-44
0.8636986 0.10856128 0.063753776 1.1082001e-39
0.85869861 0.10356127 0.071253777 2.9538979e-39
0.85619861 0.10106128 0.073753774 1.1331488e-38
0.85619861 0.10106128 0.076253772 1.1699898e-38
0.85619861 0.10356127 0.073753774 5.0805659e-39
0.85619861 0.10356127 0.076253772 4.5277397e-39
0.85869861 0.10106128 0.073753774 1.1516588e-38
0.85869861 0.10356127 0.073753774 5.1713098e-39
0.85619861 0.10606127 0.071253777 1.8525166e-42
0.85619861 0.10856128 0.068753779 3.1390249e-39
0.85619861 0.10856128 0.071253777 3.2312205e-39
0.85869861 0.10606127 0.071253777 3.5992673e-39
0.85619861 0.10606127 0.073753774 4.0653224e-39
0.85619861 0.10606127 0.076253772 3.9749246e-39
0.85869861 0.10606127 0.073753774 3.8827234e-39
0.8611986 0.10356127 0.071253777 3.2326246e-39
0.8636986 0.10356127 0.068753779 3.1397255e-39
0.85869861 0.11106128 0.066253774 2.3132299e-39
0.85869861 0.11356127 0.066253774 2.4054255e-39
0.85619861 0.11856128 0.066253774 2.4007564e-39
0.85869861 0.11606128 0.066253774 2.3128739e-39
0.85869861 0.11856128 0.066253774 2.1284897e-39
0.8611986 0.11106128 0.066253774 3.413451e-39
0.85619861 0.11106128 0.068753779 2.4969023e-39
0.85619861 0.11356127 0.068753779 2.4969023e-39
0.85619861 0.11356127 0.071253777 2.8653303e-39
0.85619861 0.11606128 0.068753779 2.1288428e-39
0.85619861 0.11606128 0.071253777 2.7731346e-39
0.85619861 0.11856128 0.068753779 1.762577e-39
0.85619861 0.11856128 0.071253777 2.7724256e-39
0.8661986 0.10356127 0.066253774 1.1878528e-38
0.86869866 0.10356127 0.063753776 1.1879607e-38
0.8661986 0.10606127 0.063753776 6.0255834e-44
0.86869866 0.10606127 0.063753776 2.7691479e-39
0.87119865 0.10356127 0.066253774 1.1514788e-38
0.85619861 0.10106128 0.081253774 1.3732483e-38
0.85619861 0.10356127 0.081253774 5.1731119e-39
0.85869861 0.10106128 0.078753777 1.2347773e-38
0.85869861 0.10106128 0.081253774 1.3824325e-38
0.85869861 0.10356127 0.078753777 4.8972481e-39
0.85619861 0.10106128 0.083753772 1.4745187e-38
0.85619861 0.10106128 0.086253777 1.511219e-38
0.85619861 0.10356127 0.083753772 5.6355348e-39
0.85869861 0.10106128 0.083753772 1.4745193e-38
0.85619861 0.10606127 0.081253774 3.2413225e-39
0.85869861 0.10606127 0.078753777 3.9752904e-39
0.85619861 0.10106128 0.088753775 1.7139387e-38
0.85619861 0.10106128 0.091253772 1.7232304e-38
0.85619861 0.10106128 0.093753777 1.8062785e-38
0.85619861 0.10106128 0.096253775 1.3372775e-38
0.85619861 0.10356127 0.093753777 6.1775528e-39
0.85619861 0.10356127 0.096253775 6.0889697e-39
0.85619861 0.12106127 0.066253774 1.6685863e-39
0.85619861 0.12356128 0.063753776 1.1168377e-39
0.85619861 0.12356128 0.066253774 1.5763907e-39
0.85869861 0.12106127 0.066253774 2.0362927e-39
0.85619861 0.12606128 0.063753776 1.024642e-39
0.85619861 0.12606128 0.066253774 1.7593498e-39
0.85619861 0.12856127 0.063753776 8.3989766e-40
0.85619861 0.12106127 0.068753779 1.4859957e-39
0.85619861 0.12106127 0.071253777 1.9462648e-39
0.85619861 0.12356128 0.068753779 1.4859957e-39
0.85619861 0.13106127 0.063753776 1.0242889e-39
0.84869862 0.10856128 0.10125378 6.8326556e-39
0.85369861 0.10356127 0.098753773 4.7121534e-39
0.85119861 0.10606127 0.10125378 6.1941386e-39
0.85119861 0.10856128 0.098753773 8.2148642e-39
0.85119861 0.10856128 0.10125378 4.350226e-39
0.85369861 0.10606127 0.098753773 7.938999e-39
0.85369861 0.10856128 0.10125378 6.1019373e-39
0.85119861 0.10606127 0.10375378 7.0195804e-39
0.85119861 0.10606127 0.10625377 5.7317157e-39
0.85119861 0.10856128 0.10375378 4.5302984e-39
0.85119861 0.10856128 0.10625377 3.3346293e-39
0.85369861 0.10856128 0.10375378 6.8366213e-39
0.85369861 0.10856128 0.10625377 3.7923705e-39
0.85119861 0.10106128 0.11125378 6.7246323e-39
0.85119861 0.10356127 0.11125378 2.9037567e-40
0.85369861 0.10106128 0.10875378 6.359077e-39
0.85369861 0.10106128 0.11125378 1.834378e-38
0.85369861 0.10356127 0.10875378 3.8471809e-40
0.85369861 0.10356127 0.11125378 1.4853764e-41
0.85119861 0.10106128 0.11375377 7.002294e-39
0.85119861 0.10356127 0.11375377 1.3778968e-41
0.85369861 0.10106128 0.11375377 1.8896587e-38
0.85369861 0.10106128 0.11625378 1.9539794e-38
0.85369861 0.10356127 0.11375377 1.4134898e-41
0.85369861 0.10356127 0.11625378 1.2692961e-41
0.85119861 0.10606127 0.11125378 4.161146e-39
0.85119861 0.10856128 0.11125378 2.5019848e-39
0.85369861 0.10606127 0.10875378 3.8870814e-39
0.85369861 0.10606127 0.11125378 3.5154234e-39
0.85369861 0.10856128 0.10875378 2.2275587e-39
0.85369861 0.10856128 0.11125378 2.132489e-39
0.85119861 0.10856128 0.11375377 1.8548133e-39
0.85369861 0.10606127 0.11375377 3.2395652e-39
0.85369861 0.10856128 0.11375377 1.395654e-39
0.85369861 0.10856128 0.11625378 1.2119746e-39
0.84869862 0.11106128 0.098753773 6.3723964e-39
0.84869862 0.11106128 0.10125378 3.5208128e-39
0.84869862 0.11356127 0.098753773 6.9234163e-39
0.84869862 0.11356127 0.10125378 1.301994e-39
0.84869862 0.11106128 0.10375378 3.4282473e-39
0.84869862 0.11106128 0.10625377 2.9672733e-39
0.84869862 0.11356127 0.10625377 1.9480795e-39
0.84869862 0.11606128 0.098753773 5.1763769e-39
0.84869862 0.11856128 0.098753773 4.8994313e-39
0.85119861 0.11106128 0.098753773 4.2587562e-39
0.85119861 0.11106128 0.10125378 3.6126427e-39
0.85119861 0.11356127 0.098753773 1.0995288e-40
0.85119861 0.11356127 0.10125378 2.0406311e-39
0.85369861 0.11106128 0.10125378 3.2438588e-39
0.85369861 0.11356127 0.098753773 1.5782208e-39
0.85369861 0.11356127 0.10125378 2.1328267e-39
0.85119861 0.11106128 0.10375378 2.4166233e-39
0.85119861 0.11106128 0.10625377 2.3219067e-39
0.85119861 0.11356127 0.10375378 2.0406311e-39
0.85119861 0.11356127 0.10625377 1.4881762e-39
0.85369861 0.11106128 0.10625377 2.1349945e-39
0.85369861 0.11356127 0.10375378 2.2221525e-39
0.85369861 0.11356127 0.10625377 1.6704164e-39
0.85119861 0.11606128 0.098753773 1.4860504e-39
0.84619862 0.11356127 0.11125378 1.670422e-39
0.84869862 0.11106128 0.10875378 7.5206007e-40
0.84869862 0.11106128 0.11125378 1.4874699e-39
0.84869862 0.11356127 0.10875378 1.9459271e-39
0.84869862 0.11356127 0.11125378 1.9459271e-39
0.84869862 0.11356127 0.11375377 1.6707696e-39
0.85119861 0.11106128 0.10875378 1.027568e-39
0.85119861 0.11106128 0.11125378 9.3502201e-40
0.85119861 0.11356127 0.10875378 1.487823e-39
0.85119861 0.11356127 0.11125378 1.301994e-39
0.85369861 0.11106128 0.10875378 6.5986304e-40
0.85369861 0.11106128 0.11125378 1.3963561e-39
0.85369861 0.11356127 0.11125378 1.3941869e-39
0.85119861 0.11106128 0.11375377 1.3016409e-39
0.85119861 0.11356127 0.11375377 1.3941897e-39
0.85369861 0.11106128 0.11375377 1.0282966e-39
0.85369861 0.11106128 0.11625378 1.3016409e-39
0.85369861 0.11356127 0.11375377 1.3019912e-39
0.85369861 0.11356127 0.11625378 9.33936e-40
0.85119861 0.11606128 0.10875378 1.5800187e-39
0.85119861 0.11606128 0.11125378 1.7629652e-39
0.85369861 0.11606128 0.11125378 1.5785767e-39
0.85369861 0.11606128 0.11375377 1.1183146e-39
0.85369861 0.11606128 0.11625378 8.4138164e-40
0.85369861 0.10106128 0.11875378 9.5826604e-39
0.85369861 0.10356127 0.11875378 1.3421637e-41
0.85369861 0.10606127 0.11875378 2.9626042e-39
0.85369861 0.10856128 0.11875378 1.3952771e-39
0.85369861 0.10856128 0.12375378 6.5879105e-40
0.85369861 0.11106128 0.12375378 4.7367812e-40
0.85369861 0.11356127 0.12375378 7.4773706e-40
0.85369861 0.11606128 0.12375378 3.8003074e-40
0.85619861 0.10356127 0.10125378 4.6199563e-39
0.85869861 0.10106128 0.098753773 1.4200743e-38
0.85869861 0.10106128 0.10125378 1.9814129e-38
0.85869861 0.10356127 0.098753773 6.4563103e-39
0.85869861 0.10356127 0.10125378 6.8215027e-39
0.85619861 0.10356127 0.10375378 3.6990734e-39
0.85619861 0.10356127 0.10625377 6.724638e-39
0.85869861 0.10106128 0.10625377 1.7511521e-38
0.85869861 0.10356127 0.10375378 6.3583764e-39
0.85869861 0.10356127 0.10625377 6.5388048e-39
0.85619861 0.10606127 0.10125378 7.2936296e-39
0.85619861 0.10606127 0.10375378 6.3727467e-39
0.85619861 0.10606127 0.10625377 3.702686e-39
0.85619861 0.10856128 0.10375378 5.4558547e-39
0.85619861 0.10856128 0.10625377 5.3622073e-39
0.85869861 0.10606127 0.10375378 6.4631472e-39
0.85869861 0.10606127 0.10625377 3.2424309e-39
0.8636986 0.10106128 0.10125378 2.0183991e-38
0.8611986 0.10106128 0.10375378 2.018364e-38
0.8611986 0.10106128 0.10625377 2.0551694e-38
0.8611986 0.10356127 0.10375378 6.0835845e-39
0.8636986 0.10106128 0.10375378 2.0551697e-38
0.8636986 0.10106128 0.10625377 1.8802958e-38
0.85619861 0.10106128 0.11125378 7.4629036e-39
0.85619861 0.10356127 0.11125378 1.4497834e-41
0.85869861 0.10356127 0.10875378 6.8168168e-39
0.85869861 0.10356127 0.11125378 7.4650574e-39
0.85619861 0.10106128 0.11375377 1.917317e-38
0.85619861 0.10106128 0.11625378 2.0093668e-38
0.85619861 0.10356127 0.11375377 1.341463e-41
0.85619861 0.10356127 0.11625378 1.3411828e-41
0.85869861 0.10106128 0.11375377 1.9356841e-38
0.85869861 0.10356127 0.11375377 1.2702771e-41
0.85619861 0.10606127 0.11125378 2.5974174e-39
0.85619861 0.10856128 0.11125378 1.7644295e-39
0.85869861 0.10606127 0.10875378 3.5172227e-39
0.85869861 0.10606127 0.11125378 2.322257e-39
0.85869861 0.10856128 0.10875378 3.4264746e-39
0.85619861 0.10606127 0.11375377 2.0449653e-39
0.85619861 0.10606127 0.11625378 1.5843389e-39
0.85619861 0.10856128 0.11375377 1.4889189e-39
0.85619861 0.10856128 0.11625378 1.2119746e-39
0.85869861 0.10606127 0.11375377 1.9524011e-39
0.85869861 0.10606127 0.11625378 1.5843361e-39
0.85869861 0.10856128 0.11375377 1.2119746e-39
0.85869861 0.10856128 0.11625378 1.1215671e-39
0.8611986 0.10106128 0.10875378 1.834378e-38
0.8611986 0.10356127 0.10875378 7.1881146e-39
0.8611986 0.10356127 0.11125378 7.7405653e-39
0.8611986 0.10106128 0.11375377 1.9264646e-38
0.8611986 0.10356127 0.11375377 7.8327483e-39
0.8611986 0.10606127 0.10875378 3.2424183e-39
0.8611986 0.10606127 0.11125378 2.322257e-39
0.8611986 0.10606127 0.11375377 1.7673008e-39
0.8611986 0.10856128 0.11375377 2.9644021e-39
0.85619861 0.11106128 0.10625377 1.7690861e-39
0.85619861 0.11356127 0.10375378 1.5803746e-39
0.85619861 0.11356127 0.10625377 2.0140022e-40
0.85619861 0.11106128 0.11125378 1.8548133e-39
0.85619861 0.11106128 0.11375377 1.4867538e-39
0.85619861 0.11106128 0.11625378 1.2098082e-39
0.85619861 0.11356127 0.11375377 1.2101614e-39
0.85619861 0.11356127 0.11625378 7.4953913e-40
0.85869861 0.11106128 0.11375377 1.3016409e-39
0.85869861 0.11106128 0.11625378 7.4918601e-40
0.85869861 0.11356127 0.11375377 6.573407e-40
0.85869861 0.11356127 0.11625378 5.6587375e-40
0.85869861 0.11606128 0.11125378 1.1183174e-39
0.8611986 0.11106128 0.11375377 1.028647e-39
0.8611986 0.11356127 0.11375377 5.6587094e-40
0.8611986 0.11356127 0.11625378 9.3393039e-40
0.8611986 0.11606128 0.11375377 1.1183174e-39
0.8661986 0.10356127 0.10375378 1.7515467e-38
0.86869866 0.10106128 0.10375378 2.0459145e-38
0.86869866 0.10356127 0.10375378 1.8160827e-38
0.86869866 0.10356127 0.10625377 1.9081334e-38
0.85619861 0.10106128 0.12125377 1.2070826e-38
0.85619861 0.10356127 0.11875378 1.1972694e-41
0.85869861 0.10106128 0.12125377 1.3821108e-38
0.85869861 0.10356127 0.11875378 1.3055898e-41
0.85869861 0.10356127 0.12125377 2.0395591e-39
0.85619861 0.10606127 0.11875378 1.5818207e-39
0.85619861 0.10606127 0.12125377 2.3197515e-39
0.85619861 0.10856128 0.11875378 6.6023719e-40
0.85619861 0.10856128 0.12125377 9.3681707e-40
0.85869861 0.10606127 0.11875378 7.5350201e-40
0.85869861 0.10606127 0.12125377 1.6704164e-39
0.85869861 0.10856128 0.11875378 1.4874699e-39
0.85619861 0.10856128 0.12625377 7.502552e-40
0.85869861 0.10606127 0.12375378 1.8566098e-39
0.85869861 0.10606127 0.12625377 1.9498774e-39
0.85869861 0.10856128 0.12375378 1.4878258e-39
0.85869861 0.10856128 0.12625377 1.0279211e-39
0.8611986 0.10356127 0.11875378 1.9498802e-39
0.8611986 0.10106128 0.12375378 1.4554717e-38
0.8611986 0.10106128 0.12625377 1.539306e-38
0.8611986 0.10356127 0.12375378 5.7230487e-39
0.8611986 0.10356127 0.12625377 4.6228276e-39
0.8636986 0.10106128 0.12375378 1.6037335e-38
0.8636986 0.10106128 0.12625377 5.625814e-39
0.8611986 0.10606127 0.11875378 1.9924923e-40
0.8611986 0.10606127 0.12125377 9.3358007e-40
0.8611986 0.10606127 0.12375378 2.3114516e-39
0.8611986 0.10606127 0.12625377 1.5803718e-39
0.8611986 0.10856128 0.12625377 1.2126683e-39
0.85619861 0.10856128 0.12875378 5.6658981e-40
0.85869861 0.10856128 0.13125378 1.0537764e-41
0.8636986 0.10106128 0.12875378 3.6947546e-39
0.8636986 0.10356127 0.12875378 4.1571803e-39
0.8611986 0.10606127 0.12875378 5.4540344e-39
0.8611986 0.10856128 0.12875378 5.6766461e-40
0.8611986 0.10856128 0.13125378 1.8449496e-41
0.8636986 0.10606127 0.12875378 7.5698704e-39
0.8636986 0.10856128 0.12875378 1.0955772e-40
0.85619861 0.11106128 0.11875378 1.1179643e-39
0.85619861 0.11106128 0.12125377 7.4953913e-40
0.85619861 0.11356127 0.11875378 4.7402844e-40
0.85619861 0.11356127 0.12125377 5.665772e-40
0.85869861 0.11106128 0.11875378 3.8148249e-40
0.85869861 0.11106128 0.12125377 5.6622407e-40
0.85869861 0.11356127 0.11875378 4.7474731e-40
0.85619861 0.11106128 0.12625377 4.7367531e-40
0.85619861 0.11356127 0.12625377 4.7222637e-40
0.85869861 0.11106128 0.12375378 5.6622407e-40
0.85869861 0.11106128 0.12625377 2.8928265e-40
0.85869861 0.11356127 0.12375378 4.725795e-40
0.85869861 0.11356127 0.12625377 3.7968042e-40
0.85619861 0.11606128 0.12125377 7.4809299e-40
0.85619861 0.11606128 0.12625377 2.8783791e-40
0.8611986 0.11106128 0.11875378 1.1179615e-39
0.8611986 0.11106128 0.12375378 7.4953913e-40
0.85619861 0.11106128 0.12875378 1.3774764e-41
0.85619861 0.11356127 0.12875378 4.725795e-40
0.85869861 0.11106128 0.13125378 1.1258032e-41
0.85869861 0.11356127 0.13125378 1.1249624e-41
0.8611986 0.11106128 0.12875378 2.8712886e-40
0.8611986 0.11106128 0.13125378 1.0176229e-41
0.8611986 0.11356127 0.12875378 2.8783511e-40
0.8636986 0.11106128 0.12875378 9.0972296e-42
0.8661986 0.10106128 0.12625377 3.4214005e-39
0.8661986 0.10356127 0.12625377 4.0646344e-39
0.83869863 0.14606127 0.076253772 7.5096145e-40
0.83869863 0.14856127 0.076253772 1.0275497e-39
0.84369862 0.14356127 0.071253777 9.331863e-40
0.84119862 0.14106128 0.076253772 1.8529944e-39
0.84119862 0.14356127 0.076253772 2.1295799e-39
0.84369862 0.14106128 0.073753774 1.3005423e-39
0.84369862 0.14356127 0.073753774 1.1172272e-39
0.84369862 0.14606127 0.071253777 1.0253819e-39
0.84369862 0.14856127 0.068753779 1.3916463e-39
0.84369862 0.14856127 0.071253777 1.0253819e-39
0.84119862 0.14606127 0.076253772 1.3048611e-39
0.84369862 0.14606127 0.073753774 1.301264e-39
0.84369862 0.14856127 0.073753774 1.0250372e-39
0.83869863 0.15106128 0.076253772 2.9070637e-40
0.83869863 0.15356128 0.073753774 9.331863e-40
0.83869863 0.15356128 0.076253772 1.375935e-41
0.83869863 0.15606128 0.073753774 1.7590023e-39
0.83869863 0.15606128 0.076253772 3.8218594e-40
0.83869863 0.15856127 0.073753774 1.1172272e-39
0.83869863 0.15856127 0.076253772 7.4989226e-40
0.84369862 0.15106128 0.071253777 1.483842e-39
0.84369862 0.15356128 0.068753779 1.2994465e-39
0.84369862 0.15356128 0.071253777 9.3283598e-40
0.84119862 0.15106128 0.073753774 1.0253819e-39
0.84119862 0.15356128 0.073753774 1.0253819e-39
0.84369862 0.15106128 0.073753774 3.8183281e-40
0.84369862 0.15606128 0.068753779 1.4841951e-39
0.84369862 0.15856127 0.068753779 1.0253819e-39
0.84119862 0.15606128 0.073753774 1.3916463e-39
0.84119862 0.15856127 0.073753774 1.483842e-39
0.84869862 0.14106128 0.066253774 1.0239386e-39
0.84869862 0.14356127 0.063753776 6.565826e-40
0.84869862 0.14356127 0.066253774 1.0239386e-39
0.84619862 0.14606127 0.066253774 5.6438697e-40
0.84619862 0.14856127 0.066253774 4.7183821e-40
0.84869862 0.14606127 0.063753776 4.7218854e-40
0.84869862 0.14606127 0.066253774 6.5767421e-40
0.84869862 0.14856127 0.063753776 1.7571722e-39
0.85119861 0.14106128 0.066253774 2.8996789e-40
0.85119861 0.14356127 0.066253774 9.3174297e-40
0.85369861 0.14106128 0.063753776 8.391886e-40
0.84619862 0.14106128 0.068753779 1.483842e-39
0.84619862 0.14356127 0.068753779 9.331863e-40
0.84869862 0.14106128 0.068753779 1.2994493e-39
0.84619862 0.14106128 0.073753774 1.3019646e-39
0.84619862 0.14356127 0.073753774 1.3016171e-39
0.84619862 0.14606127 0.068753779 1.0239386e-39
0.84619862 0.14856127 0.068753779 1.1161342e-39
0.84619862 0.14606127 0.073753774 9.3535271e-40
0.84619862 0.15106128 0.066253774 1.7571722e-39
0.84619862 0.15356128 0.063753776 1.0185086e-39
0.84619862 0.15356128 0.066253774 1.6646179e-39
0.84619862 0.15606128 0.063753776 1.1118126e-39
0.84619862 0.15606128 0.066253774 8.3954453e-40
0.84619862 0.15856127 0.063753776 9.2706824e-40
0.84619862 0.15856127 0.066253774 9.3174297e-40
0.84619862 0.15106128 0.068753779 1.2997996e-39
0.84619862 0.15356128 0.068753779 1.2994437e-39
0.83619863 0.14356127 0.081253774 2.6834768e-39
0.83869863 0.14106128 0.078753777 1.5792774e-39
0.83869863 0.14106128 0.081253774 2.4094094e-39
0.83869863 0.14356127 0.078753777 1.7636686e-39
0.83869863 0.14356127 0.081253774 2.1328267e-39
0.83619863 0.14106128 0.086253777 1.5796655e-39
0.83619863 0.14356127 0.083753772 2.1324708e-39
0.83619863 0.14356127 0.086253777 1.9480823e-39
0.83869863 0.14106128 0.083753772 1.9480823e-39
0.83869863 0.14356127 0.083753772 2.040278e-39
0.83619863 0.14606127 0.081253774 2.7760311e-39
0.83619863 0.14856127 0.078753777 2.7785436e-39
0.83619863 0.14856127 0.081253774 2.5938021e-39
0.83869863 0.14606127 0.078753777 1.3048611e-39
0.83869863 0.14856127 0.078753777 2.133177e-39
0.83619863 0.14606127 0.083753772 2.2250223e-39
0.83619863 0.14606127 0.086253777 1.30631e-39
0.83619863 0.14856127 0.083753772 1.3938366e-39
0.84119862 0.14106128 0.078753777 2.4079661e-39
0.84119862 0.14106128 0.081253774 2.5938049e-39
0.84119862 0.14356127 0.078753777 2.4079661e-39
0.84119862 0.14106128 0.086253777 1.4874699e-39
0.83619863 0.14356127 0.088753775 1.7633365e-39
0.83619863 0.14356127 0.091253772 2.593086e-39
0.83869863 0.14106128 0.088753775 2.0402808e-39
0.83869863 0.14356127 0.088753775 2.0402808e-39
0.83869863 0.14356127 0.091253772 1.135262e-40
0.83619863 0.14606127 0.088753775 1.9477292e-39
0.83619863 0.14606127 0.091253772 2.6852816e-39
0.83619863 0.14856127 0.088753775 1.5818207e-39
0.83619863 0.14856127 0.091253772 2.5927329e-39
0.83869863 0.14606127 0.091253772 2.0611699e-41
0.83869863 0.14856127 0.091253772 2.0258572e-41
0.83869863 0.14606127 0.093753777 3.9832357e-39
0.83869863 0.14856127 0.093753777 3.6162609e-39
0.84119862 0.14106128 0.088753775 2.5909308e-39
0.84119862 0.14106128 0.091253772 1.135262e-40
0.84119862 0.14356127 0.091253772 3.6148119e-39
0.84369862 0.14106128 0.088753775 2.0572323e-40
0.84369862 0.14106128 0.091253772 3.2442316e-39
0.84369862 0.14356127 0.088753775 3.8903268e-40
0.84369862 0.14356127 0.091253772 3.7052097e-39
0.84119862 0.14356127 0.093753777 5.5476944e-39
0.84119862 0.14606127 0.093753777 5.9164755e-39
0.84119862 0.14856127 0.093753777 6.1012395e-39
0.84369862 0.14606127 0.096253775 4.0783306e-39
0.84369862 0.14856127 0.096253775 4.6293534e-39
0.83619863 0.15106128 0.078753777 2.4112087e-39
0.83619863 0.15356128 0.078753777 1.9744015e-40
0.83869863 0.15106128 0.078753777 2.5941552e-39
0.83619863 0.15106128 0.083753772 1.5778677e-39
0.83619863 0.15606128 0.078753777 5.6622407e-40
0.83619863 0.15856127 0.078753777 5.6693033e-40
0.83619863 0.15106128 0.088753775 2.5016064e-39
0.83619863 0.15106128 0.091253772 2.4087031e-39
0.83619863 0.15356128 0.088753775 2.1342728e-39
0.83619863 0.15356128 0.091253772 2.5005358e-39
0.83869863 0.15106128 0.091253772 2.0262776e-41
0.83869863 0.15356128 0.091253772 2.086085e-40
0.83619863 0.15356128 0.093753777 5.7739242e-40
0.83869863 0.15106128 0.093753777 4.076516e-39
0.83869863 0.15356128 0.093753777 5.0928133e-39
0.83619863 0.15606128 0.088753775 2.318304e-39
0.83619863 0.15606128 0.091253772 2.5927329e-39
0.83619863 0.15856127 0.088753775 2.4108527e-39
0.83619863 0.15856127 0.091253772 2.8689624e-39
0.83869863 0.15606128 0.091253772 1.7716042e-39
0.83869863 0.15856127 0.091253772 3.0594998e-39
0.83619863 0.15606128 0.093753777 2.3233683e-39
0.83619863 0.15606128 0.096253775 6.1948673e-39
0.83619863 0.15856127 0.093753777 2.5081183e-39
0.83619863 0.15856127 0.096253775 4.9041284e-39
0.83869863 0.15606128 0.093753777 4.9084192e-39
0.83869863 0.15856127 0.093753777 4.7179323e-39
0.84119862 0.15106128 0.091253772 5.5505642e-39
0.84119862 0.15106128 0.093753777 6.2849091e-39
0.84119862 0.15356128 0.093753777 6.9317008e-39
0.84369862 0.15106128 0.096253775 4.0758293e-39
0.84369862 0.15356128 0.096253775 4.0761796e-39
0.84119862 0.15606128 0.093753777 6.4710814e-39
0.84119862 0.15606128 0.096253775 4.4427874e-39
0.84119862 0.15856127 0.093753777 4.4435174e-39
0.84119862 0.15856127 0.096253775 4.2587562e-39
0.84369862 0.15606128 0.096253775 3.6152015e-39
0.84369862 0.15856127 0.096253775 4.626464e-39
0.84619862 0.14356127 0.093753777 4.4467544e-39
0.84619862 0.14606127 0.093753777 5.4558673e-39
0.84619862 0.15106128 0.093753777 4.1680222e-39
0.84619862 0.15356128 0.093753777 4.0758265e-39
0.84619862 0.15606128 0.093753777 3.6155546e-39
0.84619862 0.15856127 0.093753777 4.810851e-39
0.84369862 0.16356127 0.066253774 3.7893212e-40
0.84119862 0.16606128 0.066253774 9.3174016e-40
0.84119862 0.16856128 0.066253774 9.3174016e-40
0.84369862 0.16606128 0.066253774 5.6368352e-40
0.84369862 0.16856128 0.063753776 1.9412033e-39
0.84369862 0.16856128 0.066253774 8.391886e-40
0.83619863 0.16106127 0.076253772 9.3283598e-40
0.83619863 0.16356127 0.076253772 1.2991004e-39
0.83869863 0.16106127 0.073753774 8.413424e-40
0.83869863 0.16106127 0.076253772 1.070536e-40
0.83869863 0.16356127 0.073753774 1.1179307e-39
0.83869863 0.16856128 0.068753779 9.3390517e-40
0.83619863 0.16606128 0.073753774 1.0253819e-39
0.83619863 0.16856128 0.073753774 4.7509763e-40
0.83869863 0.16606128 0.073753774 9.3283598e-40
0.83869863 0.16856128 0.073753774 1.0250316e-39
0.84119862 0.16356127 0.071253777 9.3248285e-40
0.84369862 0.16106127 0.068753779 1.0253819e-39
0.84369862 0.16356127 0.068753779 5.6547858e-40
0.84369862 0.16606128 0.068753779 1.2068977e-39
0.84369862 0.16856128 0.068753779 1.2068977e-39
0.83869863 0.17356128 0.063753776 1.1107182e-39
0.83869863 0.17356128 0.066253774 3.7928525e-40
0.83619863 0.17856127 0.063753776 6.5009879e-40
0.83619863 0.17856127 0.066253774 9.2706824e-40
0.83869863 0.17606127 0.063753776 6.5009879e-40
0.83869863 0.17606127 0.066253774 1.5717188e-39
0.83869863 0.17856127 0.063753776 9.2706824e-40
0.83869863 0.17856127 0.066253774 1.5717188e-39
0.84119862 0.17106128 0.066253774 9.3138984e-40
0.84119862 0.17356128 0.066253774 1.296564e-39
0.84369862 0.17106128 0.063753776 1.6642675e-39
0.84369862 0.17106128 0.066253774 9.3138984e-40
0.84369862 0.17356128 0.063753776 1.7564632e-39
0.84119862 0.17606127 0.066253774 1.204367e-39
0.83619863 0.17106128 0.068753779 1.3919966e-39
0.83619863 0.17106128 0.071253777 1.0235855e-39
0.83619863 0.17356128 0.068753779 1.3919966e-39
0.83619863 0.17356128 0.071253777 9.3138984e-40
0.83869863 0.17106128 0.068753779 1.2065474e-39
0.83869863 0.17356128 0.068753779 9.3138984e-40
0.83619863 0.17106128 0.073753774 1.0667385e-40
0.83619863 0.17356128 0.073753774 9.3283598e-40
0.83869863 0.17106128 0.073753774 1.3769159e-41
0.83869863 0.17356128 0.073753774 4.725795e-40
0.83619863 0.17606127 0.068753779 1.0239386e-39
0.83619863 0.17606127 0.071253777 1.2065474e-39
0.83619863 0.17856127 0.068753779 5.6367791e-40
0.83619863 0.17856127 0.071253777 9.3174297e-40
0.83869863 0.17606127 0.068753779 9.3174297e-40
0.83619863 0.17606127 0.073753774 1.0596759e-40
0.84369862 0.17106128 0.068753779 1.2987444e-39
0.84619862 0.16106127 0.063753776 1.0153809e-41
0.84619862 0.16106127 0.066253774 9.3174297e-40
0.84619862 0.16356127 0.063753776 1.949038e-40
0.84619862 0.16356127 0.066253774 5.6512545e-40
0.84619862 0.16606128 0.063753776 8.3919141e-40
0.84619862 0.16606128 0.066253774 5.6512545e-40
0.84619862 0.16856128 0.063753776 9.3174297e-40
0.84619862 0.16856128 0.066253774 6.5767421e-40
0.83619863 0.16106127 0.078753777 1.5785711e-39
0.83619863 0.16356127 0.078753777 1.3030632e-39
0.83619863 0.16106127 0.088753775 2.6849257e-39
0.83619863 0.16106127 0.091253772 2.1353603e-39
0.83869863 0.16106127 0.091253772 3.5204653e-39
0.83619863 0.16106127 0.093753777 4.8108356e-39
0.83619863 0.16106127 0.096253775 5.5487664e-39
0.83619863 0.16356127 0.093753777 4.2576772e-39
0.83619863 0.16356127 0.096253775 5.9164755e-39
0.83869863 0.16106127 0.093753777 4.1672767e-39
0.83619863 0.16856128 0.093753777 6.0079495e-39
0.83619863 0.16856128 0.096253775 4.2605513e-39
0.84119862 0.16106127 0.093753777 4.3502232e-39
0.84119862 0.16106127 0.096253775 3.4300886e-39
0.84119862 0.16356127 0.096253775 3.9821791e-39
0.84369862 0.16106127 0.096253775 3.6144784e-39
0.84119862 0.16606128 0.096253775 3.980747e-39
0.83619863 0.17106128 0.093753777 5.9164755e-39
0.83619863 0.17106128 0.096253775 4.445646e-39
0.83619863 0.17356128 0.093753777 6.7440852e-39
0.83619863 0.17356128 0.096253775 3.2467679e-39
0.83619863 0.17606127 0.093753777 7.0210322e-39
0.83619863 0.17856127 0.093753777 6.7440852e-39
0.83869863 0.17606127 0.093753777 3.7059524e-39
0.84119862 0.17106128 0.096253775 3.3382447e-39
0.84619862 0.16106127 0.093753777 3.8896206e-39
0.83619863 0.16356127 0.098753773 4.5328348e-39
0.83869863 0.16106127 0.098753773 4.2576772e-39
0.83869863 0.16356127 0.098753773 4.3495225e-39
0.83619863 0.16606128 0.098753773 2.8779896e-39
0.83619863 0.16856128 0.098753773 3.7974179e-39
0.83869863 0.16606128 0.098753773 3.523359e-39
0.83869863 0.16856128 0.098753773 2.9701852e-39
0.83619863 0.17106128 0.098753773 3.4304445e-39
0.83869863 0.17106128 0.098753773 3.1545695e-39
0.81369865 0.21106127 0.088753775 2.2235748e-39
0.81369865 0.21356128 0.088753775 2.7770947e-39
0.81369865 0.21606128 0.088753775 5.2558936e-39
0.82369864 0.19856128 0.073753774 8.3919421e-40
0.83369863 0.18106127 0.066253774 1.0196226e-39
0.83369863 0.18356128 0.066253774 3.7928805e-40
0.83369863 0.18606128 0.066253774 5.6041849e-40
0.83369863 0.18856128 0.066253774 9.2955974e-40
0.82869864 0.18106127 0.076253772 9.3283598e-40
0.82869864 0.18356128 0.076253772 9.331863e-40
0.82869864 0.18606128 0.073753774 6.5767701e-40
0.82869864 0.18606128 0.076253772 1.3019674e-39
0.82869864 0.18856128 0.073753774 5.6512545e-40
0.83119863 0.18106127 0.071253777 1.0235855e-39
0.83119863 0.18356128 0.071253777 9.3138984e-40
0.83369863 0.18106127 0.068753779 5.6367791e-40
0.83369863 0.18106127 0.071253777 1.0239386e-39
0.83369863 0.18356128 0.068753779 8.3919141e-40
0.83119863 0.18106127 0.076253772 9.3138984e-40
0.83119863 0.18356128 0.076253772 8.4098927e-40
0.83369863 0.18106127 0.073753774 9.3138984e-40
0.83119863 0.18606128 0.071253777 1.0239386e-39
0.83119863 0.18856128 0.071253777 9.3174297e-40
0.83369863 0.18606128 0.068753779 3.7928805e-40
0.83369863 0.18856128 0.068753779 5.6368072e-40
0.83369863 0.19106127 0.066253774 2.8887628e-40
0.83369863 0.19356127 0.066253774 3.7964118e-40
0.83119863 0.19606127 0.066253774 4.7183821e-40
0.83119863 0.19856128 0.066253774 3.7964118e-40
0.83369863 0.19606127 0.066253774 1.2969115e-39
0.83369863 0.19856128 0.066253774 1.1125189e-39
0.82869864 0.19106127 0.071253777 1.0239386e-39
0.82869864 0.19356127 0.071253777 9.3174297e-40
0.82869864 0.19106127 0.073753774 6.5767982e-40
0.82869864 0.19356127 0.073753774 1.482854e-41
0.82869864 0.19606127 0.071253777 3.8108732e-40
0.82869864 0.19856128 0.071253777 5.6547858e-40
0.82619864 0.19606127 0.073753774 5.6368352e-40
0.82619864 0.19606127 0.076253772 1.4108273e-41
0.82619864 0.19856128 0.073753774 5.6368352e-40
0.82619864 0.19856128 0.076253772 4.7292982e-40
0.82869864 0.19606127 0.073753774 1.4468407e-41
