# .PCD v0.7 - Point Cloud Data file format
VERSION 0.7
FIELDS x y z rgb
SIZE 4 4 4 4
TYPE F F F F
COUNT 1 1 1 1
WIDTH 1010
HEIGHT 1
VIEWPOINT 0 0 0 1 0 0 0
POINTS 1010
DATA ascii
0.98273408 0.14042294 0.088520959 9.7992802e-42
0.98523408 0.13792294 0.088520959 1.0153809e-41
0.98523408 0.14042294 0.088520959 1.1232808e-41
0.98273408 0.13792294 0.093520962 1.0200472e-40
0.98273408 0.14042294 0.093520962 8.3671531e-42
0.98523408 0.13792294 0.091020964 1.0163618e-41
0.98523408 0.14042294 0.091020964 9.0832166e-42
0.98773408 0.13542295 0.086020961 9.0972296e-42
0.98773408 0.13542295 0.088520959 6.5720898e-42
0.98773408 0.13792294 0.086020961 1.016642e-41
0.98773408 0.13792294 0.088520959 8.7300894e-42
0.98773408 0.14042294 0.086020961 1.016642e-41
0.98773408 0.14042294 0.088520959 8.3769622e-42
0.99023408 0.13792294 0.086020961 7.2965611e-42
0.99023408 0.13792294 0.088520959 7.2895546e-42
0.99023408 0.14042294 0.088520959 1.0529357e-41
0.98773408 0.13792294 0.093520962 7.6524909e-42
0.98773408 0.14042294 0.093520962 1.0883885e-41
0.99023408 0.13792294 0.091020964 5.8490198e-42
0.98273408 0.13542295 0.098520964 6.9462365e-42
0.98273408 0.13792294 0.098520964 8.3685544e-42
0.98273408 0.14042294 0.098520964 8.7314907e-42
0.98523408 0.13792294 0.096020959 8.3769622e-42
0.98523408 0.13792294 0.098520964 5.8588289e-42
0.98523408 0.14042294 0.096020959 8.3671531e-42
0.98523408 0.14042294 0.098520964 9.4391465e-42
0.98273408 0.13792294 0.10102096 7.2965611e-42
0.98273408 0.14042294 0.10102096 1.0156611e-41
0.98523408 0.13792294 0.10102096 4.7784278e-42
0.98523408 0.14042294 0.10102096 7.2895546e-42
0.98523408 0.14042294 0.10352096 7.9944077e-42
0.98523408 0.14292295 0.088520959 6.925217e-42
0.98273408 0.14292295 0.093520962 6.925217e-42
0.98523408 0.14292295 0.091020964 8.3615479e-42
0.98523408 0.14542295 0.091020964 8.7286881e-42
0.98773408 0.14292295 0.086020961 9.7992802e-42
0.98773408 0.14292295 0.088520959 8.0056181e-42
0.98773408 0.14542295 0.086020961 8.3685544e-42
0.98773408 0.14542295 0.088520959 8.0084207e-42
0.99023408 0.14292295 0.088520959 9.7992802e-42
0.99023408 0.14542295 0.088520959 8.3657518e-42
0.98773408 0.14292295 0.093520962 5.8560263e-42
0.98773408 0.14542295 0.093520962 8.3685544e-42
0.98773408 0.14792295 0.086020961 9.0902231e-42
0.98773408 0.14792295 0.088520959 8.7286881e-42
0.98773408 0.15042295 0.088520959 1.0526554e-41
0.99023408 0.14792295 0.086020961 8.7286881e-42
0.99023408 0.14792295 0.088520959 9.8062867e-42
0.99023408 0.15042295 0.086020961 9.0972296e-42
0.99023408 0.15042295 0.088520959 1.0533561e-41
0.98773408 0.14792295 0.093520962 8.7286881e-42
0.98773408 0.15042295 0.093520962 9.8160957e-42
0.98273408 0.14292295 0.098520964 7.2923572e-42
0.98523408 0.14292295 0.096020959 6.925217e-42
0.98523408 0.14292295 0.098520964 7.9972103e-42
0.98523408 0.14542295 0.096020959 6.93923e-42
0.98523408 0.14542295 0.098520964 9.0874205e-42
0.98273408 0.14292295 0.10102096 9.0762102e-42
0.98523408 0.14292295 0.10102096 8.7286881e-42
0.98523408 0.14292295 0.10352096 1.0526554e-41
0.98523408 0.14542295 0.10102096 7.6594974e-42
0.98523408 0.14542295 0.10352096 9.4531594e-42
0.98523408 0.14792295 0.096020959 8.3755609e-42
0.98523408 0.14792295 0.098520964 9.0972296e-42
0.98523408 0.15042295 0.096020959 1.0184637e-41
0.98523408 0.15042295 0.098520964 1.0896497e-41
0.98523408 0.14792295 0.10102096 1.0533561e-41
0.98523408 0.14792295 0.10352096 1.1253828e-41
0.98523408 0.15042295 0.10102096 1.0893694e-41
0.98523408 0.15042295 0.10352096 1.1972694e-41
0.98773408 0.14542295 0.098520964 9.0930257e-42
0.98773408 0.14542295 0.10102096 9.4531594e-42
0.99023408 0.14542295 0.10352096 9.0930257e-42
0.98773408 0.14792295 0.098520964 1.0173427e-41
0.98773408 0.15042295 0.096020959 1.0896497e-41
0.98773408 0.15042295 0.098520964 1.1253828e-41
0.98773408 0.14792295 0.10102096 1.1253828e-41
0.98773408 0.15042295 0.10102096 1.1253828e-41
0.98273408 0.15542294 0.068520963 1.0540567e-41
0.98273408 0.15292294 0.073520958 1.1253828e-41
0.98273408 0.15542294 0.073520958 9.4671724e-42
0.98523408 0.15292294 0.071020961 9.8160957e-42
0.98523408 0.15292294 0.073520958 9.1000322e-42
0.98523408 0.15542294 0.071020961 1.0184637e-41
0.98523408 0.15542294 0.073520958 9.4671724e-42
0.98273408 0.15792295 0.068520963 1.1258032e-41
0.98273408 0.16042295 0.068520963 1.0188841e-41
0.98273408 0.15792295 0.073520958 1.0184637e-41
0.98273408 0.16042295 0.071020961 1.1619567e-41
0.98273408 0.16042295 0.073520958 1.1265038e-41
0.98523408 0.15792295 0.071020961 1.1265038e-41
0.98523408 0.15792295 0.073520958 1.1258032e-41
0.98523408 0.16042295 0.071020961 1.1265038e-41
0.98523408 0.16042295 0.073520958 1.1258032e-41
0.98773408 0.15292294 0.068520963 8.0280389e-42
0.98773408 0.15542294 0.068520963 8.3839687e-42
0.98773408 0.15292294 0.073520958 9.4531594e-42
0.98773408 0.15542294 0.073520958 1.0897898e-41
0.99023408 0.15292294 0.071020961 1.0886688e-41
0.98773408 0.15792295 0.068520963 9.4643698e-42
0.98773408 0.16042295 0.068520963 1.0188841e-41
0.98273408 0.15292294 0.076020963 9.1000322e-42
0.98273408 0.15542294 0.076020963 1.0540567e-41
0.98523408 0.15292294 0.076020963 9.1000322e-42
0.98523408 0.15292294 0.078520961 9.1000322e-42
0.98523408 0.15542294 0.076020963 1.1972694e-41
0.98523408 0.15542294 0.078520961 1.0900701e-41
0.98523408 0.15292294 0.083520964 9.4671724e-42
0.98523408 0.15542294 0.083520964 1.0184637e-41
0.98273408 0.15792295 0.076020963 1.1265038e-41
0.98273408 0.16042295 0.076020963 1.1265038e-41
0.98523408 0.15792295 0.076020963 1.0544771e-41
0.98523408 0.15792295 0.078520961 1.1265038e-41
0.98523408 0.16042295 0.076020963 1.1265038e-41
0.98523408 0.16042295 0.078520961 1.1265038e-41
0.98273408 0.16042295 0.081020959 1.0547574e-41
0.98523408 0.15792295 0.083520964 1.0544771e-41
0.98523408 0.16042295 0.081020959 1.1265038e-41
0.98523408 0.16042295 0.083520964 1.0544771e-41
0.98773408 0.15292294 0.076020963 1.0529357e-41
0.99023408 0.15292294 0.078520961 1.0530758e-41
0.98773408 0.15292294 0.081020959 9.8160957e-42
0.98773408 0.15292294 0.083520964 9.8160957e-42
0.98773408 0.15542294 0.081020959 1.0897898e-41
0.98773408 0.15542294 0.083520964 1.0900701e-41
0.99023408 0.15292294 0.081020959 1.0536363e-41
0.98773408 0.15792295 0.081020959 1.0547574e-41
0.98773408 0.15792295 0.083520964 1.0537764e-41
0.98773408 0.16042295 0.081020959 1.0909109e-41
0.98773408 0.16042295 0.083520964 1.1258032e-41
0.98273408 0.16292295 0.068520963 1.1982503e-41
0.98273408 0.16292295 0.071020961 1.1982503e-41
0.98273408 0.16292295 0.073520958 1.0911911e-41
0.98273408 0.16542295 0.071020961 1.1629376e-41
0.98273408 0.16542295 0.073520958 1.1273446e-41
0.98523408 0.16292295 0.071020961 1.1262236e-41
0.98273408 0.16792294 0.071020961 1.198951e-41
0.98273408 0.16792294 0.073520958 1.1993714e-41
0.98273408 0.17042294 0.071020961 1.1982503e-41
0.98273408 0.17042294 0.073520958 1.1262236e-41
0.98273408 0.16292295 0.076020963 1.1265038e-41
0.98273408 0.16292295 0.078520961 1.1265038e-41
0.98273408 0.16542295 0.076020963 1.0909109e-41
0.98273408 0.16542295 0.078520961 1.1265038e-41
0.98523408 0.16292295 0.076020963 1.1265038e-41
0.98523408 0.16292295 0.078520961 1.1265038e-41
0.98273408 0.16292295 0.081020959 1.1265038e-41
0.98273408 0.16542295 0.081020959 1.1265038e-41
0.98523408 0.16292295 0.081020959 1.1265038e-41
0.98523408 0.16292295 0.083520964 1.1265038e-41
0.98523408 0.16542295 0.081020959 1.0544771e-41
0.98523408 0.16542295 0.083520964 1.0909109e-41
0.98273408 0.16792294 0.076020963 1.0909109e-41
0.98273408 0.16792294 0.078520961 1.1265038e-41
0.98273408 0.17042294 0.078520961 1.1265038e-41
0.98273408 0.16792294 0.081020959 1.1265038e-41
0.98273408 0.17042294 0.081020959 1.30587e-41
0.98523408 0.16792294 0.081020959 1.0544771e-41
0.98523408 0.16792294 0.083520964 1.1982503e-41
0.98523408 0.15542294 0.091020964 1.0900701e-41
0.98523408 0.16042295 0.088520959 1.1265038e-41
0.98273408 0.15792295 0.093520962 1.0540567e-41
0.98273408 0.16042295 0.093520962 1.1265038e-41
0.98523408 0.15792295 0.091020964 1.1974095e-41
0.98773408 0.15292294 0.086020961 1.0544771e-41
0.98773408 0.15292294 0.088520959 1.0900701e-41
0.98773408 0.15542294 0.086020961 1.0900701e-41
0.98773408 0.15542294 0.088520959 1.0900701e-41
0.99023408 0.15292294 0.086020961 9.8160957e-42
0.99023408 0.15292294 0.088520959 1.1253828e-41
0.99023408 0.15542294 0.086020961 1.0897898e-41
0.99023408 0.15542294 0.088520959 1.0897898e-41
0.98773408 0.15292294 0.093520962 1.0899299e-41
0.98773408 0.15542294 0.093520962 1.1972694e-41
0.99023408 0.15292294 0.091020964 1.088949e-41
0.98773408 0.15792295 0.086020961 1.1258032e-41
0.98773408 0.15792295 0.088520959 1.1974095e-41
0.98773408 0.16042295 0.086020961 1.1258032e-41
0.98773408 0.16042295 0.088520959 1.1974095e-41
0.99023408 0.15792295 0.086020961 1.0544771e-41
0.99023408 0.15792295 0.088520959 1.1974095e-41
0.99023408 0.16042295 0.086020961 1.1265038e-41
0.98273408 0.15542294 0.098520964 1.1253828e-41
0.98523408 0.15542294 0.096020959 1.0544771e-41
0.98523408 0.15542294 0.098520964 1.1258032e-41
0.98273408 0.15542294 0.10102096 1.0896497e-41
0.98523408 0.15292294 0.10352096 1.1972694e-41
0.98523408 0.15542294 0.10102096 1.0550376e-41
0.98523408 0.15542294 0.10352096 1.0544771e-41
0.98273408 0.15792295 0.098520964 1.0897898e-41
0.98273408 0.16042295 0.098520964 1.0897898e-41
0.98523408 0.15792295 0.096020959 1.0900701e-41
0.98523408 0.15792295 0.098520964 1.0897898e-41
0.98523408 0.16042295 0.096020959 1.0897898e-41
0.98273408 0.15792295 0.10102096 1.0544771e-41
0.98273408 0.16042295 0.10102096 1.1253828e-41
0.98523408 0.15792295 0.10102096 1.0911911e-41
0.98523408 0.15792295 0.10352096 1.0544771e-41
0.98523408 0.16042295 0.10102096 1.0536363e-41
0.98523408 0.16042295 0.10352096 1.1253828e-41
0.98773408 0.15292294 0.096020959 1.1972694e-41
0.98773408 0.15292294 0.098520964 1.1972694e-41
0.98773408 0.15542294 0.096020959 1.1972694e-41
0.98773408 0.15542294 0.098520964 1.1258032e-41
0.99023408 0.15292294 0.098520964 1.1258032e-41
0.98773408 0.15292294 0.10102096 1.0897898e-41
0.98773408 0.15542294 0.10102096 1.0897898e-41
0.99023408 0.15292294 0.10352096 1.1972694e-41
0.99023408 0.15542294 0.10352096 1.1253828e-41
0.98273408 0.16292295 0.088520959 1.0544771e-41
0.98273408 0.16542295 0.086020961 1.0909109e-41
0.98273408 0.16542295 0.088520959 1.1985306e-41
0.98523408 0.16292295 0.088520959 1.0900701e-41
0.98273408 0.16292295 0.091020964 1.1265038e-41
0.98273408 0.16292295 0.093520962 1.1265038e-41
0.98273408 0.16542295 0.091020964 1.1265038e-41
0.98273408 0.16792294 0.086020961 1.0909109e-41
0.98273408 0.17042294 0.086020961 1.0909109e-41
0.98773408 0.16292295 0.086020961 1.0909109e-41
0.9627341 0.13542295 0.12102097 2.8856098e-40
0.9627341 0.13542295 0.12352096 2.2225182e-39
0.9652341 0.13792294 0.11602096 9.8132931e-42
0.9652341 0.13792294 0.11852096 6.9322235e-42
0.9652341 0.13792294 0.12102097 7.2923572e-42
0.9652341 0.13792294 0.12352096 5.4944913e-42
0.9677341 0.13542295 0.12352096 4.5266887e-39
0.9702341 0.13542295 0.12352096 4.1657969e-39
0.9677341 0.13792294 0.11852096 7.2923572e-42
0.9702341 0.13792294 0.11602096 8.7441024e-42
0.9677341 0.13792294 0.12102097 4.7784278e-42
0.9677341 0.13792294 0.12352096 4.4168928e-42
0.9702341 0.13792294 0.12352096 4.7742239e-42
0.97273409 0.14042294 0.11352096 1.0173427e-41
0.97523409 0.14042294 0.11352096 1.0536363e-41
0.97273409 0.13792294 0.11852096 7.2923572e-42
0.97273409 0.14042294 0.11602096 1.0529357e-41
0.97273409 0.14042294 0.11852096 9.0902231e-42
0.97523409 0.14042294 0.11602096 9.4503568e-42
0.97523409 0.14042294 0.11852096 8.0154272e-42
0.97273409 0.14042294 0.12102097 8.009822e-42
0.97523409 0.13792294 0.12352096 8.3657518e-42
0.97523409 0.14042294 0.12102097 7.2937585e-42
0.98023409 0.13292295 0.12352096 1.1236711e-38
0.98023409 0.13542295 0.12352096 7.6595226e-39
0.97773409 0.14042294 0.12102097 6.21616e-42
0.97773409 0.14042294 0.12352096 1.268035e-41
0.98023409 0.13792294 0.12352096 6.5600274e-39
0.97523409 0.14292295 0.11352096 9.4503568e-42
0.97773409 0.14542295 0.11102096 9.8132931e-42
0.97773409 0.14542295 0.11352096 1.0529357e-41
0.98023409 0.14542295 0.11352096 1.1249624e-41
0.97773409 0.14292295 0.11602096 1.0896497e-41
0.97773409 0.14292295 0.11852096 1.1255229e-41
0.98023409 0.14292295 0.12102097 1.0896497e-41
0.9652341 0.13292295 0.12602097 7.2907471e-39
0.9652341 0.13542295 0.12602097 4.4370084e-39
0.9677341 0.13292295 0.12602097 4.1586292e-39
0.9677341 0.13542295 0.12602097 4.2558471e-39
0.97273409 0.13292295 0.12602097 3.792718e-39
0.97273409 0.13292295 0.12852097 2.1274359e-39
0.97273409 0.13542295 0.12602097 7.1117607e-39
0.97273409 0.13542295 0.12852097 7.0138029e-39
0.97523409 0.13292295 0.12602097 2.3118202e-39
0.97523409 0.13542295 0.12602097 7.4747754e-39
0.98023409 0.13292295 0.12602097 1.4449888e-38
0.98023409 0.13292295 0.12852097 1.6488234e-38
0.98023409 0.13542295 0.12602097 3.6072533e-39
0.98023409 0.13542295 0.12852097 3.2319842e-39
0.98023409 0.13792294 0.12602097 6.8275942e-39
0.97773409 0.16042295 0.11852096 1.1619567e-41
0.98023409 0.16042295 0.12102097 1.2338433e-41
0.98023409 0.16542295 0.11352096 1.1619567e-41
0.98023409 0.17042294 0.10602096 1.0909109e-41
0.98023409 0.17042294 0.10852096 1.1265038e-41
0.97773409 0.16792294 0.11352096 1.1622369e-41
0.97773409 0.17042294 0.11352096 1.1982503e-41
0.98023409 0.16792294 0.11352096 1.2338433e-41
0.98023409 0.17042294 0.11352096 1.2338433e-41
0.97773409 0.16292295 0.11852096 1.1619567e-41
0.97773409 0.16542295 0.11852096 1.2338433e-41
0.98023409 0.16292295 0.11602096 1.1629376e-41
0.98023409 0.16542295 0.11602096 1.1982503e-41
0.98023409 0.16292295 0.12102097 1.2338433e-41
0.98023409 0.16542295 0.12102097 1.1619567e-41
0.97773409 0.16792294 0.11852096 1.1982503e-41
0.97773409 0.17042294 0.11852096 1.2698567e-41
0.98023409 0.16792294 0.11602096 1.2338433e-41
0.98023409 0.17042294 0.11602096 1.2338433e-41
0.98023409 0.16792294 0.12102097 1.2338433e-41
0.98023409 0.17042294 0.12102097 1.2698567e-41
0.98023409 0.16042295 0.12852097 2.2250195e-39
0.98023409 0.16292295 0.12852097 3.3310196e-39
0.98023409 0.16542295 0.12852097 3.4232152e-39
0.98023409 0.16792294 0.12602097 2.136805e-39
0.98023409 0.16792294 0.12852097 3.4228747e-39
0.98023409 0.17042294 0.12602097 2.0442436e-39
0.98023409 0.17042294 0.12852097 4.5284908e-39
0.98023409 0.16792294 0.13352096 5.8742432e-42
0.98023409 0.17042294 0.13352096 5.8840523e-42
0.98273408 0.14042294 0.10602096 8.3727583e-42
0.98523408 0.14042294 0.10852096 1.0515344e-41
0.98273408 0.14042294 0.12352096 3.8328035e-40
0.98523408 0.14292295 0.10602096 9.4531594e-42
0.98523408 0.14292295 0.10852096 9.8062867e-42
0.98523408 0.14542295 0.10602096 9.4531594e-42
0.98523408 0.14542295 0.10852096 1.0886688e-41
0.98523408 0.14792295 0.10602096 1.0893694e-41
0.98523408 0.14792295 0.10852096 1.1613962e-41
0.98523408 0.15042295 0.10602096 1.1972694e-41
0.98273408 0.14792295 0.11352096 1.1252427e-41
0.98523408 0.14792295 0.11102096 1.1262236e-41
0.98523408 0.14792295 0.11352096 1.1255229e-41
0.98523408 0.15042295 0.11102096 1.1972694e-41
0.98773408 0.14292295 0.10602096 9.4503568e-42
0.98773408 0.14542295 0.10602096 1.088949e-41
0.98773408 0.15042295 0.10602096 1.1972694e-41
0.98773408 0.15042295 0.10852096 1.1972694e-41
0.98773408 0.14792295 0.11352096 1.1255229e-41
0.98773408 0.15042295 0.11352096 1.1613962e-41
0.98273408 0.14542295 0.11852096 1.1972694e-41
0.98273408 0.14292295 0.12352096 9.1042361e-42
0.98273408 0.14542295 0.12102097 1.9493323e-40
0.98523408 0.14292295 0.12352096 1.3753744e-41
0.98523408 0.14542295 0.12352096 1.9493603e-40
0.98523408 0.14792295 0.11602096 1.2332828e-41
0.98523408 0.14792295 0.11852096 1.1255229e-41
0.98523408 0.14792295 0.12352096 8.3741876e-40
0.98523408 0.15042295 0.12352096 1.0902102e-41
0.98773408 0.14792295 0.11852096 2.8748199e-40
0.98773408 0.15042295 0.11852096 1.3051694e-41
0.99023408 0.15042295 0.11602096 1.1972694e-41
0.98773408 0.14792295 0.12102097 3.7967762e-40
0.98773408 0.15042295 0.12102097 1.3051694e-41
0.98273408 0.13292295 0.12602097 1.3992503e-38
0.98273408 0.13292295 0.12852097 1.8796014e-38
0.98273408 0.13542295 0.12602097 3.4163755e-39
0.98523408 0.13292295 0.12852097 1.8703466e-38
0.98523408 0.13542295 0.12852097 1.2249895e-38
0.98273408 0.13292295 0.13102096 2.0457333e-38
0.98273408 0.13292295 0.13352096 2.1654163e-38
0.98523408 0.13292295 0.13102096 2.1100902e-38
0.98523408 0.13292295 0.13352096 2.3492308e-38
0.98523408 0.13542295 0.13102096 1.6398676e-38
0.98523408 0.13542295 0.13352096 1.1045938e-38
0.98273408 0.13792294 0.12602097 7.2871276e-39
0.98273408 0.14042294 0.12602097 6.0885858e-39
0.98523408 0.13792294 0.12852097 1.6704164e-39
0.98523408 0.14042294 0.12852097 5.5426329e-39
0.98523408 0.13792294 0.13102096 6.1993444e-42
0.98523408 0.13792294 0.13352096 4.4014785e-42
0.98523408 0.14042294 0.13102096 6.0003558e-39
0.98773408 0.13542295 0.13102096 8.1014207e-39
0.98773408 0.13542295 0.13352096 1.1413992e-38
0.98773408 0.13792294 0.12602097 1.5785739e-39
0.98773408 0.13792294 0.12852097 4.3217838e-39
0.98773408 0.14042294 0.12602097 5.542986e-39
0.98773408 0.14042294 0.12852097 5.5411713e-39
0.98773408 0.13792294 0.13102096 1.55404e-42
0.98773408 0.13792294 0.13352096 3.3364916e-42
0.98773408 0.14042294 0.13102096 4.7189567e-40
0.98773408 0.14042294 0.13352096 7.2965611e-42
0.98523408 0.13292295 0.13602096 1.9150833e-38
0.98523408 0.13542295 0.13602096 1.3435071e-38
0.98523408 0.13792294 0.13602096 2.9514541e-39
0.99023408 0.14042294 0.13602096 1.0393366e-38
0.98273408 0.14292295 0.12602097 6.5482257e-40
0.98523408 0.14292295 0.12852097 3.521152e-39
0.98523408 0.14292295 0.13102096 6.2780357e-39
0.98773408 0.14292295 0.12602097 1.6747352e-39
0.98773408 0.14292295 0.12852097 6.0947207e-39
0.98773408 0.14542295 0.12602097 8.0154272e-42
0.98773408 0.14542295 0.12852097 5.4479163e-39
0.98773408 0.14292295 0.13102096 2.6802566e-39
0.98773408 0.14292295 0.13352096 3.7752942e-40
0.99023408 0.14292295 0.13102096 2.8632073e-39
0.99023408 0.14542295 0.13102096 2.9568421e-39
0.98773408 0.14792295 0.12602097 1.1259433e-41
0.98773408 0.14792295 0.12852097 5.4479219e-39
0.98773408 0.15042295 0.12602097 1.1259433e-41
0.98773408 0.15042295 0.12852097 6.6453875e-39
0.99023408 0.14792295 0.13102096 1.6675508e-39
0.99023408 0.15042295 0.13102096 1.667562e-39
0.99023408 0.15042295 0.13352096 1.8540538e-39
0.99023408 0.14292295 0.13602096 9.3849723e-39
0.99273407 0.14042294 0.13602096 9.9342028e-39
0.99273407 0.14542295 0.12602097 5.6326663e-39
0.99273407 0.14542295 0.12852097 2.9553987e-39
0.99523407 0.14542295 0.13102096 1.0228988e-39
0.99523407 0.14542295 0.13352096 9.5690104e-39
0.99273407 0.14792295 0.12602097 6.0904159e-39
0.99273407 0.14792295 0.12852097 2.7706585e-39
0.99523407 0.14792295 0.13102096 1.3774764e-41
0.99523407 0.14792295 0.13352096 1.1315653e-38
0.99523407 0.15042295 0.13102096 1.0896497e-41
0.99523407 0.15042295 0.13352096 1.1312371e-38
0.99773407 0.14792295 0.13102096 3.8219575e-40
0.99273407 0.14292295 0.13602096 9.1080308e-39
0.99273407 0.14542295 0.13602096 1.0121461e-38
0.99273407 0.15042295 0.13602096 1.1953084e-38
0.98523408 0.15292294 0.10602096 1.1972694e-41
0.98523408 0.15542294 0.10602096 1.0897898e-41
0.98523408 0.15292294 0.11102096 1.1972694e-41
0.98523408 0.15542294 0.11102096 1.1972694e-41
0.98523408 0.15792295 0.10602096 1.0897898e-41
0.98523408 0.15792295 0.10852096 1.0897898e-41
0.98523408 0.16042295 0.10602096 1.1258032e-41
0.98523408 0.16042295 0.10852096 1.1258032e-41
0.98523408 0.15792295 0.11102096 1.1972694e-41
0.98523408 0.15792295 0.11352096 1.1613962e-41
0.98523408 0.16042295 0.11102096 1.1258032e-41
0.98523408 0.16042295 0.11352096 1.1619567e-41
0.98773408 0.15292294 0.10602096 1.1253828e-41
0.98773408 0.15292294 0.10852096 1.1972694e-41
0.98773408 0.15542294 0.10602096 1.0897898e-41
0.98773408 0.15292294 0.11352096 1.1975497e-41
0.98773408 0.15542294 0.11352096 1.2694363e-41
0.98773408 0.15792295 0.10602096 1.1972694e-41
0.98773408 0.15792295 0.11352096 1.1972694e-41
0.98773408 0.16042295 0.11352096 1.1975497e-41
0.98523408 0.15542294 0.11602096 1.1972694e-41
0.98523408 0.15542294 0.11852096 1.2338433e-41
0.98273408 0.15292294 0.12102097 1.2342637e-41
0.98273408 0.15542294 0.12102097 1.3051694e-41
0.98523408 0.15292294 0.12352096 4.7115718e-40
0.98523408 0.15542294 0.12352096 4.7115718e-40
0.98273408 0.15792295 0.11852096 1.2338433e-41
0.98273408 0.16042295 0.11852096 1.1975497e-41
0.98523408 0.15792295 0.11602096 1.1619567e-41
0.98523408 0.15792295 0.11852096 1.2338433e-41
0.98523408 0.16042295 0.11602096 1.1619567e-41
0.98523408 0.16042295 0.11852096 1.2338433e-41
0.98273408 0.15792295 0.12102097 1.2342637e-41
0.98273408 0.16042295 0.12352096 1.2346841e-41
0.98523408 0.15792295 0.12352096 1.3061503e-41
0.98523408 0.16042295 0.12352096 1.2694363e-41
0.98773408 0.15292294 0.11852096 1.3051694e-41
0.98773408 0.15542294 0.11852096 1.30587e-41
0.99023408 0.15292294 0.11602096 1.3051694e-41
0.98773408 0.15292294 0.12102097 1.3051694e-41
0.98273408 0.16292295 0.10602096 1.0897898e-41
0.98273408 0.16542295 0.10602096 1.1258032e-41
0.98523408 0.16292295 0.10852096 1.0900701e-41
0.98523408 0.16542295 0.10852096 1.0900701e-41
0.98273408 0.16292295 0.11102096 1.1972694e-41
0.98273408 0.16292295 0.11352096 1.1619567e-41
0.98273408 0.16542295 0.11102096 1.1258032e-41
0.98273408 0.16542295 0.11352096 1.1619567e-41
0.98523408 0.16292295 0.11102096 1.1253828e-41
0.98523408 0.16292295 0.11352096 1.1619567e-41
0.98523408 0.16542295 0.11102096 1.1972694e-41
0.98523408 0.16542295 0.11352096 1.1262236e-41
0.98273408 0.16792294 0.10602096 1.1265038e-41
0.98273408 0.16792294 0.10852096 1.1619567e-41
0.98273408 0.17042294 0.10602096 1.0909109e-41
0.98273408 0.17042294 0.10852096 1.1625172e-41
0.98523408 0.16792294 0.10852096 1.1258032e-41
0.98273408 0.16792294 0.11102096 1.1619567e-41
0.98273408 0.17042294 0.11102096 1.2338433e-41
0.98273408 0.16292295 0.11852096 1.1975497e-41
0.98273408 0.16542295 0.11852096 1.1622369e-41
0.98273408 0.16292295 0.12352096 1.2346841e-41
0.98273408 0.16542295 0.12352096 1.0184637e-41
0.98523408 0.16292295 0.12352096 1.1972694e-41
0.98523408 0.16542295 0.12352096 1.0904905e-41
0.98273408 0.16792294 0.11852096 1.2698567e-41
0.98273408 0.16792294 0.12352096 1.0906306e-41
0.98273408 0.17042294 0.12352096 1.0906306e-41
0.98273408 0.15292294 0.12602097 2.8748479e-40
0.98273408 0.15542294 0.12602097 3.7968042e-40
0.98523408 0.15542294 0.12852097 4.8057685e-39
0.98523408 0.15542294 0.13102096 5.5404525e-39
0.98273408 0.15792295 0.12602097 1.1269242e-41
0.98273408 0.16042295 0.12602097 1.1262236e-41
0.98273408 0.16042295 0.12852097 6.0918242e-39
0.98523408 0.15792295 0.12852097 5.7259199e-39
0.98523408 0.16042295 0.12852097 5.8170352e-39
0.98523408 0.15792295 0.13102096 5.3560388e-39
0.98523408 0.15792295 0.13352096 6.2427847e-42
0.98523408 0.16042295 0.13102096 3.7919753e-39
0.98523408 0.16042295 0.13352096 5.8644341e-42
0.98773408 0.15292294 0.12602097 4.8979669e-39
0.98773408 0.15292294 0.12852097 6.0003558e-39
0.98773408 0.15542294 0.12602097 4.9901626e-39
0.98773408 0.15542294 0.12852097 6.0003558e-39
0.98773408 0.15542294 0.13102096 7.3091728e-42
0.98773408 0.15542294 0.13352096 4.4337083e-42
0.99023408 0.15292294 0.13102096 1.1269242e-41
0.99023408 0.15292294 0.13352096 3.2388015e-39
0.99023408 0.15542294 0.13102096 9.4671724e-42
0.98773408 0.15792295 0.12602097 5.3567773e-39
0.98773408 0.15792295 0.12852097 5.7248213e-39
0.98773408 0.15792295 0.13102096 7.6637013e-42
0.98773408 0.15792295 0.13352096 7.3175806e-42
0.98773408 0.16042295 0.13102096 6.230173e-42
0.98773408 0.16042295 0.13352096 5.5253198e-42
0.99023408 0.15792295 0.13102096 1.0184637e-41
0.99023408 0.15792295 0.13352096 6.8300955e-39
0.99023408 0.16042295 0.13102096 4.4435174e-42
0.98523408 0.15792295 0.13602096 7.1063306e-39
0.98523408 0.16042295 0.13602096 7.9357186e-39
0.98273408 0.16292295 0.12602097 1.3783172e-41
0.98273408 0.16292295 0.12852097 2.8736316e-39
0.98273408 0.16542295 0.12602097 1.7747445e-41
0.98273408 0.16542295 0.12852097 2.7814359e-39
0.98523408 0.16292295 0.12852097 5.5404497e-39
0.98523408 0.16542295 0.12852097 2.5970461e-39
0.98273408 0.16292295 0.13102096 2.6877984e-39
0.98273408 0.16292295 0.13352096 8.0252363e-42
0.98273408 0.16542295 0.13102096 2.4112087e-39
0.98273408 0.16542295 0.13352096 6.9560456e-42
0.98523408 0.16292295 0.13102096 3.607584e-39
0.98523408 0.16292295 0.13352096 8.7525102e-42
0.98523408 0.16542295 0.13102096 2.5034043e-39
0.98523408 0.16542295 0.13352096 8.3909752e-42
0.98273408 0.16792294 0.12602097 1.0315364e-39
0.98273408 0.16792294 0.12852097 2.504147e-39
0.98273408 0.17042294 0.12602097 1.7691015e-39
0.98273408 0.17042294 0.12852097 2.0413724e-39
0.98273408 0.16792294 0.13102096 1.4917733e-39
0.98273408 0.16792294 0.13352096 8.3937778e-42
0.98273408 0.17042294 0.13102096 2.9215391e-40
0.98273408 0.17042294 0.13352096 6.9574469e-42
0.98523408 0.16792294 0.13352096 1.0191644e-41
0.98523408 0.17042294 0.13352096 1.0218296e-39
0.98773408 0.16292295 0.13102096 6.230173e-42
0.98773408 0.16292295 0.13352096 5.8854536e-42
0.98773408 0.16542295 0.13102096 6.2329756e-42
0.98773408 0.16542295 0.13352096 9.5941511e-39
0.98773408 0.16792294 0.13352096 1.0513581e-38
0.98773408 0.17042294 0.13352096 1.1525941e-38
0.98273408 0.16292295 0.13602096 8.6736339e-39
0.98273408 0.16542295 0.13602096 1.018744e-41
0.98523408 0.16292295 0.13602096 8.7661883e-39
0.98523408 0.16292295 0.13852096 1.2354956e-38
0.98523408 0.16542295 0.13602096 9.2268077e-39
0.98523408 0.16542295 0.13852096 1.2539707e-38
0.98273408 0.16792294 0.13602096 1.1629376e-41
0.98273408 0.17042294 0.13602096 1.1154476e-39
0.98523408 0.16792294 0.13602096 1.0422817e-38
0.98523408 0.17042294 0.13602096 1.1710682e-38
0.98773408 0.16292295 0.13852096 1.2447153e-38
0.98773408 0.16542295 0.13852096 1.2723738e-38
0.99273407 0.15542294 0.12852097 9.4671724e-42
0.99523407 0.15292294 0.13102096 4.7115718e-40
0.99523407 0.15542294 0.13102096 9.8287074e-42
0.99523407 0.15792295 0.13102096 6.2315743e-42
0.99773407 0.15792295 0.12852097 6.5875041e-42
0.9702341 0.18042295 0.073520958 1.1269242e-41
0.9702341 0.18292294 0.073520958 1.1625172e-41
0.97523409 0.17542295 0.068520963 1.0194446e-41
0.97523409 0.17792295 0.068520963 1.0194446e-41
0.97523409 0.18042295 0.068520963 1.0911911e-41
0.97273409 0.18042295 0.071020961 1.0911911e-41
0.97523409 0.18042295 0.073520958 1.0909109e-41
0.98023409 0.17292295 0.066020966 9.8343126e-42
0.97773409 0.17292295 0.071020961 1.1274847e-41
0.97773409 0.17542295 0.071020961 1.1634981e-41
0.98023409 0.17292295 0.073520958 1.2346841e-41
0.98023409 0.17542295 0.073520958 1.2346841e-41
0.98023409 0.17792295 0.066020966 1.0194446e-41
0.97773409 0.17792295 0.071020961 1.1629376e-41
0.97773409 0.18042295 0.071020961 1.0909109e-41
0.98023409 0.17792295 0.073520958 1.2346841e-41
0.98023409 0.18042295 0.073520958 1.1265038e-41
0.97273409 0.18042295 0.076020963 1.0909109e-41
0.97273409 0.18042295 0.078520961 1.2342637e-41
0.97523409 0.17792295 0.078520961 1.2698567e-41
0.97523409 0.18042295 0.076020963 1.2705573e-41
0.97523409 0.18042295 0.078520961 1.30587e-41
0.97523409 0.17792295 0.081020959 1.1986707e-41
0.97523409 0.18042295 0.081020959 1.2346841e-41
0.97773409 0.17292295 0.078520961 1.1273446e-41
0.97773409 0.17542295 0.076020963 1.2702771e-41
0.97773409 0.17542295 0.078520961 1.2348242e-41
0.98023409 0.17292295 0.076020963 1.0547574e-41
0.98023409 0.17542295 0.076020963 1.1269242e-41
0.97773409 0.17292295 0.081020959 1.163358e-41
0.97773409 0.17542295 0.081020959 1.1269242e-41
0.98023409 0.17292295 0.081020959 1.163358e-41
0.98023409 0.17292295 0.083520964 1.0909109e-41
0.98023409 0.17542295 0.081020959 1.1269242e-41
0.98023409 0.17542295 0.083520964 1.0909109e-41
0.97773409 0.17792295 0.076020963 1.1629376e-41
0.97773409 0.17792295 0.078520961 1.1629376e-41
0.97773409 0.18042295 0.076020963 1.2702771e-41
0.97773409 0.18042295 0.078520961 1.30587e-41
0.98023409 0.17792295 0.076020963 1.1986707e-41
0.97773409 0.17792295 0.081020959 1.1629376e-41
0.97773409 0.17792295 0.083520964 1.1985306e-41
0.97773409 0.18042295 0.081020959 1.2346841e-41
0.97773409 0.18042295 0.083520964 1.2346841e-41
0.98023409 0.17792295 0.081020959 1.1269242e-41
0.98023409 0.17792295 0.083520964 1.0909109e-41
0.98023409 0.18042295 0.081020959 1.1986707e-41
0.98023409 0.18042295 0.083520964 1.1629376e-41
0.97523409 0.18292294 0.066020966 9.4643698e-42
0.97523409 0.18292294 0.068520963 1.0911911e-41
0.97523409 0.18542294 0.066020966 1.3774764e-41
0.97523409 0.18542294 0.068520963 1.1265038e-41
0.97273409 0.18292294 0.071020961 1.1985306e-41
0.97273409 0.18542294 0.071020961 1.1265038e-41
0.97523409 0.18292294 0.073520958 1.2342637e-41
0.97523409 0.18542294 0.073520958 1.1982503e-41
0.97523409 0.18792294 0.066020966 1.30587e-41
0.97523409 0.18792294 0.068520963 1.0909109e-41
0.97523409 0.19042295 0.066020966 1.3418834e-41
0.97523409 0.19042295 0.068520963 1.1269242e-41
0.97273409 0.18792294 0.071020961 1.1629376e-41
0.97273409 0.19042295 0.071020961 1.1986707e-41
0.97523409 0.18792294 0.073520958 1.1982503e-41
0.97523409 0.19042295 0.073520958 1.2342637e-41
0.97773409 0.18542294 0.071020961 1.2346841e-41
0.98023409 0.18542294 0.073520958 1.1985306e-41
0.97773409 0.18792294 0.071020961 1.1629376e-41
0.97773409 0.19042295 0.071020961 1.1267841e-41
0.98023409 0.18792294 0.073520958 1.1986707e-41
0.97273409 0.18292294 0.076020963 1.1982503e-41
0.97273409 0.18292294 0.078520961 1.1982503e-41
0.97523409 0.18292294 0.076020963 1.2695764e-41
0.97523409 0.18292294 0.078520961 1.2342637e-41
0.97523409 0.18542294 0.076020963 1.2334229e-41
0.97523409 0.18542294 0.078520961 1.2342637e-41
0.97523409 0.18292294 0.081020959 1.30587e-41
0.97523409 0.18542294 0.081020959 1.30587e-41
0.97523409 0.18792294 0.076020963 1.2342637e-41
0.97523409 0.18792294 0.078520961 1.1982503e-41
0.97523409 0.19042295 0.076020963 1.2342637e-41
0.97523409 0.19042295 0.078520961 1.1986707e-41
0.97273409 0.19042295 0.083520964 1.0909109e-41
0.97523409 0.18792294 0.081020959 1.1985306e-41
0.97523409 0.19042295 0.081020959 1.1986707e-41
0.97773409 0.18292294 0.076020963 1.2334229e-41
0.97773409 0.18292294 0.078520961 1.1629376e-41
0.97773409 0.18542294 0.076020963 1.2334229e-41
0.97773409 0.18542294 0.078520961 1.1982503e-41
0.97773409 0.18292294 0.083520964 1.30587e-41
0.97773409 0.18542294 0.083520964 1.3418834e-41
0.97773409 0.18792294 0.076020963 1.1620968e-41
0.97773409 0.18792294 0.078520961 1.163358e-41
0.97773409 0.19042295 0.076020963 1.1982503e-41
0.97773409 0.18792294 0.083520964 1.1985306e-41
0.97773409 0.19042295 0.083520964 1.0909109e-41
0.9702341 0.19042295 0.10352096 1.1625172e-41
0.97523409 0.18042295 0.088520959 1.0911911e-41
0.97523409 0.18042295 0.093520962 1.1985306e-41
0.98023409 0.17292295 0.088520959 1.1982503e-41
0.98023409 0.17542295 0.088520959 1.0909109e-41
0.97773409 0.17292295 0.091020964 1.2342637e-41
0.97773409 0.17292295 0.093520962 1.1265038e-41
0.97773409 0.17542295 0.091020964 1.1982503e-41
0.97773409 0.17542295 0.093520962 1.1274847e-41
0.98023409 0.17292295 0.093520962 1.1265038e-41
0.98023409 0.17542295 0.093520962 1.1629376e-41
0.97773409 0.18042295 0.086020961 1.1986707e-41
0.98023409 0.17792295 0.088520959 1.0909109e-41
0.98023409 0.18042295 0.088520959 1.1265038e-41
0.97773409 0.17792295 0.091020964 1.2342637e-41
0.97773409 0.17792295 0.093520962 1.1262236e-41
0.97773409 0.18042295 0.091020964 1.1265038e-41
0.97773409 0.18042295 0.093520962 1.1982503e-41
0.97523409 0.17542295 0.096020959 1.1985306e-41
0.97523409 0.17792295 0.096020959 1.1258032e-41
0.97523409 0.18042295 0.096020959 1.1619567e-41
0.97523409 0.18042295 0.098520964 1.1982503e-41
0.97273409 0.18042295 0.10352096 1.1982503e-41
0.97523409 0.17792295 0.10102096 1.2334229e-41
0.97523409 0.18042295 0.10102096 1.1982503e-41
0.97773409 0.17292295 0.096020959 1.1265038e-41
0.97773409 0.17292295 0.098520964 1.1265038e-41
0.97773409 0.17542295 0.096020959 1.1265038e-41
0.97773409 0.17542295 0.098520964 1.1265038e-41
0.97773409 0.17292295 0.10352096 1.0911911e-41
0.97773409 0.17542295 0.10352096 1.0911911e-41
0.98023409 0.17292295 0.10102096 1.1265038e-41
0.98023409 0.17292295 0.10352096 1.0911911e-41
0.98023409 0.17542295 0.10102096 1.1265038e-41
0.97773409 0.17792295 0.096020959 1.0900701e-41
0.97773409 0.17792295 0.098520964 1.2334229e-41
0.97773409 0.18042295 0.096020959 1.0900701e-41
0.97773409 0.17792295 0.10102096 1.1258032e-41
0.97773409 0.17792295 0.10352096 1.1265038e-41
0.97773409 0.18042295 0.10102096 1.1620968e-41
0.97523409 0.18292294 0.086020961 1.1618166e-41
0.97523409 0.18292294 0.088520959 1.1985306e-41
0.97523409 0.18542294 0.086020961 1.2334229e-41
0.97523409 0.18542294 0.088520959 1.2346841e-41
0.97273409 0.18542294 0.091020964 1.1620968e-41
0.97523409 0.18292294 0.093520962 1.1265038e-41
0.97523409 0.18542294 0.093520962 1.1265038e-41
0.97273409 0.19042295 0.088520959 1.1265038e-41
0.97523409 0.18792294 0.086020961 1.2342637e-41
0.97523409 0.18792294 0.088520959 1.2346841e-41
0.97523409 0.19042295 0.086020961 1.2342637e-41
0.97523409 0.19042295 0.088520959 1.1986707e-41
0.97273409 0.18792294 0.091020964 1.1985306e-41
0.97273409 0.19042295 0.091020964 1.1267841e-41
0.97273409 0.19042295 0.093520962 1.1267841e-41
0.97523409 0.18792294 0.093520962 1.1985306e-41
0.97523409 0.19042295 0.093520962 1.1985306e-41
0.97773409 0.18292294 0.086020961 1.1626573e-41
0.97773409 0.18542294 0.086020961 1.1986707e-41
0.97773409 0.18292294 0.091020964 1.0911911e-41
0.97773409 0.18542294 0.091020964 1.1985306e-41
0.97273409 0.18542294 0.096020959 1.1265038e-41
0.97523409 0.18292294 0.096020959 1.1265038e-41
0.97523409 0.18292294 0.098520964 1.0544771e-41
0.97523409 0.18542294 0.096020959 1.1265038e-41
0.97523409 0.18542294 0.098520964 1.0550376e-41
0.97273409 0.18292294 0.10102096 1.1982503e-41
0.97273409 0.18292294 0.10352096 1.1982503e-41
0.97273409 0.18542294 0.10102096 1.1982503e-41
0.97273409 0.18542294 0.10352096 1.1982503e-41
0.97523409 0.18292294 0.10102096 1.1620968e-41
0.97273409 0.18792294 0.096020959 1.1982503e-41
0.97273409 0.19042295 0.096020959 1.1982503e-41
0.97523409 0.18792294 0.098520964 1.1620968e-41
0.97523409 0.19042295 0.098520964 1.1982503e-41
0.97273409 0.18792294 0.10102096 1.1982503e-41
0.97273409 0.18792294 0.10352096 1.2331426e-41
0.97273409 0.19042295 0.10102096 1.1982503e-41
0.97273409 0.19042295 0.10352096 1.198951e-41
0.97773409 0.18292294 0.096020959 1.0544771e-41
0.9677341 0.20042294 0.066020966 7.6707078e-42
0.9677341 0.20042294 0.068520963 9.1042361e-42
0.9702341 0.19792295 0.066020966 8.3881726e-42
0.9702341 0.20042294 0.066020966 8.023835e-42
0.9702341 0.20042294 0.071020961 1.1265038e-41
0.9702341 0.20042294 0.073520958 1.0544771e-41
0.9677341 0.20292294 0.066020966 9.4671724e-42
0.9677341 0.20292294 0.068520963 9.83151e-42
0.9677341 0.20542295 0.066020966 8.3979817e-42
0.9677341 0.20542295 0.068520963 9.1140452e-42
0.9702341 0.20292294 0.066020966 8.7511089e-42
0.9702341 0.20542295 0.066020966 9.4643698e-42
0.9702341 0.20292294 0.071020961 1.0550376e-41
0.9702341 0.20292294 0.073520958 1.0544771e-41
0.9702341 0.20542295 0.071020961 1.0911911e-41
0.9702341 0.20542295 0.073520958 1.0911911e-41
0.9677341 0.20792295 0.066020966 9.4643698e-42
0.9677341 0.20792295 0.068520963 1.0540567e-41
0.9677341 0.21042295 0.066020966 1.0184637e-41
0.9677341 0.21042295 0.068520963 1.0540567e-41
0.9702341 0.20792295 0.066020966 9.1140452e-42
0.9702341 0.21042295 0.066020966 9.4643698e-42
0.9702341 0.20792295 0.071020961 1.0544771e-41
0.9702341 0.20792295 0.073520958 1.0544771e-41
0.9702341 0.21042295 0.071020961 1.0544771e-41
0.9702341 0.21042295 0.073520958 1.0544771e-41
0.9702341 0.20292294 0.081020959 1.1265038e-41
0.9702341 0.20292294 0.083520964 1.0544771e-41
0.9702341 0.20542295 0.081020959 1.1274847e-41
0.9702341 0.20542295 0.083520964 1.0900701e-41
0.9702341 0.20792295 0.078520961 1.1629376e-41
0.9702341 0.21042295 0.078520961 1.0550376e-41
0.9677341 0.20792295 0.083520964 1.1982503e-41
0.9677341 0.21042295 0.081020959 1.0544771e-41
0.9677341 0.21042295 0.083520964 1.1265038e-41
0.9702341 0.20792295 0.081020959 1.1265038e-41
0.9702341 0.20792295 0.083520964 1.0544771e-41
0.9702341 0.21042295 0.081020959 1.1265038e-41
0.9702341 0.21042295 0.083520964 1.1265038e-41
0.97273409 0.19542295 0.068520963 1.1629376e-41
0.97523409 0.19292295 0.066020966 1.2346841e-41
0.97523409 0.19542295 0.066020966 1.1993714e-41
0.97273409 0.19292295 0.071020961 1.1986707e-41
0.97273409 0.19542295 0.071020961 1.2342637e-41
0.97523409 0.19292295 0.073520958 1.2342637e-41
0.97523409 0.19542295 0.073520958 1.1618166e-41
0.97273409 0.19792295 0.068520963 1.1982503e-41
0.97273409 0.20042294 0.068520963 1.1620968e-41
0.97523409 0.19792295 0.066020966 1.163358e-41
0.97523409 0.20042294 0.066020966 1.1985306e-41
0.97273409 0.19792295 0.071020961 1.1982503e-41
0.97273409 0.20042294 0.071020961 1.1982503e-41
0.97523409 0.19792295 0.073520958 1.0544771e-41
0.97523409 0.20042294 0.073520958 1.1265038e-41
0.97273409 0.19292295 0.076020963 1.2342637e-41
0.97273409 0.19292295 0.078520961 1.1982503e-41
0.97273409 0.19542295 0.078520961 1.1982503e-41
0.97523409 0.19292295 0.076020963 1.1986707e-41
0.97523409 0.19292295 0.078520961 1.1986707e-41
0.97523409 0.19542295 0.076020963 1.2334229e-41
0.97523409 0.19542295 0.078520961 1.1982503e-41
0.97273409 0.19292295 0.083520964 1.1622369e-41
0.97273409 0.19542295 0.083520964 1.1982503e-41
0.97523409 0.19292295 0.081020959 1.1986707e-41
0.97523409 0.19542295 0.081020959 1.1985306e-41
0.97273409 0.20042294 0.076020963 1.0911911e-41
0.97273409 0.20042294 0.078520961 1.1982503e-41
0.97523409 0.19792295 0.076020963 1.2342637e-41
0.97523409 0.19792295 0.078520961 1.1985306e-41
0.97523409 0.20042294 0.076020963 1.2342637e-41
0.97523409 0.20042294 0.078520961 1.1985306e-41
0.97273409 0.19792295 0.083520964 1.1629376e-41
0.97273409 0.20042294 0.083520964 1.1265038e-41
0.97523409 0.19792295 0.081020959 1.2345439e-41
0.97523409 0.20042294 0.081020959 1.1985306e-41
0.97773409 0.19292295 0.076020963 1.1985306e-41
0.97773409 0.19542295 0.076020963 1.2342637e-41
0.97773409 0.19542295 0.078520961 1.1986707e-41
0.97773409 0.19292295 0.083520964 1.1982503e-41
0.97773409 0.19542295 0.081020959 1.1620968e-41
0.97773409 0.19542295 0.083520964 1.1267841e-41
0.97773409 0.19792295 0.076020963 1.1982503e-41
0.97773409 0.19792295 0.078520961 1.1629376e-41
0.97773409 0.20042294 0.076020963 1.1270644e-41
0.97773409 0.20042294 0.078520961 1.2704172e-41
0.97773409 0.19792295 0.081020959 1.1982503e-41
0.97773409 0.19792295 0.083520964 1.1267841e-41
0.97773409 0.20042294 0.083520964 1.1267841e-41
0.97273409 0.20292294 0.068520963 1.0550376e-41
0.97273409 0.20542295 0.068520963 1.1265038e-41
0.97273409 0.20292294 0.071020961 1.1265038e-41
0.97523409 0.20292294 0.073520958 1.1620968e-41
0.97273409 0.20792295 0.068520963 1.0550376e-41
0.97273409 0.21042295 0.068520963 1.1974095e-41
0.97273409 0.20792295 0.071020961 1.1265038e-41
0.97273409 0.21042295 0.071020961 1.1258032e-41
0.97523409 0.20792295 0.073520958 1.0911911e-41
0.97273409 0.20292294 0.076020963 1.0550376e-41
0.97273409 0.20292294 0.078520961 1.0544771e-41
0.97273409 0.20542295 0.076020963 1.0911911e-41
0.97273409 0.20542295 0.078520961 1.0555981e-41
0.97523409 0.20292294 0.076020963 1.0550376e-41
0.97523409 0.20542295 0.076020963 1.1267841e-41
0.97273409 0.20292294 0.083520964 1.1265038e-41
0.97273409 0.20542295 0.083520964 1.1262236e-41
0.97273409 0.20792295 0.076020963 1.0550376e-41
0.97273409 0.21042295 0.076020963 1.0550376e-41
0.9677341 0.20042294 0.088520959 1.1982503e-41
0.9702341 0.20042294 0.091020964 1.1982503e-41
0.9702341 0.19542295 0.098520964 1.1265038e-41
0.9677341 0.19542295 0.10102096 1.1265038e-41
0.9702341 0.19292295 0.10102096 1.1265038e-41
0.9702341 0.19292295 0.10352096 1.1265038e-41
0.9702341 0.19542295 0.10102096 1.0544771e-41
0.9702341 0.19542295 0.10352096 1.1265038e-41
0.9677341 0.20042294 0.096020959 1.1982503e-41
0.9677341 0.20042294 0.098520964 1.0900701e-41
0.9702341 0.19792295 0.098520964 1.0900701e-41
0.9702341 0.20042294 0.096020959 1.1265038e-41
0.9702341 0.20042294 0.098520964 1.0909109e-41
0.9677341 0.19792295 0.10102096 1.0900701e-41
0.9677341 0.20042294 0.10102096 1.0540567e-41
0.9702341 0.19792295 0.10102096 1.1982503e-41
0.9702341 0.19792295 0.10352096 9.4643698e-42
0.9702341 0.20042294 0.10352096 8.7441024e-42
0.9677341 0.20292294 0.088520959 1.2334229e-41
0.9702341 0.20292294 0.086020961 1.1982503e-41
0.9702341 0.20542295 0.086020961 1.1974095e-41
0.9702341 0.20292294 0.091020964 1.1618166e-41
0.9702341 0.20542295 0.091020964 1.1618166e-41
0.9677341 0.20792295 0.086020961 1.1265038e-41
0.9677341 0.20792295 0.088520959 1.0544771e-41
0.9677341 0.21042295 0.086020961 1.1985306e-41
0.9677341 0.21042295 0.088520959 1.0544771e-41
0.9702341 0.20792295 0.086020961 1.1265038e-41
0.9702341 0.21042295 0.086020961 1.1267841e-41
0.9677341 0.20792295 0.093520962 1.1620968e-41
0.9677341 0.21042295 0.093520962 1.0184637e-41
0.9702341 0.20792295 0.091020964 1.0544771e-41
0.9702341 0.21042295 0.091020964 1.0544771e-41
0.9652341 0.20792295 0.10352096 1.0544771e-41
0.9652341 0.21042295 0.10352096 1.0544771e-41
0.9677341 0.20292294 0.096020959 1.1620968e-41
0.9677341 0.20292294 0.098520964 1.1265038e-41
0.9677341 0.20542295 0.096020959 1.1265038e-41
0.9677341 0.20542295 0.098520964 1.0900701e-41
0.9702341 0.20292294 0.096020959 1.1620968e-41
0.9702341 0.20542295 0.096020959 1.1620968e-41
0.9677341 0.20292294 0.10102096 1.0544771e-41
0.9677341 0.20542295 0.10102096 1.0173427e-41
0.9677341 0.20542295 0.10352096 8.3881726e-42
0.9702341 0.20292294 0.10352096 8.0294402e-42
0.9702341 0.20542295 0.10352096 6.9462365e-42
0.9677341 0.20792295 0.096020959 1.1620968e-41
0.9677341 0.20792295 0.098520964 1.0540567e-41
0.9677341 0.21042295 0.096020959 1.0544771e-41
0.9677341 0.21042295 0.098520964 1.1267841e-41
0.9702341 0.20792295 0.096020959 1.1620968e-41
0.9702341 0.21042295 0.096020959 1.1270644e-41
0.9677341 0.20792295 0.10102096 1.0893694e-41
0.9677341 0.20792295 0.10352096 1.0540567e-41
0.9677341 0.21042295 0.10102096 1.0544771e-41
0.9677341 0.21042295 0.10352096 1.0900701e-41
0.97273409 0.19292295 0.088520959 1.1982503e-41
0.97523409 0.19292295 0.086020961 1.1265038e-41
0.97523409 0.19292295 0.088520959 1.1985306e-41
0.97523409 0.19542295 0.086020961 1.1265038e-41
0.97523409 0.19542295 0.088520959 1.1985306e-41
0.97273409 0.19292295 0.091020964 1.1267841e-41
0.97273409 0.19542295 0.091020964 1.1267841e-41
0.97523409 0.19292295 0.093520962 1.1985306e-41
0.97523409 0.19542295 0.093520962 1.1985306e-41
0.97523409 0.19792295 0.086020961 1.1629376e-41
0.97523409 0.19792295 0.088520959 1.1629376e-41
0.97523409 0.20042294 0.086020961 1.1982503e-41
0.97523409 0.20042294 0.088520959 1.1982503e-41
0.97273409 0.19792295 0.091020964 1.1267841e-41
0.97273409 0.19792295 0.093520962 1.1985306e-41
0.97273409 0.20042294 0.091020964 1.1982503e-41
0.97273409 0.20042294 0.093520962 1.1982503e-41
0.97523409 0.19792295 0.093520962 1.1982503e-41
0.97523409 0.20042294 0.093520962 1.1982503e-41
0.97273409 0.19292295 0.096020959 1.1985306e-41
0.97273409 0.19542295 0.096020959 1.1982503e-41
0.97523409 0.19292295 0.098520964 1.1982503e-41
0.97523409 0.19542295 0.098520964 1.1265038e-41
0.97273409 0.19292295 0.10102096 1.1982503e-41
0.97273409 0.19292295 0.10352096 1.1258032e-41
0.97273409 0.19542295 0.10102096 1.1619567e-41
0.97273409 0.19792295 0.096020959 1.1982503e-41
0.97273409 0.20042294 0.096020959 1.163358e-41
0.97273409 0.20292294 0.088520959 1.0184637e-41
0.97273409 0.20542295 0.088520959 1.1974095e-41
0.97273409 0.20292294 0.093520962 1.1982503e-41
0.97273409 0.20542295 0.093520962 1.1620968e-41
0.97273409 0.20792295 0.088520959 1.0544771e-41
0.97273409 0.21042295 0.088520959 1.0544771e-41
0.97273409 0.20792295 0.093520962 1.1982503e-41
0.97273409 0.21042295 0.093520962 1.1620968e-41
0.97273409 0.20292294 0.096020959 1.1265038e-41
0.97273409 0.20542295 0.096020959 1.1265038e-41
0.98273408 0.17292295 0.078520961 1.198951e-41
0.98273408 0.17292295 0.086020961 1.0909109e-41
0.98273408 0.17542295 0.086020961 1.0909109e-41
0.98273408 0.17792295 0.086020961 1.0909109e-41
0.98273408 0.18042295 0.086020961 1.1985306e-41
0.9702341 0.19042295 0.10602096 8.023835e-42
0.9702341 0.18792294 0.11102096 7.3771302e-39
0.9702341 0.19042295 0.11102096 9.6744623e-39
0.9702341 0.18792294 0.11602096 6.3640544e-39
0.9702341 0.19042295 0.11602096 5.2505266e-39
0.97523409 0.17542295 0.10852096 1.1982503e-41
0.97273409 0.17792295 0.10602096 1.1982503e-41
0.97273409 0.17792295 0.10852096 1.2698567e-41
0.97273409 0.18042295 0.10602096 1.1258032e-41
0.97273409 0.18042295 0.10852096 1.1972694e-41
0.97523409 0.17792295 0.10602096 1.1265038e-41
0.97523409 0.17792295 0.10852096 1.1265038e-41
0.97523409 0.18042295 0.10602096 1.1253828e-41
0.97523409 0.18042295 0.10852096 1.1619567e-41
0.97523409 0.17792295 0.11102096 1.1974095e-41
0.97523409 0.17792295 0.11352096 1.2338433e-41
0.97523409 0.18042295 0.11102096 1.1258032e-41
0.97523409 0.18042295 0.11352096 1.1975497e-41
0.97773409 0.17542295 0.10852096 1.1625172e-41
0.98023409 0.17292295 0.10602096 1.1273446e-41
0.98023409 0.17292295 0.10852096 1.1273446e-41
0.98023409 0.17542295 0.10602096 1.1273446e-41
0.98023409 0.17542295 0.10852096 1.1993714e-41
0.97773409 0.17292295 0.11352096 1.2332828e-41
0.97773409 0.17542295 0.11102096 1.1258032e-41
0.97773409 0.17542295 0.11352096 1.2338433e-41
0.98023409 0.17292295 0.11352096 1.2338433e-41
0.98023409 0.17542295 0.11352096 1.3055898e-41
0.97773409 0.17792295 0.10852096 1.1265038e-41
0.97773409 0.18042295 0.10852096 1.1619567e-41
0.98023409 0.17792295 0.10602096 1.1265038e-41
0.98023409 0.17792295 0.10852096 1.1258032e-41
0.97773409 0.17792295 0.11102096 1.2338433e-41
0.97773409 0.18042295 0.11102096 1.233563e-41
0.97523409 0.17542295 0.11602096 1.2338433e-41
0.97523409 0.17542295 0.11852096 1.1619567e-41
0.97523409 0.17542295 0.12102097 1.2338433e-41
0.97273409 0.17792295 0.11852096 1.3055898e-41
0.97273409 0.18042295 0.11602096 1.2338433e-41
0.97273409 0.18042295 0.11852096 1.2334229e-41
0.97523409 0.17792295 0.11602096 1.3053095e-41
0.97523409 0.17792295 0.11852096 1.1619567e-41
0.97523409 0.18042295 0.11602096 1.2692961e-41
0.97523409 0.18042295 0.11852096 1.1619567e-41
0.97273409 0.17792295 0.12102097 1.4133496e-41
0.97273409 0.18042295 0.12102097 1.3773363e-41
0.97523409 0.17792295 0.12102097 1.2338433e-41
0.97523409 0.17792295 0.12352096 1.2338433e-41
0.97523409 0.18042295 0.12102097 1.2338433e-41
0.97523409 0.18042295 0.12352096 1.2338433e-41
0.97773409 0.17292295 0.11602096 1.2338433e-41
0.97773409 0.17292295 0.11852096 1.2338433e-41
0.97773409 0.17542295 0.11602096 1.1972694e-41
0.97773409 0.17542295 0.11852096 1.2338433e-41
0.98023409 0.17292295 0.11602096 1.2338433e-41
0.98023409 0.17542295 0.11602096 1.2338433e-41
0.97773409 0.17292295 0.12102097 1.3411828e-41
0.97773409 0.17292295 0.12352096 1.1619567e-41
0.97773409 0.17542295 0.12102097 1.2688758e-41
0.97773409 0.17542295 0.12352096 1.1249624e-41
0.98023409 0.17292295 0.12102097 1.2338433e-41
0.98023409 0.17292295 0.12352096 9.8245035e-42
0.98023409 0.17542295 0.12102097 1.2338433e-41
0.98023409 0.17542295 0.12352096 1.0536363e-41
0.97773409 0.17792295 0.11602096 1.3055898e-41
0.97773409 0.17792295 0.11852096 1.1619567e-41
0.97773409 0.17792295 0.12102097 1.2698567e-41
0.97773409 0.17792295 0.12352096 1.0180433e-41
0.97773409 0.18042295 0.12102097 1.2698567e-41
0.97773409 0.18042295 0.12352096 1.0540567e-41
0.98023409 0.17792295 0.12102097 1.2338433e-41
0.98023409 0.17792295 0.12352096 1.1619567e-41
0.98023409 0.18042295 0.12352096 1.1259433e-41
0.97273409 0.18292294 0.10602096 1.1982503e-41
0.97273409 0.18292294 0.10852096 1.1982503e-41
0.97273409 0.18542294 0.10602096 1.1982503e-41
0.97273409 0.18542294 0.10852096 1.1620968e-41
0.97273409 0.18292294 0.11352096 1.0907707e-41
0.97273409 0.18542294 0.11352096 2.0298103e-39
0.97523409 0.18292294 0.11102096 1.2346841e-41
0.97523409 0.18292294 0.11352096 1.1632179e-41
0.97523409 0.18542294 0.11102096 1.1986707e-41
