# .PCD v0.7 - Point Cloud Data file format
VERSION 0.7
FIELDS x y z rgb
SIZE 4 4 4 4
TYPE F F F F
COUNT 1 1 1 1
WIDTH 979
HEIGHT 1
VIEWPOINT 0 0 0 1 0 0 0
POINTS 979
DATA ascii
0.91740024 -0.096627377 0.072988659 6.5549743e-39
0.91740024 -0.096627377 0.075488657 6.924103e-39
0.91740024 -0.094127379 0.072988659 7.3829161e-39
0.91990024 -0.096627377 0.072988659 7.1999668e-39
0.91990024 -0.096627377 0.075488657 7.750977e-39
0.92240024 -0.099127375 0.067988664 7.7517183e-39
0.92240024 -0.099127375 0.070488662 7.3843595e-39
0.92490023 -0.10162738 0.067988664 7.5701983e-39
0.92240024 -0.099127375 0.075488657 7.8431726e-39
0.92490023 -0.10162738 0.072988659 7.3822099e-39
0.92490023 -0.099127375 0.072988659 7.2925198e-39
0.91240025 -0.094127379 0.077988662 7.9350151e-39
0.91490024 -0.094127379 0.080488659 8.0279198e-39
0.91490024 -0.096627377 0.082988657 8.3027088e-39
0.91490024 -0.094127379 0.082988657 8.0275639e-39
0.91490024 -0.094127379 0.085488662 7.9360899e-39
0.91240025 -0.094127379 0.090488657 7.9360843e-39
0.91490024 -0.094127379 0.08798866 8.0279198e-39
0.91490024 -0.094127379 0.090488657 8.3023557e-39
0.91240025 -0.094127379 0.092988662 8.0275639e-39
0.91240025 -0.094127379 0.09548866 8.4867371e-39
0.91490024 -0.094127379 0.092988662 8.302706e-39
0.91490024 -0.094127379 0.09548866 8.0275639e-39
0.91740024 -0.099127375 0.077988662 7.658424e-39
0.91740024 -0.099127375 0.080488659 8.302706e-39
0.91990024 -0.099127375 0.077988662 7.6598603e-39
0.91990024 -0.099127375 0.080488659 7.9357214e-39
0.91990024 -0.099127375 0.082988657 8.3037906e-39
0.91990024 -0.099127375 0.085488662 8.5789356e-39
0.91740024 -0.096627377 0.077988662 7.1999668e-39
0.91740024 -0.096627377 0.080488659 7.6598603e-39
0.91740024 -0.094127379 0.077988662 7.9353682e-39
0.91740024 -0.096627377 0.082988657 8.302706e-39
0.91740024 -0.096627377 0.085488662 8.1201126e-39
0.91740024 -0.094127379 0.082988657 8.0282855e-39
0.91740024 -0.094127379 0.085488662 8.0275667e-39
0.91990024 -0.096627377 0.082988657 8.1201126e-39
0.92240024 -0.099127375 0.077988662 8.4867399e-39
0.92240024 -0.099127375 0.080488659 8.3041437e-39
0.92490023 -0.099127375 0.077988662 8.027917e-39
0.92490023 -0.099127375 0.080488659 8.027917e-39
0.92240024 -0.099127375 0.082988657 8.3041465e-39
0.92490023 -0.099127375 0.085488662 8.3041437e-39
0.91740024 -0.096627377 0.08798866 8.4867399e-39
0.91740024 -0.094127379 0.090488657 8.1197595e-39
0.91990024 -0.096627377 0.08798866 8.0275639e-39
0.91990024 -0.096627377 0.090488657 8.1201154e-39
0.91740024 -0.096627377 0.09548866 8.3041465e-39
0.91990024 -0.096627377 0.09548866 8.5792887e-39
0.92240024 -0.099127375 0.08798866 8.3963464e-39
0.92490023 -0.099127375 0.08798866 8.1201126e-39
0.92490023 -0.099127375 0.090488657 8.5792915e-39
0.92240024 -0.099127375 0.092988662 8.3963436e-39
0.92240024 -0.099127375 0.09548866 8.3041465e-39
0.92490023 -0.099127375 0.092988662 8.3963408e-39
0.92490023 -0.099127375 0.09548866 8.8558798e-39
0.92240024 -0.096627377 0.08798866 8.1201126e-39
0.92240024 -0.096627377 0.090488657 8.5792915e-39
0.92490023 -0.096627377 0.090488657 8.3041437e-39
0.92240024 -0.096627377 0.092988662 8.3041437e-39
0.92240024 -0.096627377 0.09548866 8.4867371e-39
0.92490023 -0.096627377 0.092988662 8.1201126e-39
0.88990021 -0.096627377 0.13048866 8.3030619e-39
0.88990021 -0.094127379 0.13048866 8.0264723e-39
0.88740021 -0.094127379 0.13298866 7.8435257e-39
0.88740021 -0.094127379 0.13548866 8.2101601e-39
0.88990021 -0.094127379 0.13548866 7.4754495e-39
0.89240021 -0.094127379 0.12798867 8.118312e-39
0.89240021 -0.094127379 0.13048866 7.750977e-39
0.89240021 -0.096627377 0.13298866 8.2105104e-39
0.89240021 -0.094127379 0.13298866 7.8417209e-39
0.89240021 -0.094127379 0.13548866 7.8410174e-39
0.8949002 -0.096627377 0.13298866 7.7513245e-39
0.8949002 -0.094127379 0.13298866 7.6591275e-39
0.8949002 -0.094127379 0.13548866 7.4743929e-39
0.89990026 -0.096627377 0.13048866 7.8431726e-39
0.89990026 -0.094127379 0.13048866 7.4743901e-39
0.8974002 -0.094127379 0.13298866 7.7513273e-39
0.90240026 -0.099127375 0.13048866 7.750977e-39
0.90490025 -0.099127375 0.13298866 7.750977e-39
0.90240026 -0.096627377 0.13048866 7.9339221e-39
0.90240026 -0.094127379 0.13048866 8.0261191e-39
0.90490025 -0.096627377 0.12798867 7.8431726e-39
0.90490025 -0.094127379 0.12798867 7.8413705e-39
0.90240026 -0.094127379 0.13298866 7.658424e-39
0.90490025 -0.096627377 0.13298866 7.6584268e-39
0.90490025 -0.096627377 0.13548866 7.2003227e-39
0.90490025 -0.094127379 0.13298866 8.1194064e-39
0.90490025 -0.094127379 0.13548866 7.8453334e-39
0.91240025 -0.096627377 0.10048866 8.5792915e-39
0.91240025 -0.094127379 0.097988658 8.5792915e-39
0.91240025 -0.094127379 0.10048866 8.2101601e-39
0.91490024 -0.096627377 0.097988658 8.4867371e-39
0.91490024 -0.096627377 0.10048866 8.1201126e-39
0.91490024 -0.094127379 0.097988658 8.1201154e-39
0.91490024 -0.096627377 0.10298866 8.4867371e-39
0.91490024 -0.096627377 0.10548866 8.5792887e-39
0.91490024 -0.094127379 0.10298866 8.5789356e-39
0.91490024 -0.094127379 0.10548866 8.6714885e-39
0.92490023 -0.10412738 0.11548866 8.302706e-39
0.91740024 -0.096627377 0.097988658 8.3041465e-39
0.91740024 -0.096627377 0.10048866 8.4874406e-39
0.91990024 -0.096627377 0.097988658 8.3041437e-39
0.91990024 -0.096627377 0.10048866 8.3034095e-39
0.91740024 -0.096627377 0.10298866 8.578567e-39
0.91740024 -0.094127379 0.10298866 8.1201126e-39
0.91990024 -0.096627377 0.10298866 8.6711214e-39
0.91990024 -0.096627377 0.10548866 8.4870931e-39
0.91990024 -0.094127379 0.10548866 8.5789356e-39
0.92490023 -0.099127375 0.097988658 8.3963436e-39
0.92490023 -0.099127375 0.10048866 8.6718417e-39
0.92490023 -0.099127375 0.10298866 8.6714885e-39
0.92490023 -0.099127375 0.10548866 8.3041465e-39
0.92240024 -0.096627377 0.097988658 8.3963408e-39
0.92240024 -0.096627377 0.10048866 8.1201126e-39
0.92240024 -0.096627377 0.10298866 8.6714857e-39
0.92240024 -0.096627377 0.10548866 8.3963408e-39
0.92490023 -0.096627377 0.10298866 8.5789356e-39
0.92490023 -0.096627377 0.10548866 8.5789356e-39
0.92490023 -0.094127379 0.10298866 8.3030591e-39
0.92490023 -0.094127379 0.10548866 8.3030591e-39
0.91740024 -0.096627377 0.10798866 8.5792859e-39
0.91740024 -0.094127379 0.10798866 8.5792887e-39
0.91990024 -0.096627377 0.10798866 8.3027088e-39
0.91990024 -0.096627377 0.11048866 8.761529e-39
0.91990024 -0.094127379 0.10798866 8.3027088e-39
0.91990024 -0.094127379 0.11048866 8.1201126e-39
0.92490023 -0.10162738 0.11548866 8.4867371e-39
0.92490023 -0.099127375 0.11548866 8.4867371e-39
0.92240024 -0.096627377 0.11048866 8.1201126e-39
0.92240024 -0.094127379 0.11048866 8.4867371e-39
0.92490023 -0.096627377 0.10798866 8.3041437e-39
0.92490023 -0.094127379 0.10798866 8.027917e-39
0.92490023 -0.096627377 0.11548866 8.2105076e-39
0.91490024 -0.10412738 0.12798867 8.3034123e-39
0.91240025 -0.099127375 0.12548865 8.4867371e-39
0.91490024 -0.10162738 0.12298866 8.2105104e-39
0.91490024 -0.10162738 0.12548865 8.0279142e-39
0.91490024 -0.099127375 0.12548865 7.8435229e-39
0.91240025 -0.096627377 0.12548865 7.7513273e-39
0.91490024 -0.096627377 0.12548865 7.750977e-39
0.90740025 -0.099127375 0.13048866 7.9335662e-39
0.90990025 -0.10162738 0.12798867 8.2105076e-39
0.90990025 -0.10162738 0.13048866 8.118312e-39
0.90990025 -0.099127375 0.12798867 7.8417237e-39
0.90990025 -0.099127375 0.13048866 7.7509742e-39
0.90740025 -0.099127375 0.13298866 7.6584212e-39
0.90990025 -0.10162738 0.13298866 7.6594806e-39
0.90990025 -0.099127375 0.13298866 7.750977e-39
0.90990025 -0.099127375 0.13548866 8.3037934e-39
0.90740025 -0.096627377 0.13048866 7.750621e-39
0.90740025 -0.094127379 0.13048866 7.4743901e-39
0.90990025 -0.096627377 0.12798867 7.6584212e-39
0.90990025 -0.096627377 0.13048866 7.750977e-39
0.90990025 -0.094127379 0.12798867 7.6584212e-39
0.90740025 -0.096627377 0.13298866 7.7495547e-39
0.90740025 -0.094127379 0.13298866 8.302727e-39
0.90990025 -0.096627377 0.13298866 7.4751314e-39
0.90990025 -0.096627377 0.13548866 8.1176239e-39
0.90990025 -0.094127379 0.13548866 5.9052889e-39
0.91240025 -0.10162738 0.12798867 8.2105076e-39
0.91240025 -0.10162738 0.13048866 8.2105076e-39
0.91240025 -0.099127375 0.12798867 7.9353654e-39
0.91240025 -0.099127375 0.13048866 7.8428167e-39
0.91490024 -0.10162738 0.12798867 7.9357186e-39
0.91240025 -0.10162738 0.13298866 7.5680122e-39
0.91240025 -0.10162738 0.13548866 7.3829161e-39
0.91240025 -0.099127375 0.13298866 7.8428167e-39
0.91240025 -0.099127375 0.13548866 7.4754817e-39
0.91490024 -0.10162738 0.13298866 7.6573394e-39
0.91490024 -0.099127375 0.13298866 7.5673116e-39
0.91240025 -0.096627377 0.12798867 7.4743929e-39
0.91240025 -0.096627377 0.13298866 7.9350305e-39
0.91740024 -0.10662737 0.12548865 8.3030619e-39
0.91740024 -0.10412738 0.12548865 8.0279142e-39
0.91990024 -0.10662737 0.12548865 8.3030619e-39
0.91990024 -0.10412738 0.12298866 8.0279142e-39
0.91990024 -0.10412738 0.12548865 8.4870931e-39
0.92490023 -0.10412738 0.12048866 8.4860183e-39
0.92240024 -0.10412738 0.12298866 8.3030619e-39
0.91990024 -0.10912737 0.13048866 8.117949e-39
0.91740024 -0.10662737 0.13048866 8.0261163e-39
0.91740024 -0.10412738 0.13048866 8.0257632e-39
0.91990024 -0.10662737 0.12798867 8.2105076e-39
0.91990024 -0.10662737 0.13048866 8.118312e-39
0.91990024 -0.10412738 0.12798867 8.3030619e-39
0.91990024 -0.10412738 0.13048866 7.8431698e-39
0.91740024 -0.10662737 0.13298866 7.6591303e-39
0.91740024 -0.10412738 0.13298866 7.567306e-39
0.91990024 -0.10662737 0.13298866 7.4743901e-39
0.91990024 -0.10662737 0.13548866 7.3829133e-39
0.91990024 -0.10412738 0.13298866 7.292517e-39
0.91990024 -0.10412738 0.13548866 7.292517e-39
0.92240024 -0.10912737 0.12798867 8.3941758e-39
0.92240024 -0.10912737 0.13048866 8.1175931e-39
0.92240024 -0.10662737 0.12798867 8.118312e-39
0.92240024 -0.10662737 0.13048866 7.7509742e-39
0.92490023 -0.10662737 0.12798867 8.1183148e-39
0.92490023 -0.10662737 0.13048866 7.474746e-39
0.92240024 -0.10662737 0.13298866 7.6587771e-39
0.92240024 -0.10412738 0.13298866 7.4751118e-39
0.91740024 -0.10162738 0.12048866 8.4874462e-39
0.91740024 -0.099127375 0.12048866 8.2105104e-39
0.91740024 -0.10162738 0.12298866 8.3030619e-39
0.91740024 -0.099127375 0.12298866 7.8435229e-39
0.91990024 -0.10162738 0.12298866 8.4870931e-39
0.91990024 -0.099127375 0.12298866 7.8413705e-39
0.91740024 -0.096627377 0.12298866 7.7513273e-39
0.92240024 -0.10162738 0.12048866 8.3030591e-39
0.92240024 -0.099127375 0.12048866 7.9335662e-39
0.92240024 -0.096627377 0.12048866 7.7509742e-39
0.91740024 -0.10162738 0.13048866 8.0261191e-39
0.91740024 -0.10162738 0.13548866 7.9378864e-39
0.91740024 -0.099127375 0.13548866 7.6620408e-39
0.91990024 -0.10162738 0.13298866 8.120128e-39
0.91990024 -0.10162738 0.13548866 7.7534937e-39
0.89240021 -0.084127374 0.065488659 7.2014185e-39
0.88990021 -0.084127374 0.070488662 7.1081481e-39
0.88740021 -0.084127374 0.072988659 7.4765733e-39
0.88990021 -0.084127374 0.072988659 7.0137875e-39
0.89240021 -0.084127374 0.067988664 6.7433271e-39
0.8949002 -0.084127374 0.067988664 7.1999934e-39
0.8949002 -0.084127374 0.070488662 7.4765733e-39
0.89240021 -0.084127374 0.072988659 6.8311885e-39
0.8949002 -0.084127374 0.072988659 7.1052516e-39
0.8949002 -0.084127374 0.075488657 6.7389957e-39
0.88740021 -0.081627376 0.065488659 7.754221e-39
0.88740021 -0.079127379 0.065488659 7.0177532e-39
0.89240021 -0.081627376 0.065488659 7.2028619e-39
0.88740021 -0.081627376 0.070488662 6.6467972e-39
0.88740021 -0.079127379 0.070488662 7.3843805e-39
0.88990021 -0.081627376 0.067988664 7.2014185e-39
0.88990021 -0.081627376 0.070488662 5.4525883e-39
0.88740021 -0.081627376 0.072988659 6.4627815e-39
0.88740021 -0.081627376 0.075488657 7.0137875e-39
0.88740021 -0.079127379 0.075488657 7.014135e-39
0.88990021 -0.081627376 0.072988659 7.1059803e-39
0.88990021 -0.081627376 0.075488657 7.1052516e-39
0.88740021 -0.076627374 0.075488657 7.1063306e-39
0.8974002 -0.084127374 0.067988664 7.0159553e-39
0.8974002 -0.084127374 0.070488662 6.9219422e-39
0.89990026 -0.084127374 0.070488662 6.5549743e-39
0.8974002 -0.084127374 0.075488657 7.3821973e-39
0.89990026 -0.084127374 0.072988659 6.7389957e-39
0.89990026 -0.084127374 0.075488657 7.2903646e-39
0.90490025 -0.089127377 0.070488662 6.5549743e-39
0.90240026 -0.086627379 0.067988664 7.1059957e-39
0.90240026 -0.086627379 0.070488662 6.4620486e-39
0.90240026 -0.084127374 0.067988664 6.4631318e-39
0.90240026 -0.084127374 0.070488662 7.4740426e-39
0.90490025 -0.086627379 0.070488662 7.2892926e-39
0.90490025 -0.084127374 0.070488662 6.9233869e-39
0.90240026 -0.086627379 0.072988659 6.5546016e-39
0.90240026 -0.084127374 0.072988659 7.0137819e-39
0.90490025 -0.086627379 0.075488657 7.3829161e-39
0.89240021 -0.084127374 0.077988662 7.2903646e-39
0.89240021 -0.084127374 0.080488659 7.382563e-39
0.8949002 -0.084127374 0.077988662 7.4736866e-39
0.8949002 -0.084127374 0.080488659 7.4751118e-39
0.8949002 -0.084127374 0.082988657 7.750621e-39
0.8949002 -0.084127374 0.085488662 7.6584212e-39
0.8949002 -0.084127374 0.08798866 7.5673116e-39
0.8949002 -0.084127374 0.090488657 7.567306e-39
0.8949002 -0.084127374 0.09548866 7.750977e-39
0.88740021 -0.081627376 0.077988662 6.9233869e-39
0.88740021 -0.079127379 0.077988662 7.1066866e-39
0.88740021 -0.079127379 0.080488659 7.3821973e-39
0.88990021 -0.081627376 0.080488659 7.4736866e-39
0.88990021 -0.079127379 0.080488659 7.3829161e-39
0.88740021 -0.081627376 0.082988657 7.3825602e-39
0.88740021 -0.079127379 0.082988657 7.4751118e-39
0.88990021 -0.081627376 0.085488662 7.5669557e-39
0.88990021 -0.079127379 0.085488662 7.5673088e-39
0.88740021 -0.076627374 0.077988662 7.1066866e-39
0.88740021 -0.076627374 0.080488659 7.2907205e-39
0.88740021 -0.076627374 0.082988657 7.4751118e-39
0.89240021 -0.081627376 0.077988662 7.4743929e-39
0.89240021 -0.081627376 0.082988657 7.4751118e-39
0.89240021 -0.081627376 0.085488662 7.658424e-39
0.88740021 -0.079127379 0.08798866 7.5669557e-39
0.88990021 -0.081627376 0.08798866 7.7506238e-39
0.88990021 -0.079127379 0.08798866 7.658424e-39
0.88990021 -0.079127379 0.090488657 7.3829133e-39
0.88740021 -0.081627376 0.09548866 7.3829133e-39
0.88740021 -0.079127379 0.092988662 7.4743929e-39
0.88740021 -0.079127379 0.09548866 7.5673116e-39
0.88990021 -0.081627376 0.092988662 7.6587771e-39
0.88990021 -0.081627376 0.09548866 7.750621e-39
0.88990021 -0.079127379 0.092988662 7.4743901e-39
0.88990021 -0.079127379 0.09548866 7.6584212e-39
0.88740021 -0.076627374 0.08798866 7.3829133e-39
0.88740021 -0.076627374 0.092988662 7.4751118e-39
0.89240021 -0.081627376 0.08798866 7.7509742e-39
0.89240021 -0.081627376 0.090488657 7.7509742e-39
0.89240021 -0.079127379 0.08798866 7.4751118e-39
0.8949002 -0.081627376 0.08798866 7.5673116e-39
0.89240021 -0.081627376 0.092988662 7.567306e-39
0.89240021 -0.081627376 0.09548866 7.3829161e-39
0.8949002 -0.081627376 0.092988662 7.5673088e-39
0.8974002 -0.084127374 0.077988662 7.2907205e-39
0.8974002 -0.084127374 0.080488659 7.4743929e-39
0.89990026 -0.084127374 0.077988662 7.4751118e-39
0.89990026 -0.084127374 0.080488659 7.750621e-39
0.8974002 -0.084127374 0.082988657 7.7509742e-39
0.8974002 -0.084127374 0.085488662 7.7509742e-39
0.89990026 -0.086627379 0.085488662 7.5673116e-39
0.89990026 -0.084127374 0.085488662 7.7509714e-39
0.90490025 -0.089127377 0.082988657 7.8428195e-39
0.90240026 -0.086627379 0.077988662 7.750977e-39
0.90490025 -0.086627379 0.077988662 7.750621e-39
0.90490025 -0.086627379 0.080488659 7.8428167e-39
0.90240026 -0.086627379 0.082988657 7.750977e-39
0.90240026 -0.086627379 0.085488662 7.8435257e-39
0.90240026 -0.084127374 0.082988657 7.750621e-39
0.90490025 -0.086627379 0.082988657 7.6595044e-39
0.90490025 -0.086627379 0.085488662 7.6598603e-39
0.89990026 -0.089127377 0.092988662 7.8431726e-39
0.89990026 -0.089127377 0.09548866 7.8431726e-39
0.8974002 -0.084127374 0.08798866 7.8435257e-39
0.89990026 -0.086627379 0.090488657 7.6595044e-39
0.8974002 -0.084127374 0.092988662 7.750621e-39
0.89990026 -0.086627379 0.092988662 7.750977e-39
0.89990026 -0.086627379 0.09548866 7.750977e-39
0.90240026 -0.089127377 0.090488657 7.8431726e-39
0.90490025 -0.089127377 0.08798866 7.8431726e-39
0.90490025 -0.089127377 0.090488657 7.5673088e-39
0.90240026 -0.089127377 0.092988662 7.8428167e-39
0.90240026 -0.089127377 0.09548866 7.8428195e-39
0.90490025 -0.089127377 0.092988662 7.9350151e-39
0.90490025 -0.089127377 0.09548866 8.0275667e-39
0.90240026 -0.086627379 0.08798866 7.6595044e-39
0.90240026 -0.086627379 0.090488657 7.750621e-39
0.90240026 -0.086627379 0.092988662 7.750977e-39
0.90240026 -0.086627379 0.09548866 7.8431726e-39
0.90740025 -0.091627374 0.067988664 7.6613191e-39
0.90740025 -0.091627374 0.070488662 7.3843777e-39
0.90740025 -0.089127377 0.067988664 7.3847308e-39
0.90740025 -0.089127377 0.070488662 6.5549771e-39
0.90990025 -0.091627374 0.067988664 7.6620267e-39
0.90990025 -0.091627374 0.070488662 7.1988976e-39
0.90990025 -0.089127377 0.070488662 7.106702e-39
0.90740025 -0.089127377 0.072988659 7.1059803e-39
0.90740025 -0.089127377 0.075488657 7.5673088e-39
0.90990025 -0.091627374 0.072988659 6.8315444e-39
0.90990025 -0.091627374 0.075488657 7.4751118e-39
0.90990025 -0.089127377 0.072988659 6.92374e-39
0.90740025 -0.086627379 0.067988664 7.3843595e-39
0.90740025 -0.086627379 0.072988659 7.1063334e-39
0.90740025 -0.086627379 0.075488657 7.4751118e-39
0.91240025 -0.091627374 0.070488662 7.1077712e-39
0.91240025 -0.091627374 0.072988659 6.8315416e-39
0.91240025 -0.091627374 0.075488657 7.567306e-39
0.91490024 -0.091627374 0.075488657 7.3825602e-39
0.90740025 -0.089127377 0.077988662 7.7513497e-39
0.90740025 -0.089127377 0.080488659 7.6591513e-39
0.90990025 -0.091627374 0.077988662 7.7517056e-39
0.90990025 -0.091627374 0.080488659 7.9350151e-39
0.90990025 -0.089127377 0.077988662 7.567306e-39
0.90990025 -0.089127377 0.080488659 7.8431726e-39
0.90740025 -0.089127377 0.082988657 7.8435229e-39
0.90740025 -0.089127377 0.085488662 7.8431726e-39
0.90990025 -0.091627374 0.085488662 7.6595072e-39
0.90990025 -0.089127377 0.082988657 7.9357214e-39
0.90740025 -0.086627379 0.077988662 7.750621e-39
0.90740025 -0.086627379 0.080488659 7.8431726e-39
0.91240025 -0.091627374 0.077988662 7.5673088e-39
0.91490024 -0.091627374 0.080488659 7.8431726e-39
0.91240025 -0.091627374 0.082988657 7.8431726e-39
0.91240025 -0.091627374 0.085488662 7.5673088e-39
0.91240025 -0.089127377 0.082988657 7.8431726e-39
0.91490024 -0.091627374 0.082988657 7.8431726e-39
0.91490024 -0.091627374 0.085488662 7.6595044e-39
0.90740025 -0.091627374 0.08798866 7.8431726e-39
0.90740025 -0.089127377 0.08798866 7.8431726e-39
0.90740025 -0.089127377 0.090488657 7.8428167e-39
0.90990025 -0.091627374 0.090488657 7.9353654e-39
0.90740025 -0.091627374 0.092988662 8.1179644e-39
0.90740025 -0.089127377 0.092988662 8.0275639e-39
0.90990025 -0.091627374 0.09548866 8.2105104e-39
0.90990025 -0.089127377 0.09548866 7.9364402e-39
0.91240025 -0.091627374 0.08798866 7.8435257e-39
0.91240025 -0.091627374 0.090488657 7.935371e-39
0.91490024 -0.091627374 0.08798866 7.8428167e-39
0.91490024 -0.091627374 0.090488657 7.8431726e-39
0.91240025 -0.091627374 0.092988662 8.3037906e-39
0.91240025 -0.091627374 0.09548866 8.0279198e-39
0.91490024 -0.091627374 0.092988662 8.0279198e-39
0.89240021 -0.084127374 0.097988658 7.6584212e-39
0.8949002 -0.084127374 0.097988658 7.750977e-39
0.8949002 -0.084127374 0.10048866 7.6584212e-39
0.89240021 -0.084127374 0.10298866 7.750977e-39
0.8949002 -0.086627379 0.10298866 7.8435257e-39
0.8949002 -0.084127374 0.10298866 7.7509714e-39
0.8949002 -0.084127374 0.10548866 7.658424e-39
0.8949002 -0.084127374 0.10798866 7.6584268e-39
0.8949002 -0.084127374 0.11048866 7.750977e-39
0.89240021 -0.086627379 0.11548866 8.0257632e-39
0.89240021 -0.084127374 0.11298866 7.7509742e-39
0.89240021 -0.084127374 0.11548866 7.9335662e-39
0.8949002 -0.086627379 0.11298866 7.8413677e-39
0.8949002 -0.086627379 0.11548866 7.8428167e-39
0.8949002 -0.084127374 0.11298866 7.933569e-39
0.8949002 -0.084127374 0.11548866 7.4743901e-39
0.88740021 -0.081627376 0.097988658 7.750977e-39
0.88740021 -0.081627376 0.10048866 7.8413733e-39
0.88740021 -0.079127379 0.097988658 7.5669557e-39
0.88740021 -0.079127379 0.10048866 7.4743901e-39
0.88990021 -0.081627376 0.097988658 7.8431726e-39
0.88740021 -0.081627376 0.10548866 7.3821945e-39
0.88740021 -0.079127379 0.10298866 7.4743901e-39
0.88740021 -0.079127379 0.10548866 7.3821945e-39
0.88990021 -0.081627376 0.10298866 7.6587771e-39
0.88990021 -0.081627376 0.10548866 7.6587771e-39
0.88990021 -0.079127379 0.10298866 7.4743901e-39
0.88740021 -0.076627374 0.097988658 7.3829133e-39
0.88740021 -0.076627374 0.10298866 7.3821945e-39
0.89240021 -0.081627376 0.097988658 7.4743929e-39
0.89240021 -0.081627376 0.10048866 7.6587771e-39
0.8949002 -0.081627376 0.097988658 7.4743901e-39
0.8949002 -0.081627376 0.10048866 7.474746e-39
0.89240021 -0.081627376 0.10298866 7.750977e-39
0.89240021 -0.081627376 0.10548866 7.4743901e-39
0.8949002 -0.081627376 0.10548866 7.658424e-39
0.88740021 -0.079127379 0.10798866 7.3829133e-39
0.88740021 -0.079127379 0.11048866 7.2899988e-39
0.88990021 -0.081627376 0.10798866 7.4743929e-39
0.88990021 -0.081627376 0.11048866 7.7502679e-39
0.88990021 -0.079127379 0.11048866 7.4743901e-39
0.88740021 -0.079127379 0.11298866 7.2896457e-39
0.88740021 -0.079127379 0.11548866 7.6587771e-39
0.88990021 -0.081627376 0.11298866 7.4743901e-39
0.88990021 -0.081627376 0.11548866 7.9335662e-39
0.88990021 -0.079127379 0.11298866 7.8413733e-39
0.88740021 -0.076627374 0.11048866 7.4743901e-39
0.88990021 -0.076627374 0.11048866 7.474746e-39
0.88740021 -0.076627374 0.11298866 7.1974501e-39
0.88740021 -0.076627374 0.11548866 7.5651438e-39
0.88990021 -0.076627374 0.11298866 7.6573422e-39
0.89240021 -0.081627376 0.10798866 7.4743901e-39
0.89240021 -0.081627376 0.11048866 7.6584212e-39
0.8949002 -0.081627376 0.10798866 7.6580723e-39
0.8949002 -0.081627376 0.11048866 7.7506238e-39
0.89240021 -0.081627376 0.11298866 7.6584268e-39
0.89240021 -0.081627376 0.11548866 7.9335662e-39
0.89240021 -0.079127379 0.11298866 7.6573366e-39
0.8949002 -0.081627376 0.11298866 7.9335662e-39
0.89240021 -0.076627374 0.11298866 7.3821945e-39
0.89990026 -0.089127377 0.097988658 7.8428167e-39
0.89990026 -0.089127377 0.10048866 7.9357214e-39
0.89990026 -0.089127377 0.10298866 7.8428167e-39
0.8974002 -0.086627379 0.097988658 7.5676619e-39
0.8974002 -0.086627379 0.10048866 7.750977e-39
0.8974002 -0.084127374 0.097988658 7.6584212e-39
0.89990026 -0.086627379 0.097988658 7.8431726e-39
0.89990026 -0.086627379 0.10048866 7.8435257e-39
0.8974002 -0.086627379 0.10298866 7.8435257e-39
0.8974002 -0.086627379 0.10548866 7.8428167e-39
0.8974002 -0.084127374 0.10298866 7.7509714e-39
0.8974002 -0.084127374 0.10548866 7.6584212e-39
0.89990026 -0.086627379 0.10298866 7.8428167e-39
0.89990026 -0.086627379 0.10548866 8.2105132e-39
0.89990026 -0.084127374 0.10548866 7.4743901e-39
0.90240026 -0.089127377 0.10048866 7.8431726e-39
0.90490025 -0.089127377 0.097988658 7.9350151e-39
0.90490025 -0.089127377 0.10048866 7.8431726e-39
0.90240026 -0.089127377 0.10298866 8.0279198e-39
0.90240026 -0.089127377 0.10548866 8.025766e-39
0.90490025 -0.089127377 0.10298866 8.2105132e-39
0.90490025 -0.089127377 0.10548866 7.9353654e-39
0.90240026 -0.086627379 0.10048866 7.8431726e-39
0.8974002 -0.089127377 0.11048866 8.0261163e-39
0.89990026 -0.089127377 0.11048866 8.1179616e-39
0.89990026 -0.089127377 0.11298866 8.302706e-39
0.89990026 -0.089127377 0.11548866 8.2105104e-39
0.8974002 -0.086627379 0.11048866 7.750977e-39
0.8974002 -0.084127374 0.11048866 7.6584212e-39
0.89990026 -0.086627379 0.10798866 8.1179616e-39
0.89990026 -0.086627379 0.11048866 8.1183148e-39
0.8974002 -0.086627379 0.11298866 7.750977e-39
0.8974002 -0.086627379 0.11548866 7.6584212e-39
0.8974002 -0.084127374 0.11298866 7.6584212e-39
0.89990026 -0.086627379 0.11298866 8.1183148e-39
0.90240026 -0.089127377 0.10798866 8.1179616e-39
0.90240026 -0.089127377 0.11048866 8.1179616e-39
0.90490025 -0.089127377 0.10798866 7.8431726e-39
0.90490025 -0.089127377 0.11048866 7.9350151e-39
0.90240026 -0.091627374 0.11298866 8.3030591e-39
0.90240026 -0.089127377 0.11298866 7.8431726e-39
0.90490025 -0.091627374 0.11298866 7.9353654e-39
0.90490025 -0.091627374 0.11548866 8.0264723e-39
0.90490025 -0.089127377 0.11298866 7.9357214e-39
0.90490025 -0.089127377 0.11548866 7.8435229e-39
0.90240026 -0.086627379 0.11048866 8.1179616e-39
0.90240026 -0.086627379 0.11298866 7.6584212e-39
0.90490025 -0.086627379 0.11548866 7.8435229e-39
0.8974002 -0.081627376 0.11048866 8.025766e-39
0.8974002 -0.081627376 0.11298866 7.474746e-39
0.88740021 -0.089127377 0.12548865 7.8435229e-39
0.88990021 -0.091627374 0.12548865 8.027917e-39
0.88990021 -0.089127377 0.12298866 8.118312e-39
0.88990021 -0.089127377 0.12548865 8.027917e-39
0.88740021 -0.086627379 0.12048866 8.118312e-39
0.88990021 -0.086627379 0.11798866 8.1179616e-39
0.88990021 -0.086627379 0.12048866 7.8435257e-39
0.88990021 -0.084127374 0.11798866 7.658424e-39
0.88990021 -0.084127374 0.12048866 7.7509742e-39
0.88740021 -0.086627379 0.12548865 7.8435257e-39
0.88740021 -0.084127374 0.12548865 7.6584212e-39
0.88990021 -0.086627379 0.12298866 7.750977e-39
0.88990021 -0.086627379 0.12548865 8.0261191e-39
0.88990021 -0.084127374 0.12298866 7.9335662e-39
0.89240021 -0.091627374 0.12298866 8.1183148e-39
0.89240021 -0.091627374 0.12548865 8.3023529e-39
0.89240021 -0.089127377 0.12298866 7.8435257e-39
0.89240021 -0.089127377 0.12548865 7.93535e-39
0.8949002 -0.091627374 0.12298866 8.2105104e-39
0.8949002 -0.091627374 0.12548865 7.9357186e-39
0.8949002 -0.089127377 0.12298866 8.0261191e-39
0.89240021 -0.086627379 0.11798866 8.1183148e-39
0.89240021 -0.086627379 0.12048866 7.7509742e-39
0.89240021 -0.084127374 0.11798866 7.9335662e-39
0.89240021 -0.084127374 0.12048866 7.6587771e-39
0.8949002 -0.086627379 0.11798866 8.1183148e-39
0.8949002 -0.086627379 0.12048866 8.1183148e-39
0.8949002 -0.084127374 0.12048866 7.4743901e-39
0.8949002 -0.086627379 0.12298866 7.6598547e-39
0.88740021 -0.091627374 0.12798867 8.118312e-39
0.88740021 -0.089127377 0.12798867 7.8431698e-39
0.88740021 -0.089127377 0.13048866 7.4751089e-39
0.88990021 -0.091627374 0.12798867 8.302706e-39
0.88990021 -0.091627374 0.13048866 8.1179616e-39
0.88990021 -0.089127377 0.12798867 7.7509742e-39
0.88990021 -0.089127377 0.13048866 7.4751089e-39
0.88740021 -0.091627374 0.13298866 7.9357214e-39
0.88740021 -0.091627374 0.13548866 7.658424e-39
0.88740021 -0.089127377 0.13298866 7.8435257e-39
0.88740021 -0.089127377 0.13548866 6.8318947e-39
0.88990021 -0.091627374 0.13548866 7.5676619e-39
0.88990021 -0.089127377 0.13548866 7.5676619e-39
0.88740021 -0.086627379 0.12798867 7.4747404e-39
0.88740021 -0.086627379 0.13048866 7.3829133e-39
0.88740021 -0.084127374 0.12798867 7.3829133e-39
0.88740021 -0.084127374 0.13048866 7.2003199e-39
0.88990021 -0.086627379 0.12798867 7.6587771e-39
0.88990021 -0.086627379 0.13048866 7.3829133e-39
0.88990021 -0.084127374 0.12798867 7.2003227e-39
0.88990021 -0.084127374 0.13048866 7.3825602e-39
0.88740021 -0.086627379 0.13298866 6.8318947e-39
0.88740021 -0.086627379 0.13548866 7.2003171e-39
0.88740021 -0.084127374 0.13298866 7.6591569e-39
0.88990021 -0.086627379 0.13548866 7.3854188e-39
0.88990021 -0.084127374 0.13548866 7.9357634e-39
0.89240021 -0.091627374 0.12798867 8.1197343e-39
0.89240021 -0.091627374 0.13048866 7.7509742e-39
0.89240021 -0.089127377 0.12798867 7.7509742e-39
0.89240021 -0.089127377 0.13048866 7.1081215e-39
0.8949002 -0.091627374 0.12798867 7.8435257e-39
0.89240021 -0.091627374 0.13298866 7.4743929e-39
0.89240021 -0.091627374 0.13548866 7.2921666e-39
0.89240021 -0.089127377 0.13298866 6.8315416e-39
0.89240021 -0.089127377 0.13548866 7.2936142e-39
0.8949002 -0.091627374 0.13298866 7.6584268e-39
0.8949002 -0.091627374 0.13548866 6.9237555e-39
0.8949002 -0.089127377 0.13298866 7.1081215e-39
0.8949002 -0.089127377 0.13548866 8.0297345e-39
0.89240021 -0.086627379 0.12798867 7.6587771e-39
0.89240021 -0.086627379 0.13048866 7.1081215e-39
0.89240021 -0.084127374 0.12798867 7.2928701e-39
0.89240021 -0.084127374 0.13048866 7.5673242e-39
0.8949002 -0.084127374 0.12798867 7.658801e-39
0.89240021 -0.086627379 0.13298866 7.1077684e-39
0.89240021 -0.084127374 0.13298866 8.2123433e-39
0.8949002 -0.086627379 0.13298866 7.0166686e-39
0.8949002 -0.084127374 0.13298866 6.6450218e-39
0.88740021 -0.081627376 0.12048866 7.7509742e-39
0.88740021 -0.079127379 0.11798866 8.0254129e-39
0.88990021 -0.081627376 0.11798866 7.4743901e-39
0.88990021 -0.081627376 0.12048866 7.4743901e-39
0.88990021 -0.079127379 0.11798866 7.4743901e-39
0.88740021 -0.081627376 0.12548865 7.3829133e-39
0.88990021 -0.081627376 0.12298866 7.3829161e-39
0.89240021 -0.081627376 0.11798866 7.474746e-39
0.88740021 -0.081627376 0.13048866 7.1092201e-39
0.88740021 -0.079127379 0.13048866 7.7513497e-39
0.88990021 -0.081627376 0.13048866 8.120128e-39
0.88990021 -0.079127379 0.13048866 8.0279324e-39
0.89240021 -0.081627376 0.12798867 8.1204812e-39
0.8974002 -0.091627374 0.12298866 8.3023529e-39
0.8974002 -0.089127377 0.12298866 7.750977e-39
0.8974002 -0.086627379 0.12048866 7.8435257e-39
0.8974002 -0.086627379 0.12298866 7.7509714e-39
0.90240026 -0.091627374 0.11798866 8.2105132e-39
0.90240026 -0.089127377 0.11798866 8.2105104e-39
0.89990026 -0.091627374 0.13048866 7.5669557e-39
0.89990026 -0.089127377 0.13048866 7.479432e-39
0.8974002 -0.091627374 0.13298866 7.5676591e-39
0.8974002 -0.089127377 0.13298866 7.4769236e-39
0.89990026 -0.091627374 0.13298866 7.0163028e-39
0.8974002 -0.084127374 0.13048866 6.9208828e-39
0.89990026 -0.084127374 0.13048866 6.9216045e-39
0.8974002 -0.086627379 0.13298866 7.0166587e-39
0.90240026 -0.091627374 0.13298866 7.2003437e-39
0.90240026 -0.086627379 0.13048866 6.5571155e-39
0.90740025 -0.089127377 0.097988658 8.0275639e-39
0.90990025 -0.091627374 0.097988658 8.0261191e-39
0.90990025 -0.091627374 0.10048866 8.027917e-39
0.90990025 -0.089127377 0.10048866 8.0275667e-39
0.90990025 -0.091627374 0.10298866 8.302706e-39
0.91240025 -0.091627374 0.097988658 8.2105104e-39
0.91240025 -0.091627374 0.10048866 8.1179644e-39
0.91490024 -0.091627374 0.097988658 8.0279198e-39
0.91240025 -0.091627374 0.10548866 8.302706e-39
0.91240025 -0.089127377 0.10548866 7.8431726e-39
0.91490024 -0.091627374 0.10298866 8.2105132e-39
0.91490024 -0.091627374 0.10548866 8.302706e-39
0.90740025 -0.091627374 0.11048866 7.8428167e-39
0.90740025 -0.089127377 0.10798866 8.4860183e-39
0.90740025 -0.089127377 0.11048866 7.8428167e-39
0.90990025 -0.091627374 0.10798866 7.8435257e-39
0.90990025 -0.091627374 0.11048866 7.9353654e-39
0.90740025 -0.091627374 0.11548866 8.2105104e-39
0.90740025 -0.089127377 0.11548866 7.9353682e-39
0.90990025 -0.091627374 0.11298866 8.2105104e-39
0.90990025 -0.091627374 0.11548866 8.2105104e-39
0.90990025 -0.089127377 0.11298866 7.8435229e-39
0.90990025 -0.089127377 0.11548866 7.7524091e-39
0.91240025 -0.091627374 0.10798866 8.2105132e-39
0.91240025 -0.091627374 0.11048866 8.3030619e-39
0.91490024 -0.091627374 0.10798866 8.3027088e-39
0.91490024 -0.091627374 0.11048866 8.2105132e-39
0.91240025 -0.091627374 0.11298866 7.8435229e-39
0.91240025 -0.089127377 0.11548866 7.8435257e-39
0.94490021 -0.11412738 0.067988664 5.9106797e-39
0.94490021 -0.11412738 0.070488662 6.9241086e-39
0.94240022 -0.11662737 0.072988659 9.3089644e-39
0.94240022 -0.11412738 0.072988659 8.2130692e-39
0.94490021 -0.11662737 0.072988659 1.6036647e-38
0.94490021 -0.11662737 0.075488657 2.0920109e-38
0.94490021 -0.11412738 0.072988659 1.2267506e-38
0.94490021 -0.11412738 0.075488657 1.5301312e-38
0.93740022 -0.11662737 0.080488659 2.2120467e-38
0.93740022 -0.11412738 0.080488659 1.9629445e-38
0.93990022 -0.11662737 0.080488659 2.2120467e-38
0.93990022 -0.11412738 0.077988662 1.5670446e-38
0.93990022 -0.11412738 0.080488659 1.9628376e-38
0.93740022 -0.11662737 0.082988657 2.2488521e-38
0.93740022 -0.11412738 0.082988657 1.880293e-38
0.93990022 -0.11662737 0.082988657 2.1844238e-38
0.93990022 -0.11662737 0.085488662 2.2490311e-38
0.93990022 -0.11412738 0.082988657 1.8527066e-38
0.93990022 -0.11412738 0.085488662 1.7239214e-38
0.94240022 -0.11662737 0.077988662 2.1104826e-38
0.94240022 -0.11412738 0.077988662 1.5304187e-38
0.94490021 -0.11662737 0.080488659 2.202718e-38
0.94490021 -0.11412738 0.080488659 1.8619259e-38
0.94240022 -0.11662737 0.082988657 2.2029351e-38
0.94240022 -0.11662737 0.085488662 2.2214462e-38
0.94240022 -0.11412738 0.082988657 1.7148094e-38
0.94240022 -0.11412738 0.085488662 1.6687473e-38
0.94490021 -0.11662737 0.082988657 2.2674717e-38
0.94490021 -0.11662737 0.085488662 2.2490326e-38
0.94490021 -0.11412738 0.085488662 1.6595274e-38
0.94240022 -0.11662737 0.08798866 2.2490323e-38
0.94240022 -0.11412738 0.08798866 1.6870789e-38
0.94490021 -0.11662737 0.08798866 2.0922991e-38
0.94490021 -0.11662737 0.090488657 2.0093959e-38
0.94490021 -0.11412738 0.08798866 1.6503081e-38
0.94490021 -0.11412738 0.090488657 1.6317612e-38
0.93490022 -0.10412738 0.067988664 7.9393339e-39
0.93490022 -0.10412738 0.070488662 6.3712893e-39
0.93490022 -0.10412738 0.072988659 7.1081215e-39
0.92740023 -0.10162738 0.070488662 6.0028754e-39
0.92990023 -0.10162738 0.067988664 4.9948471e-39
0.92990023 -0.10162738 0.070488662 7.569492e-39
0.92740023 -0.10162738 0.072988659 6.7400901e-39
0.92740023 -0.10162738 0.075488657 7.7524245e-39
0.92990023 -0.10162738 0.072988659 7.9353654e-39
0.92990023 -0.10162738 0.075488657 8.0282827e-39
0.93240023 -0.10162738 0.067988664 6.4703373e-39
0.93240023 -0.10162738 0.070488662 7.2014129e-39
0.93240023 -0.10162738 0.072988659 7.5676745e-39
0.93240023 -0.10162738 0.075488657 8.1201154e-39
0.93740022 -0.10912737 0.070488662 7.569492e-39
0.93990022 -0.11162738 0.067988664 7.9389836e-39
0.93990022 -0.10912737 0.067988664 7.846788e-39
0.93990022 -0.11162738 0.075488657 7.8406671e-39
0.93990022 -0.10912737 0.072988659 6.9237555e-39
0.93990022 -0.10912737 0.075488657 7.5673088e-39
0.93740022 -0.10662737 0.070488662 7.4772768e-39
0.93740022 -0.10662737 0.075488657 7.9360871e-39
0.93740022 -0.10412738 0.072988659 7.9360843e-39
0.93990022 -0.10662737 0.072988659 7.9360843e-39
0.94240022 -0.11162738 0.067988664 8.5840027e-39
0.94240022 -0.11162738 0.070488662 8.3066913e-39
0.94240022 -0.10912737 0.067988664 7.6613191e-39
0.94490021 -0.11162738 0.067988664 7.8485872e-39
0.94490021 -0.11162738 0.070488662 8.9524124e-39
0.94240022 -0.11162738 0.072988659 7.8442866e-39
0.94490021 -0.11162738 0.072988659 7.1967466e-39
0.94490021 -0.11162738 0.075488657 9.4007915e-39
0.93240023 -0.10412738 0.080488659 8.3052241e-39
0.93490022 -0.10662737 0.077988662 8.3977785e-39
0.93490022 -0.10412738 0.077988662 8.0282827e-39
0.93490022 -0.10412738 0.080488659 8.581088e-39
0.93240023 -0.10412738 0.085488662 8.6707823e-39
0.93490022 -0.10662737 0.082988657 8.9498691e-39
0.93490022 -0.10662737 0.085488662 8.9477279e-39
0.93490022 -0.10412738 0.082988657 8.8555267e-39
0.93490022 -0.10412738 0.085488662 8.8555267e-39
0.92990023 -0.10412738 0.092988662 8.4885392e-39
0.92990023 -0.10412738 0.09548866 8.8558826e-39
0.93240023 -0.10412738 0.090488657 8.8537274e-39
0.93490022 -0.10662737 0.08798866 9.3147055e-39
0.93490022 -0.10662737 0.090488657 9.2246581e-39
0.93490022 -0.10412738 0.08798866 8.3023529e-39
0.93240023 -0.10662737 0.092988662 9.1321065e-39
0.93240023 -0.10662737 0.09548866 9.3150587e-39
0.93240023 -0.10412738 0.092988662 8.855877e-39
0.93240023 -0.10412738 0.09548866 9.0384732e-39
0.93490022 -0.10662737 0.09548866 8.5807348e-39
0.92740023 -0.10162738 0.077988662 8.1204784e-39
0.92990023 -0.10162738 0.080488659 8.3963464e-39
0.92740023 -0.099127375 0.082988657 8.3963436e-39
0.92740023 -0.099127375 0.085488662 8.6711326e-39
0.92990023 -0.10162738 0.082988657 8.9480782e-39
0.93240023 -0.10162738 0.077988662 8.3037906e-39
0.93240023 -0.10162738 0.080488659 8.5807376e-39
0.93490022 -0.10162738 0.080488659 8.7636842e-39
0.93240023 -0.10162738 0.085488662 8.763687e-39
0.92740023 -0.099127375 0.08798866 8.3963408e-39
0.92740023 -0.099127375 0.090488657 8.6711326e-39
0.92990023 -0.10162738 0.08798866 8.6714885e-39
0.92990023 -0.099127375 0.08798866 8.6711354e-39
0.92740023 -0.10162738 0.092988662 8.5792915e-39
0.92740023 -0.099127375 0.092988662 8.3041437e-39
0.92740023 -0.099127375 0.09548866 8.3963436e-39
0.92990023 -0.10162738 0.092988662 8.5807348e-39
0.92990023 -0.10162738 0.09548866 8.5810908e-39
0.92990023 -0.099127375 0.092988662 8.3963408e-39
0.93240023 -0.10162738 0.090488657 8.6711326e-39
0.93490022 -0.10162738 0.08798866 8.6711326e-39
0.93240023 -0.10162738 0.09548866 8.7640373e-39
0.93740022 -0.10912737 0.077988662 8.3970695e-39
0.93740022 -0.10912737 0.080488659 8.948444e-39
0.93990022 -0.11162738 0.077988662 9.308949e-39
0.93990022 -0.11162738 0.080488659 1.1330769e-38
0.93990022 -0.10912737 0.077988662 8.5807404e-39
0.93990022 -0.10912737 0.080488659 8.8562483e-39
0.93740022 -0.10912737 0.082988657 8.6725801e-39
0.93740022 -0.10912737 0.085488662 8.5807376e-39
0.93990022 -0.11162738 0.082988657 9.8606767e-39
0.93990022 -0.10912737 0.082988657 7.4743957e-39
0.93990022 -0.10912737 0.085488662 8.5807376e-39
0.93740022 -0.10662737 0.077988662 8.4885392e-39
0.93740022 -0.10662737 0.080488659 8.581088e-39
0.93740022 -0.10662737 0.085488662 8.8555267e-39
0.94240022 -0.11162738 0.077988662 9.0345257e-39
0.94240022 -0.10912737 0.077988662 7.1052516e-39
0.94490021 -0.11162738 0.080488659 9.7684782e-39
0.94240022 -0.11162738 0.082988657 8.5739007e-39
0.94240022 -0.11162738 0.085488662 8.5738979e-39
0.94240022 -0.10912737 0.082988657 7.4743901e-39
0.94240022 -0.10912737 0.085488662 7.7509714e-39
0.94490021 -0.11162738 0.082988657 8.2069132e-39
0.94490021 -0.11162738 0.085488662 8.6664495e-39
0.94490021 -0.10912737 0.085488662 7.6573366e-39
0.93740022 -0.10912737 0.08798866 8.765482e-39
0.93990022 -0.10912737 0.090488657 9.2246581e-39
0.93740022 -0.10662737 0.092988662 9.4076074e-39
0.93990022 -0.10662737 0.09548866 9.3172111e-39
0.94240022 -0.10912737 0.08798866 7.6573366e-39
0.94240022 -0.10912737 0.090488657 7.9353654e-39
0.94490021 -0.11162738 0.08798866 8.4817023e-39
0.94490021 -0.11162738 0.090488657 8.573179e-39
0.94490021 -0.10912737 0.08798866 7.6576925e-39
0.94490021 -0.10912737 0.090488657 7.8402831e-39
0.94740021 -0.11662737 0.070488662 9.5859072e-39
0.94740021 -0.11412738 0.067988664 6.3723781e-39
0.94740021 -0.11412738 0.070488662 7.9364823e-39
0.94990021 -0.11662737 0.070488662 9.862511e-39
0.94740021 -0.11662737 0.072988659 1.6037724e-38
0.94740021 -0.11412738 0.072988659 1.1989122e-38
0.94990021 -0.11662737 0.072988659 2.1011574e-38
0.95240021 -0.11662737 0.067988664 9.4008125e-39
0.95240021 -0.11662737 0.070488662 1.640579e-38
0.95490021 -0.11662737 0.067988664 1.6221395e-38
0.94990021 -0.11912738 0.082988657 2.2673989e-38
0.94740021 -0.11662737 0.085488662 2.2582522e-38
0.94740021 -0.11412738 0.085488662 1.6503075e-38
0.94740021 -0.11912738 0.08798866 2.2488521e-38
0.94990021 -0.11912738 0.090488657 2.3041329e-38
0.94740021 -0.11662737 0.08798866 2.2675086e-38
0.94740021 -0.11662737 0.090488657 1.9909202e-38
0.94740021 -0.11412738 0.08798866 1.5859505e-38
0.94740021 -0.11412738 0.090488657 1.5857711e-38
0.94990021 -0.11662737 0.090488657 2.313569e-38
0.94990021 -0.11412738 0.090488657 1.6226132e-38
0.94740021 -0.11662737 0.092988662 1.972268e-38
0.94740021 -0.11412738 0.092988662 1.6226132e-38
0.94990021 -0.11662737 0.09548866 1.9815228e-38
0.94990021 -0.11412738 0.09548866 1.6318687e-38
0.95240021 -0.11912738 0.08798866 2.2766913e-38
0.95240021 -0.12162738 0.092988662 2.3317566e-38
0.95240021 -0.12162738 0.09548866 2.110235e-38
0.95240021 -0.11912738 0.092988662 2.3503399e-38
0.95240021 -0.11912738 0.09548866 1.9997444e-38
0.95240021 -0.11662737 0.092988662 2.3503772e-38
0.95240021 -0.11662737 0.09548866 1.9445382e-38
0.95240021 -0.11412738 0.092988662 1.6042457e-38
0.95240021 -0.11412738 0.09548866 1.3368427e-38
0.94740021 -0.11162738 0.085488662 8.6664467e-39
0.94740021 -0.10912737 0.085488662 7.3825448e-39
0.94740021 -0.11162738 0.08798866 8.5760503e-39
0.94740021 -0.11162738 0.090488657 8.4817051e-39
0.94740021 -0.10912737 0.090488657 7.5654913e-39
0.94990021 -0.11162738 0.090488657 8.5738979e-39
0.94990021 -0.10912737 0.090488657 7.3825448e-39
0.94740021 -0.10912737 0.092988662 7.2903491e-39
0.94990021 -0.11162738 0.09548866 9.5866079e-39
0.95240021 -0.11162738 0.092988662 9.1274276e-39
0.95240021 -0.11162738 0.09548866 9.4944123e-39
0.95240021 -0.10912737 0.092988662 7.8413733e-39
0.94490021 -0.11412738 0.10548866 8.6711186e-39
0.94490021 -0.11912738 0.11298866 9.1251967e-39
0.94240022 -0.11662737 0.10798866 9.4039893e-39
0.94240022 -0.11662737 0.11048866 9.0373648e-39
0.94240022 -0.11412738 0.10798866 8.5785698e-39
0.94240022 -0.11412738 0.11048866 8.578923e-39
0.94490021 -0.11662737 0.11298866 9.0355655e-39
0.94490021 -0.11412738 0.11298866 9.1277625e-39
0.94490021 -0.12412737 0.12548865 9.6722398e-39
0.93990022 -0.11662737 0.12048866 9.2170477e-39
0.93990022 -0.11412738 0.12048866 9.0355627e-39
0.93740022 -0.11662737 0.12548865 1.0323392e-38
0.93740022 -0.11412738 0.12548865 9.6787783e-39
0.93990022 -0.11662737 0.12298866 9.7698627e-39
0.93990022 -0.11662737 0.12548865 9.1274066e-39
0.93990022 -0.11412738 0.12298866 8.9430111e-39
0.93990022 -0.11412738 0.12548865 9.0352096e-39
0.94240022 -0.11912738 0.12048866 9.3103321e-39
0.94490021 -0.12162738 0.12298866 1.0964775e-38
0.94490021 -0.12162738 0.12548865 9.2112631e-39
0.94490021 -0.11912738 0.12298866 1.0876195e-38
0.94490021 -0.11912738 0.12548865 8.2943641e-39
0.94240022 -0.11662737 0.12048866 8.6682249e-39
0.94240022 -0.11412738 0.12048866 8.7604205e-39
0.94240022 -0.11662737 0.12548865 1.0046433e-38
0.94240022 -0.11412738 0.12548865 8.8526148e-39
0.94490021 -0.11662737 0.12298866 9.4057871e-39
0.94490021 -0.11412738 0.12298866 9.2213959e-39
0.93990022 -0.11662737 0.12798867 6.6406511e-39
0.93990022 -0.11662737 0.13048866 6.0892906e-39
0.93990022 -0.11412738 0.12798867 7.8388342e-39
0.93990022 -0.11412738 0.13048866 7.3800294e-39
0.94240022 -0.11662737 0.12798867 7.556799e-39
0.94240022 -0.11412738 0.12798867 7.9310312e-39
0.94490021 -0.11662737 0.12798867 7.006149e-39
0.94490021 -0.11662737 0.13048866 6.1840044e-39
0.94490021 -0.11412738 0.12798867 7.3800294e-39
0.94490021 -0.11412738 0.13048866 7.0134049e-39
0.92990023 -0.10662737 0.10048866 8.8558826e-39
0.92990023 -0.10412738 0.10048866 9.1324625e-39
0.93490022 -0.10912737 0.10298866 8.0261163e-39
0.93490022 -0.10912737 0.10548866 8.4867371e-39
0.93240023 -0.10662737 0.097988658 8.8558826e-39
0.93240023 -0.10662737 0.10048866 8.94916e-39
0.93240023 -0.10412738 0.097988658 8.6711326e-39
0.93240023 -0.10412738 0.10048866 8.6729333e-39
0.93490022 -0.10662737 0.097988658 8.8562301e-39
0.93490022 -0.10662737 0.10048866 8.9477223e-39
0.93490022 -0.10412738 0.10048866 8.8562329e-39
0.93240023 -0.10662737 0.10298866 8.6729305e-39
0.93240023 -0.10662737 0.10548866 8.581088e-39
0.93240023 -0.10412738 0.10298866 9.0406396e-39
0.93240023 -0.10412738 0.10548866 8.3963436e-39
0.93490022 -0.10662737 0.10298866 8.765482e-39
0.93490022 -0.10662737 0.10548866 8.855877e-39
0.93490022 -0.10412738 0.10298866 8.6736395e-39
0.93490022 -0.10412738 0.10548866 8.8562329e-39
0.92990023 -0.10412738 0.11048866 8.3041465e-39
0.92990023 -0.10412738 0.11298866 8.5792859e-39
0.93240023 -0.10412738 0.10798866 8.3963408e-39
0.93240023 -0.10412738 0.11048866 8.5792859e-39
0.93490022 -0.10662737 0.10798866 8.6729305e-39
0.93490022 -0.10412738 0.10798866 8.4867371e-39
0.93240023 -0.10412738 0.11548866 8.302706e-39
0.93490022 -0.10662737 0.11548866 8.4867371e-39
0.93490022 -0.10412738 0.11298866 8.4870931e-39
0.93490022 -0.10412738 0.11548866 8.4870931e-39
0.92740023 -0.099127375 0.10048866 8.6718417e-39
0.92990023 -0.10162738 0.097988658 8.8558826e-39
0.92990023 -0.10162738 0.10048866 8.5792859e-39
0.92990023 -0.099127375 0.097988658 8.7636842e-39
0.92990023 -0.099127375 0.10048866 8.3963408e-39
0.92740023 -0.099127375 0.10298866 8.3963408e-39
0.92740023 -0.099127375 0.10548866 8.4888895e-39
0.92990023 -0.10162738 0.10548866 8.6736395e-39
0.92990023 -0.099127375 0.10298866 8.3037934e-39
0.92990023 -0.099127375 0.10548866 8.4867399e-39
0.92740023 -0.096627377 0.10548866 8.4867371e-39
0.92740023 -0.094127379 0.10548866 8.027917e-39
0.92990023 -0.096627377 0.10548866 8.3030619e-39
0.92990023 -0.094127379 0.10548866 8.0275639e-39
0.93240023 -0.10162738 0.10298866 8.9491628e-39
0.93240023 -0.10162738 0.10548866 8.6714885e-39
0.93240023 -0.099127375 0.10548866 8.4867371e-39
0.93490022 -0.10162738 0.10548866 8.4892455e-39
0.93240023 -0.096627377 0.10548866 8.3030619e-39
0.92740023 -0.099127375 0.10798866 8.1201126e-39
0.92990023 -0.10162738 0.10798866 9.1342645e-39
0.92990023 -0.10162738 0.11048866 8.6714885e-39
0.92990023 -0.099127375 0.10798866 8.4867371e-39
0.92990023 -0.099127375 0.11048866 8.302706e-39
0.92990023 -0.10162738 0.11298866 8.1201098e-39
0.92990023 -0.099127375 0.11298866 8.4870931e-39
0.92740023 -0.096627377 0.10798866 8.302706e-39
0.92740023 -0.094127379 0.10798866 8.118312e-39
0.92990023 -0.096627377 0.10798866 8.302706e-39
0.92990023 -0.096627377 0.11048866 8.2105104e-39
0.92990023 -0.094127379 0.10798866 7.8435229e-39
0.92990023 -0.096627377 0.11298866 7.9353682e-39
0.93240023 -0.10162738 0.10798866 8.7640373e-39
0.93240023 -0.10162738 0.11048866 8.5789356e-39
0.93240023 -0.099127375 0.10798866 8.5792915e-39
0.93240023 -0.099127375 0.11048866 8.4867371e-39
0.93490022 -0.10162738 0.10798866 8.7636842e-39
0.93490022 -0.099127375 0.10798866 8.302706e-39
0.93240023 -0.10162738 0.11548866 8.3030619e-39
0.93240023 -0.099127375 0.11548866 8.3030619e-39
0.93490022 -0.10162738 0.11298866 8.4867427e-39
0.93490022 -0.10162738 0.11548866 8.0279198e-39
0.93490022 -0.099127375 0.11298866 8.4867427e-39
0.93490022 -0.099127375 0.11548866 7.9353654e-39
0.93240023 -0.096627377 0.10798866 8.3030619e-39
0.93240023 -0.096627377 0.11048866 8.3030591e-39
0.93240023 -0.094127379 0.10798866 7.9357186e-39
0.93490022 -0.096627377 0.10798866 8.3030619e-39
0.93490022 -0.094127379 0.10798866 8.2105076e-39
0.93240023 -0.096627377 0.11548866 8.0264723e-39
0.93740022 -0.10912737 0.10048866 8.118312e-39
0.93990022 -0.10912737 0.10298866 8.6714857e-39
0.93990022 -0.10912737 0.10548866 8.7636814e-39
0.93740022 -0.10662737 0.10048866 8.855877e-39
0.93740022 -0.10662737 0.10548866 8.855877e-39
0.93740022 -0.10412738 0.10548866 8.3963408e-39
0.93990022 -0.10662737 0.10548866 8.9466307e-39
0.94240022 -0.10912737 0.10048866 7.8435257e-39
0.94240022 -0.10912737 0.10298866 8.8562329e-39
0.94490021 -0.11162738 0.10548866 8.9473467e-39
0.94240022 -0.10662737 0.10048866 8.9484314e-39
0.93740022 -0.10912737 0.10798866 8.9466335e-39
0.93990022 -0.11162738 0.11048866 8.8540777e-39
0.93990022 -0.10912737 0.10798866 8.6718417e-39
0.93990022 -0.10912737 0.11048866 8.302706e-39
0.93990022 -0.11162738 0.11298866 8.6711186e-39
0.93990022 -0.10912737 0.11298866 8.6707655e-39
0.93990022 -0.10912737 0.11548866 8.4867371e-39
0.93740022 -0.10662737 0.10798866 8.6714885e-39
0.93740022 -0.10662737 0.11048866 8.5792915e-39
0.93990022 -0.10662737 0.10798866 8.7629653e-39
0.93740022 -0.10662737 0.11298866 8.4867371e-39
0.93740022 -0.10662737 0.11548866 8.5785698e-39
0.93740022 -0.10412738 0.11548866 8.302706e-39
0.93990022 -0.10662737 0.11548866 8.3030619e-39
0.94240022 -0.11162738 0.10798866 8.6707655e-39
0.94240022 -0.11162738 0.11048866 8.7633156e-39
0.94240022 -0.10912737 0.10798866 8.7629653e-39
0.94240022 -0.10912737 0.11048866 8.5792887e-39
0.94240022 -0.11162738 0.11298866 8.578567e-39
0.94240022 -0.11162738 0.11548866 8.4863714e-39
0.94240022 -0.10912737 0.11298866 8.4867371e-39
0.94240022 -0.10912737 0.11548866 8.3030619e-39
0.94490021 -0.11162738 0.11298866 8.578567e-39
0.94490021 -0.11162738 0.11548866 8.3941786e-39
0.94490021 -0.10912737 0.11298866 8.4870931e-39
0.94490021 -0.10912737 0.11548866 8.0261163e-39
0.94240022 -0.10662737 0.11548866 8.4870931e-39
0.94490021 -0.10662737 0.11548866 8.301627e-39
0.93740022 -0.099127375 0.11048866 8.3027088e-39
