# .PCD v0.7 - Point Cloud Data file format
VERSION 0.7
FIELDS x y z rgb
SIZE 4 4 4 4
TYPE F F F F
COUNT 1 1 1 1
WIDTH 990
HEIGHT 1
VIEWPOINT 0 0 0 1 0 0 0
POINTS 990
DATA ascii
0.92115676 0.035981327 0.091462962 1.396726e-39
0.92115676 0.035981327 0.09396296 1.6722311e-39
0.92365676 0.035981327 0.091462962 1.2119746e-39
0.92365676 0.035981327 0.09396296 1.8562622e-39
0.92615676 0.030981328 0.08646296 1.3967232e-39
0.92615676 0.030981328 0.088962957 1.4889189e-39
0.92865676 0.030981328 0.08646296 1.489272e-39
0.92615676 0.030981328 0.09396296 1.489272e-39
0.92865676 0.030981328 0.091462962 1.4889189e-39
0.92865676 0.030981328 0.09396296 1.3967232e-39
0.92615676 0.033481326 0.08646296 1.489272e-39
0.92615676 0.033481326 0.088962957 1.3967232e-39
0.92865676 0.033481326 0.08646296 1.0308176e-39
0.92615676 0.033481326 0.091462962 1.3967232e-39
0.92615676 0.033481326 0.09396296 1.4889189e-39
0.92615676 0.035981327 0.091462962 1.6722311e-39
0.92865676 0.033481326 0.091462962 1.5796824e-39
0.92865676 0.033481326 0.09396296 1.5796824e-39
0.92365676 0.038481329 0.078962959 1.3999883e-39
0.92115676 0.038481329 0.081462957 1.3996351e-39
0.92365676 0.038481329 0.083962962 1.6315318e-41
0.92115676 0.038481329 0.088962957 1.2126809e-39
0.92115676 0.038481329 0.091462962 1.4896251e-39
0.92115676 0.038481329 0.09396296 1.9477292e-39
0.92115676 0.040981326 0.091462962 1.1215671e-39
0.93865675 0.023481328 0.073962957 8.4571725e-40
0.93865675 0.025981328 0.071462959 4.776564e-40
0.93865675 0.025981328 0.073962957 8.4570044e-40
0.94365674 0.023481328 0.068962961 1.5610465e-41
0.94365674 0.025981328 0.068962961 1.4162924e-41
0.94365674 0.023481328 0.071462959 1.0279463e-39
0.94365674 0.023481328 0.073962957 6.6275812e-40
0.94365674 0.025981328 0.071462959 7.5280136e-40
0.94865674 0.018481327 0.068962961 2.3168845e-39
0.94865674 0.020981329 0.068962961 1.4907195e-39
0.94615674 0.020981329 0.071462959 1.2119746e-39
0.94865674 0.018481327 0.071462959 1.396726e-39
0.94865674 0.020981329 0.071462959 1.396726e-39
0.94865674 0.020981329 0.073962957 1.0290155e-39
0.94615674 0.023481328 0.068962961 1.2119746e-39
0.94615674 0.025981328 0.068962961 6.5988686e-40
0.94865674 0.023481328 0.068962961 1.4889217e-39
0.94615674 0.023481328 0.071462959 1.0279435e-39
0.94865674 0.023481328 0.073962957 1.3967232e-39
0.93365675 0.025981328 0.083962962 1.4889189e-39
0.93865675 0.025981328 0.076462962 1.2119746e-39
0.93865675 0.025981328 0.078962959 1.3956512e-39
0.93615675 0.025981328 0.083962962 1.0304644e-39
0.93615675 0.025981328 0.08646296 1.489272e-39
0.93865675 0.025981328 0.08646296 1.1215643e-39
0.93865675 0.025981328 0.088962957 1.1215643e-39
0.93615675 0.025981328 0.091462962 1.0290155e-39
0.93865675 0.025981328 0.091462962 9.3681987e-40
0.93865675 0.025981328 0.09396296 1.0290155e-39
0.94115674 0.023481328 0.076462962 8.4607318e-40
0.94115674 0.025981328 0.076462962 1.3059569e-39
0.94365674 0.023481328 0.078962959 1.3967232e-39
0.94365674 0.025981328 0.078962959 1.489272e-39
0.94115674 0.025981328 0.081462957 1.4889189e-39
0.94115674 0.025981328 0.083962962 1.489272e-39
0.94365674 0.023481328 0.081462957 6.6275812e-40
0.94365674 0.023481328 0.083962962 1.3970764e-39
0.94365674 0.025981328 0.081462957 1.2119746e-39
0.94365674 0.025981328 0.083962962 6.6275812e-40
0.94865674 0.020981329 0.076462962 6.6310985e-40
0.94615674 0.020981329 0.083962962 1.0290127e-39
0.94615674 0.023481328 0.076462962 1.3967232e-39
0.94615674 0.023481328 0.078962959 1.2119746e-39
0.94865674 0.023481328 0.076462962 1.3967232e-39
0.94615674 0.023481328 0.083962962 1.489272e-39
0.94865674 0.023481328 0.081462957 8.4678925e-40
0.94365674 0.020981329 0.091462962 9.3681987e-40
0.94115674 0.025981328 0.08646296 1.396726e-39
0.94115674 0.025981328 0.088962957 1.0290155e-39
0.94365674 0.023481328 0.08646296 1.1215671e-39
0.94365674 0.023481328 0.088962957 9.3646955e-40
0.94365674 0.025981328 0.08646296 6.6310705e-40
0.94115674 0.023481328 0.091462962 1.0290155e-39
0.94115674 0.023481328 0.09396296 1.0293686e-39
0.94115674 0.025981328 0.091462962 1.0290155e-39
0.94115674 0.025981328 0.09396296 9.3681987e-40
0.94365674 0.023481328 0.091462962 1.0290155e-39
0.94615674 0.020981329 0.088962957 9.3681987e-40
0.94865674 0.018481327 0.088962957 9.3681987e-40
0.94865674 0.020981329 0.08646296 9.3646955e-40
0.94865674 0.020981329 0.088962957 1.0279463e-39
0.94615674 0.020981329 0.091462962 9.3681987e-40
0.94615674 0.020981329 0.09396296 1.0290127e-39
0.94865674 0.020981329 0.09396296 4.7800953e-40
0.94615674 0.023481328 0.088962957 1.2119746e-39
0.94615674 0.023481328 0.09396296 1.0293686e-39
0.93115675 0.028481327 0.073962957 1.8137006e-41
0.93115675 0.030981328 0.073962957 2.2460012e-41
0.93365675 0.028481327 0.073962957 1.4894401e-41
0.93615675 0.028481327 0.071462959 1.2740606e-41
0.93615675 0.028481327 0.073962957 1.9962758e-40
0.93865675 0.028481327 0.071462959 1.5603458e-41
0.93115675 0.028481327 0.076462962 1.2112614e-39
0.93115675 0.028481327 0.078962959 1.0290183e-39
0.93115675 0.030981328 0.076462962 1.6718836e-39
0.93365675 0.028481327 0.076462962 1.0275932e-39
0.93365675 0.028481327 0.078962959 1.489272e-39
0.93115675 0.028481327 0.081462957 1.3048793e-39
0.93115675 0.028481327 0.083962962 1.3970764e-39
0.93115675 0.030981328 0.081462957 1.489272e-39
0.93115675 0.030981328 0.083962962 8.4713957e-40
0.93365675 0.028481327 0.081462957 1.3967232e-39
0.93115675 0.033481326 0.081462957 1.489272e-39
0.93615675 0.028481327 0.076462962 6.6130918e-40
0.93615675 0.028481327 0.078962959 1.0308176e-39
0.93865675 0.028481327 0.076462962 1.3059569e-39
0.93865675 0.028481327 0.078962959 1.3970764e-39
0.93615675 0.028481327 0.081462957 1.489272e-39
0.93865675 0.028481327 0.083962962 1.2119746e-39
0.93115675 0.030981328 0.088962957 6.6275812e-40
0.93365675 0.028481327 0.08646296 1.0290155e-39
0.93365675 0.028481327 0.088962957 1.3970764e-39
0.93365675 0.030981328 0.08646296 1.489272e-39
0.93365675 0.030981328 0.088962957 8.4713957e-40
0.93115675 0.030981328 0.091462962 1.3970764e-39
0.93115675 0.030981328 0.09396296 1.489272e-39
0.93365675 0.028481327 0.09396296 1.2119774e-39
0.93365675 0.030981328 0.09396296 1.0279463e-39
0.93115675 0.033481326 0.09396296 1.856628e-39
0.93865675 0.028481327 0.08646296 8.4713957e-40
0.93615675 0.028481327 0.091462962 4.7943185e-40
0.93615675 0.030981328 0.091462962 5.7162748e-40
0.94115674 0.028481327 0.08646296 6.6275812e-40
0.94115674 0.028481327 0.088962957 8.4713957e-40
0.91865677 0.035981327 0.098962963 1.8569811e-39
0.91865677 0.035981327 0.10146296 1.947732e-39
0.91865677 0.035981327 0.10646296 1.4892692e-39
0.91115677 0.038481329 0.096462958 1.6740164e-39
0.91115677 0.038481329 0.098962963 1.6743723e-39
0.91365677 0.038481329 0.096462958 1.5818207e-39
0.91115677 0.040981326 0.10396296 1.8569811e-39
0.91365677 0.038481329 0.10146296 1.5818207e-39
0.91365677 0.038481329 0.10396296 1.4892692e-39
0.91365677 0.040981326 0.10146296 2.1321205e-39
0.91365677 0.040981326 0.10396296 1.8566252e-39
0.91115677 0.043481328 0.10396296 2.1321205e-39
0.91115677 0.045981329 0.10396296 2.7821618e-39
0.91365677 0.043481328 0.10396296 1.3070443e-39
0.91615677 0.038481329 0.096462958 1.4896251e-39
0.91615677 0.038481329 0.098962963 1.5818235e-39
0.91865677 0.038481329 0.096462958 1.4892692e-39
0.91865677 0.038481329 0.098962963 1.5818207e-39
0.91615677 0.038481329 0.10146296 1.489272e-39
0.91615677 0.040981326 0.10396296 1.8569811e-39
0.91865677 0.038481329 0.10146296 1.4896251e-39
0.91865677 0.038481329 0.10396296 1.5818235e-39
0.91865677 0.040981326 0.10396296 1.6736688e-39
0.91615677 0.043481328 0.10396296 1.6740192e-39
0.91115677 0.040981326 0.11396296 1.4921446e-39
0.91365677 0.040981326 0.11396296 1.3995903e-39
0.91115677 0.043481328 0.10896296 1.5818207e-39
0.91115677 0.045981329 0.10896296 2.8725596e-39
0.91365677 0.043481328 0.10646296 1.6722311e-39
0.91365677 0.043481328 0.10896296 1.4889189e-39
0.91365677 0.045981329 0.10646296 2.5974146e-39
0.91365677 0.045981329 0.10896296 1.4939411e-39
0.91115677 0.043481328 0.11396296 1.8573188e-39
0.91115677 0.045981329 0.11396296 3.0555033e-39
0.91365677 0.043481328 0.11146296 1.1219118e-39
0.91365677 0.043481328 0.11396296 1.489272e-39
0.91365677 0.045981329 0.11146296 2.597402e-39
0.91365677 0.045981329 0.11396296 2.4126562e-39
0.91615677 0.038481329 0.10646296 1.5818207e-39
0.91615677 0.040981326 0.10646296 1.8573314e-39
0.91865677 0.038481329 0.10646296 1.4892692e-39
0.91865677 0.038481329 0.10896296 1.6743723e-39
0.91865677 0.040981326 0.10646296 1.6736688e-39
0.91865677 0.040981326 0.10896296 1.0315308e-39
0.91615677 0.038481329 0.11396296 1.1219174e-39
0.91615677 0.040981326 0.11146296 1.6736632e-39
0.91615677 0.040981326 0.11396296 1.6740164e-39
0.91865677 0.038481329 0.11146296 1.6743723e-39
0.91865677 0.038481329 0.11396296 1.5818207e-39
0.91865677 0.040981326 0.11146296 1.031884e-39
0.91615677 0.043481328 0.10646296 1.4889189e-39
0.91615677 0.043481328 0.11146296 1.0315308e-39
0.91615677 0.043481328 0.11396296 1.5818207e-39
0.92115676 0.035981327 0.096462958 2.132489e-39
0.92115676 0.035981327 0.098962963 1.947732e-39
0.92365676 0.035981327 0.096462958 1.5818207e-39
0.92115676 0.035981327 0.10146296 1.4892692e-39
0.92115676 0.035981327 0.10396296 1.1215643e-39
0.92365676 0.033481326 0.10396296 1.4892692e-39
0.92365676 0.035981327 0.10146296 1.4892692e-39
0.92365676 0.035981327 0.10396296 1.3059569e-39
0.92865676 0.030981328 0.096462958 1.3048793e-39
0.92865676 0.030981328 0.098962963 1.1215643e-39
0.92865676 0.030981328 0.10146296 1.3059569e-39
0.92865676 0.030981328 0.10396296 1.1215643e-39
0.92615676 0.033481326 0.098962963 1.3059569e-39
0.92615676 0.035981327 0.098962963 1.2137613e-39
0.92865676 0.033481326 0.096462958 1.3970764e-39
0.92865676 0.033481326 0.098962963 1.3970764e-39
0.92615676 0.033481326 0.10146296 1.3059569e-39
0.92615676 0.033481326 0.10396296 1.0315308e-39
0.92615676 0.035981327 0.10146296 1.489272e-39
0.92615676 0.035981327 0.10396296 1.3059569e-39
0.92865676 0.033481326 0.10146296 1.1215643e-39
0.92865676 0.033481326 0.10396296 1.3059569e-39
0.92115676 0.035981327 0.10896296 1.1215643e-39
0.92365676 0.033481326 0.10646296 1.3059569e-39
0.92365676 0.033481326 0.10896296 1.3048765e-39
0.92365676 0.035981327 0.10646296 1.1215615e-39
0.92365676 0.035981327 0.10896296 1.3970764e-39
0.92115676 0.035981327 0.11396296 1.1215671e-39
0.92365676 0.033481326 0.11146296 6.6382451e-40
0.92365676 0.033481326 0.11396296 1.0290127e-39
0.92365676 0.035981327 0.11146296 1.489272e-39
0.92865676 0.028481327 0.10896296 1.0293686e-39
0.92865676 0.030981328 0.10646296 1.3059569e-39
0.92865676 0.030981328 0.10896296 1.3059569e-39
0.92615676 0.030981328 0.11146296 1.0293686e-39
0.92865676 0.028481327 0.11146296 1.1215643e-39
0.92865676 0.030981328 0.11146296 1.1215615e-39
0.92865676 0.030981328 0.11396296 1.1215643e-39
0.92615676 0.033481326 0.10646296 1.489272e-39
0.92615676 0.033481326 0.10896296 1.4892692e-39
0.92615676 0.035981327 0.10646296 1.489272e-39
0.92615676 0.035981327 0.10896296 1.3063128e-39
0.92865676 0.033481326 0.10646296 1.3059569e-39
0.92865676 0.033481326 0.10896296 1.3059569e-39
0.92865676 0.035981327 0.10896296 1.3970764e-39
0.92615676 0.033481326 0.11146296 1.1215643e-39
0.92865676 0.033481326 0.11396296 1.0293658e-39
0.92115676 0.038481329 0.096462958 1.5818207e-39
0.92115676 0.038481329 0.10146296 1.5818235e-39
0.92115676 0.038481329 0.10396296 1.4892692e-39
0.92115676 0.040981326 0.10146296 1.4892692e-39
0.92115676 0.040981326 0.10396296 1.4892692e-39
0.92365676 0.038481329 0.10146296 1.4892692e-39
0.92365676 0.038481329 0.10396296 1.4896251e-39
0.92115676 0.038481329 0.10896296 1.3059569e-39
0.92365676 0.038481329 0.10646296 1.5818179e-39
0.92115676 0.038481329 0.11396296 1.4896251e-39
0.92365676 0.038481329 0.11146296 1.4896251e-39
0.91115677 0.040981326 0.11646296 1.5818207e-39
0.91365677 0.040981326 0.11646296 1.30631e-39
0.91365677 0.040981326 0.11896296 1.4896251e-39
0.91115677 0.040981326 0.12146296 7.5350201e-40
0.91365677 0.040981326 0.12146296 6.6130638e-40
0.91365677 0.040981326 0.12396296 1.7732031e-41
0.91115677 0.043481328 0.11646296 2.3179382e-39
0.91115677 0.045981329 0.11646296 2.9633076e-39
0.91365677 0.043481328 0.11646296 1.8580377e-39
0.91365677 0.043481328 0.11896296 2.2242937e-39
0.91365677 0.045981329 0.11646296 2.1346288e-39
0.91115677 0.043481328 0.12146296 2.0406283e-39
0.91115677 0.045981329 0.12146296 2.7781933e-39
0.91365677 0.043481328 0.12396296 1.5778677e-39
0.91365677 0.045981329 0.12396296 5.0831065e-39
0.91615677 0.038481329 0.11896296 1.0293686e-39
0.91615677 0.040981326 0.11646296 1.5818207e-39
0.91615677 0.040981326 0.11896296 1.6736632e-39
0.91865677 0.038481329 0.11646296 1.2137613e-39
0.91865677 0.038481329 0.11896296 1.2137613e-39
0.91615677 0.040981326 0.12146296 1.1280733e-40
0.91615677 0.040981326 0.12396296 2.0617304e-41
0.91865677 0.038481329 0.12146296 9.3681987e-40
0.91865677 0.038481329 0.12396296 1.916696e-41
0.91865677 0.040981326 0.12396296 1.85843e-39
0.91615677 0.043481328 0.11646296 1.6740164e-39
0.91615677 0.043481328 0.12396296 6.9248541e-39
0.91365677 0.040981326 0.12646297 5.0856246e-39
0.91115677 0.043481328 0.12646297 4.8990613e-39
0.91115677 0.045981329 0.12646297 7.3883434e-39
0.91365677 0.043481328 0.12646297 7.5694948e-39
0.91365677 0.045981329 0.12896296 4.803277e-39
0.91365677 0.045981329 0.13146296 1.1244355e-39
0.91615677 0.040981326 0.12896296 6.6525748e-39
0.91865677 0.040981326 0.12646297 6.1919554e-39
0.91865677 0.040981326 0.12896296 8.2155635e-39
0.91615677 0.040981326 0.13146296 1.0308176e-39
0.91865677 0.040981326 0.13146296 8.4605076e-40
0.91615677 0.043481328 0.12896296 6.9234163e-39
0.91615677 0.045981329 0.12896296 9.3969113e-40
0.91865677 0.043481328 0.12646297 5.5440846e-39
0.91865677 0.043481328 0.12896296 4.1665382e-39
0.91615677 0.043481328 0.13146296 2.0356803e-40
0.91615677 0.045981329 0.13146296 1.5945375e-41
0.91865677 0.043481328 0.13146296 6.5988406e-40
0.91865677 0.045981329 0.13146296 1.9506229e-39
0.91865677 0.045981329 0.13396296 7.9267194e-39
0.92365676 0.033481326 0.11646296 1.3970735e-39
0.92365676 0.033481326 0.11896296 1.5789495e-39
0.92365676 0.035981327 0.11646296 1.2119746e-39
0.92365676 0.035981327 0.11896296 1.3967232e-39
0.92365676 0.035981327 0.12146296 1.0290155e-39
0.92365676 0.035981327 0.12396296 1.21089e-39
0.92615676 0.030981328 0.11896296 1.0293686e-39
0.92865676 0.028481327 0.11646296 1.0290155e-39
0.92865676 0.030981328 0.11646296 1.0293686e-39
0.92865676 0.030981328 0.11896296 1.5796655e-39
0.92615676 0.030981328 0.12146296 1.5800215e-39
0.92615676 0.030981328 0.12396296 1.2123151e-39
0.92865676 0.030981328 0.12146296 1.5796683e-39
0.92615676 0.033481326 0.11646296 1.3059569e-39
0.92615676 0.033481326 0.11896296 1.0293686e-39
0.92865676 0.033481326 0.11646296 7.5385513e-40
0.92865676 0.033481326 0.11896296 1.6722213e-39
0.92615676 0.033481326 0.12146296 1.5796655e-39
0.92615676 0.033481326 0.12396296 1.3952771e-39
0.92615676 0.035981327 0.12146296 2.2246692e-39
0.92615676 0.035981327 0.12396296 1.5800215e-39
0.92865676 0.033481326 0.12146296 1.5785992e-39
0.92365676 0.035981327 0.12646297 1.3070443e-39
0.92865676 0.033481326 0.12646297 3.6108435e-39
0.92865676 0.035981327 0.12646297 5.8238987e-39
0.92115676 0.038481329 0.11896296 1.3056038e-39
0.92115676 0.038481329 0.12146296 1.3048737e-39
0.92365676 0.038481329 0.12146296 3.8866835e-40
0.92365676 0.038481329 0.12396296 3.055153e-39
0.92615676 0.038481329 0.12396296 3.0544257e-39
0.92115676 0.038481329 0.12646297 5.3600423e-39
0.92115676 0.040981326 0.12646297 5.6395032e-39
0.92365676 0.038481329 0.12646297 3.6072702e-39
0.92365676 0.040981326 0.12896296 4.1586321e-39
0.92115676 0.040981326 0.13146296 2.6899634e-39
0.92365676 0.040981326 0.13146296 2.3464743e-41
0.92115676 0.043481328 0.13146296 6.4584235e-39
0.92115676 0.045981329 0.13146296 7.6566079e-39
0.92365676 0.043481328 0.13146296 1.8645033e-39
0.92365676 0.045981329 0.13146296 7.5640592e-39
0.92615676 0.038481329 0.12646297 5.9121385e-39
0.92615676 0.038481329 0.12896296 5.2660138e-39
0.92615676 0.040981326 0.12896296 2.5030358e-39
0.92865676 0.038481329 0.12646297 7.6627414e-39
0.92865676 0.040981326 0.13146296 3.6961867e-39
0.92615676 0.045981329 0.13396296 8.1136036e-39
0.92865676 0.043481328 0.13146296 4.8025343e-39
0.92865676 0.043481328 0.13396296 6.9168597e-39
0.93365675 0.025981328 0.096462958 1.0290155e-39
0.93615675 0.025981328 0.096462958 1.0290155e-39
0.93615675 0.025981328 0.098962963 1.0290127e-39
0.93865675 0.025981328 0.096462958 1.0293686e-39
0.93615675 0.025981328 0.10396296 1.0293686e-39
0.93865675 0.025981328 0.10146296 1.0293686e-39
0.93865675 0.025981328 0.10396296 1.0293686e-39
0.93365675 0.025981328 0.10646296 1.1215643e-39
0.93615675 0.025981328 0.10646296 1.3970764e-39
0.93615675 0.025981328 0.10896296 1.0290127e-39
0.93865675 0.025981328 0.10646296 1.0293686e-39
0.93865675 0.025981328 0.10896296 1.0293686e-39
0.93615675 0.025981328 0.11146296 1.0293658e-39
0.93865675 0.025981328 0.11146296 1.0293686e-39
0.93865675 0.025981328 0.11396296 1.3952771e-39
0.94365674 0.020981329 0.098962963 6.6023438e-40
0.94365674 0.020981329 0.10396296 9.3681707e-40
0.94115674 0.023481328 0.096462958 1.0290155e-39
0.94115674 0.023481328 0.098962963 9.3681987e-40
0.94115674 0.025981328 0.096462958 1.1215671e-39
0.94115674 0.025981328 0.098962963 1.0290127e-39
0.94365674 0.023481328 0.096462958 8.4426831e-40
0.94365674 0.023481328 0.098962963 9.3681987e-40
0.94365674 0.023481328 0.10146296 9.3681987e-40
0.94365674 0.023481328 0.10396296 1.0290155e-39
0.94365674 0.025981328 0.10146296 1.0293686e-39
0.94365674 0.025981328 0.10396296 1.0290127e-39
0.94615674 0.020981329 0.096462958 1.0293686e-39
0.94615674 0.020981329 0.098962963 8.4462424e-40
0.94865674 0.018481327 0.096462958 9.3681987e-40
0.94865674 0.018481327 0.098962963 8.4461864e-40
0.94865674 0.020981329 0.096462958 1.3949212e-39
0.94865674 0.020981329 0.098962963 9.3681987e-40
0.94615674 0.020981329 0.10146296 9.3681987e-40
0.94615674 0.020981329 0.10396296 8.4462424e-40
0.94865674 0.018481327 0.10146296 1.211246e-39
0.94865674 0.020981329 0.10146296 9.3681987e-40
0.94865674 0.020981329 0.10396296 6.6130918e-40
0.94615674 0.023481328 0.096462958 1.0293686e-39
0.94615674 0.023481328 0.098962963 8.4426831e-40
0.94615674 0.023481328 0.10146296 1.0293686e-39
0.94365674 0.020981329 0.10896296 7.5350201e-40
0.94365674 0.018481327 0.11146296 1.1194105e-39
0.94365674 0.020981329 0.11146296 1.2112432e-39
0.94115674 0.023481328 0.10646296 1.0293686e-39
0.94115674 0.025981328 0.10646296 9.3681707e-40
0.94365674 0.023481328 0.10896296 1.4874699e-39
0.94365674 0.025981328 0.10896296 1.0293658e-39
0.94115674 0.023481328 0.11396296 1.4874727e-39
0.94115674 0.025981328 0.11146296 6.6130638e-40
0.94115674 0.025981328 0.11396296 1.3952771e-39
0.94365674 0.023481328 0.11146296 1.4874699e-39
0.94365674 0.023481328 0.11396296 1.211962e-39
0.94365674 0.025981328 0.11146296 1.3952771e-39
0.94365674 0.025981328 0.11396296 9.3681987e-40
0.94615674 0.018481327 0.10646296 6.6130918e-40
0.94615674 0.018481327 0.10896296 6.6130918e-40
0.94615674 0.020981329 0.10646296 6.6130918e-40
0.94615674 0.020981329 0.10896296 1.21089e-39
0.94865674 0.018481327 0.10646296 1.1201195e-39
0.94615674 0.018481327 0.11396296 6.6130638e-40
0.94615674 0.020981329 0.11396296 1.3952743e-39
0.94865674 0.018481327 0.11146296 6.6130638e-40
0.94615674 0.023481328 0.10646296 6.6130918e-40
0.94615674 0.023481328 0.10896296 6.6130638e-40
0.94615674 0.023481328 0.11396296 1.3952743e-39
0.94615674 0.025981328 0.11396296 9.3681987e-40
0.93615675 0.025981328 0.11646296 1.4874699e-39
0.93865675 0.025981328 0.11896296 1.4878258e-39
0.93865675 0.025981328 0.12146296 1.4878258e-39
0.94365674 0.020981329 0.11896296 1.1215643e-39
0.94115674 0.025981328 0.11646296 1.1197664e-39
0.94115674 0.025981328 0.11896296 1.3952743e-39
0.94365674 0.023481328 0.11646296 1.2112432e-39
0.94365674 0.023481328 0.11896296 1.0293686e-39
0.94365674 0.025981328 0.11646296 1.4874699e-39
0.94365674 0.025981328 0.11896296 1.0290155e-39
0.94365674 0.025981328 0.12146296 1.5800215e-39
0.94365674 0.025981328 0.12396296 1.8450897e-41
0.94615674 0.018481327 0.11646296 6.6130638e-40
0.94615674 0.020981329 0.11646296 1.3952743e-39
0.94615674 0.020981329 0.11896296 1.4878258e-39
0.94865674 0.018481327 0.11896296 1.2123123e-39
0.94865674 0.020981329 0.11896296 1.6722213e-39
0.94615674 0.020981329 0.12146296 1.3063128e-39
0.94865674 0.018481327 0.12396296 1.5800215e-39
0.94865674 0.020981329 0.12396296 1.3063128e-39
0.94615674 0.023481328 0.11646296 1.4874699e-39
0.94615674 0.023481328 0.11896296 1.5800215e-39
0.94615674 0.025981328 0.11646296 1.2112432e-39
0.94615674 0.025981328 0.11896296 1.5800215e-39
0.94865674 0.023481328 0.11896296 1.0275708e-39
0.94615674 0.023481328 0.12146296 1.1215615e-39
0.94615674 0.025981328 0.12146296 1.5778677e-39
0.94865674 0.023481328 0.12396296 1.0293658e-39
0.94865674 0.025981328 0.12396296 1.5942573e-41
0.94115674 0.025981328 0.12646297 1.701877e-41
0.94365674 0.025981328 0.12646297 2.1418315e-39
0.94365674 0.025981328 0.12896296 5.7263109e-39
0.94865674 0.018481327 0.12646297 6.6130638e-40
0.94865674 0.020981329 0.12646297 6.6094064e-40
0.94615674 0.023481328 0.12646297 2.9791886e-40
0.94615674 0.025981328 0.12646297 1.8666893e-39
0.94865674 0.023481328 0.12646297 1.1219174e-39
0.94865674 0.023481328 0.12896296 6.9234051e-39
0.94865674 0.025981328 0.12896296 6.5528247e-39
0.94615674 0.023481328 0.13146296 7.6623883e-39
0.94615674 0.023481328 0.13396296 3.4246585e-39
0.94615674 0.025981328 0.13146296 5.2667172e-39
0.94615674 0.025981328 0.13396296 1.0885427e-40
0.94865674 0.023481328 0.13146296 7.5680725e-39
0.94865674 0.025981328 0.13146296 5.0809008e-39
0.94865674 0.025981328 0.13396296 2.3150852e-39
0.93115675 0.030981328 0.096462958 1.2119746e-39
0.93115675 0.030981328 0.098962963 1.0293686e-39
0.93365675 0.028481327 0.096462958 1.1215615e-39
0.93365675 0.030981328 0.096462958 1.1215615e-39
0.93365675 0.030981328 0.098962963 1.1215643e-39
0.93115675 0.030981328 0.10146296 1.1215643e-39
0.93365675 0.028481327 0.10146296 1.1215643e-39
0.93365675 0.030981328 0.10146296 1.0293686e-39
0.93365675 0.030981328 0.10396296 1.0290127e-39
0.93615675 0.028481327 0.096462958 1.0293686e-39
0.93615675 0.028481327 0.098962963 9.37173e-40
0.93615675 0.030981328 0.096462958 1.0293686e-39
0.93615675 0.030981328 0.098962963 1.1215615e-39
0.93615675 0.028481327 0.10396296 1.3048793e-39
0.93615675 0.030981328 0.10396296 1.3970764e-39
0.93865675 0.028481327 0.10146296 1.1215643e-39
0.93115675 0.028481327 0.10646296 9.3681987e-40
0.93115675 0.028481327 0.10896296 1.3048793e-39
0.93115675 0.030981328 0.10646296 1.2137613e-39
0.93365675 0.028481327 0.10646296 1.1212111e-39
0.93365675 0.028481327 0.10896296 1.0293686e-39
0.93365675 0.030981328 0.10646296 1.5818235e-39
0.93115675 0.028481327 0.11396296 1.0293658e-39
0.93115675 0.030981328 0.11396296 1.1215615e-39
0.93365675 0.028481327 0.11146296 1.1215643e-39
0.93365675 0.028481327 0.11396296 1.0293686e-39
0.93615675 0.028481327 0.10896296 1.0293686e-39
0.93615675 0.028481327 0.11146296 1.0293686e-39
0.93615675 0.028481327 0.11396296 1.4874699e-39
0.93115675 0.028481327 0.11896296 1.0293686e-39
0.93115675 0.030981328 0.11896296 1.1215643e-39
0.93365675 0.028481327 0.11646296 1.5796655e-39
0.93365675 0.028481327 0.11896296 1.5800215e-39
0.93115675 0.030981328 0.12396296 1.3952771e-39
0.93365675 0.030981328 0.12146296 3.8544536e-40
0.93365675 0.030981328 0.12396296 1.304508e-39
0.93115675 0.033481326 0.12396296 2.010527e-40
0.93365675 0.033481326 0.12396296 3.4242816e-39
0.93615675 0.028481327 0.11646296 1.5789495e-39
0.93865675 0.028481327 0.11896296 7.545768e-40
0.93615675 0.028481327 0.12146296 3.8579568e-40
0.93615675 0.030981328 0.12146296 1.9173967e-41
0.93615675 0.030981328 0.12396296 9.3536953e-40
0.93865675 0.028481327 0.12146296 7.5350761e-40
0.93865675 0.030981328 0.12396296 4.4351965e-39
0.93865675 0.033481326 0.12396296 6.9241226e-39
0.93115675 0.033481326 0.12646297 3.7015972e-39
0.93115675 0.035981327 0.12896296 6.4602788e-39
0.93365675 0.033481326 0.12646297 7.5655488e-39
0.93365675 0.035981327 0.12646297 6.6435911e-39
0.93365675 0.035981327 0.12896296 5.5400769e-39
0.93365675 0.035981327 0.13146296 2.1306785e-39
0.93865675 0.030981328 0.12646297 6.2780329e-39
0.93615675 0.033481326 0.12646297 6.9241198e-39
0.93615675 0.033481326 0.12896296 7.8449677e-39
0.93615675 0.035981327 0.12896296 5.1730965e-39
0.93865675 0.033481326 0.12646297 7.107795e-39
0.93865675 0.035981327 0.12646297 7.2939673e-39
0.93615675 0.035981327 0.13146296 3.5085907e-39
0.93865675 0.033481326 0.13146296 1.1219174e-39
0.93865675 0.035981327 0.13146296 5.6279369e-39
0.93115675 0.038481329 0.12896296 2.6834824e-39
0.93115675 0.040981326 0.12896296 2.9754191e-40
0.93365675 0.038481329 0.12646297 4.1586124e-39
0.93365675 0.038481329 0.12896296 3.2362974e-39
0.93115675 0.038481329 0.13146296 3.4210474e-39
0.93115675 0.040981326 0.13146296 3.5139465e-39
0.93365675 0.038481329 0.13146296 3.787288e-39
0.93365675 0.040981326 0.13146296 7.1016041e-39
0.93115675 0.043481328 0.13146296 4.620294e-39
0.93365675 0.043481328 0.13146296 6.9172128e-39
0.93615675 0.038481329 0.12896296 2.6874452e-39
0.93615675 0.040981326 0.12896296 5.8155918e-39
0.93615675 0.038481329 0.13146296 6.2689903e-39
0.93615675 0.038481329 0.13396296 8.6570411e-39
0.93615675 0.040981326 0.13146296 9.0319025e-39
0.93865675 0.038481329 0.13146296 8.8407191e-39
0.93865675 0.040981326 0.13146296 8.7556757e-39
0.93615675 0.043481328 0.12896296 7.5600795e-39
0.94115674 0.028481327 0.11896296 1.7626177e-39
0.94115674 0.028481327 0.12146296 7.5280416e-40
0.94115674 0.028481327 0.12396296 7.5315448e-40
0.94115674 0.030981328 0.12146296 8.4280395e-40
0.94115674 0.030981328 0.12396296 4.342645e-39
0.94365674 0.028481327 0.12146296 1.3048737e-39
0.94365674 0.028481327 0.12396296 6.5988966e-40
0.94365674 0.030981328 0.12396296 2.8740239e-39
0.94115674 0.028481327 0.12646297 2.0287018e-40
0.94115674 0.030981328 0.12646297 6.4627815e-39
0.94115674 0.030981328 0.12896296 5.267125e-39
0.94365674 0.028481327 0.12646297 5.1777992e-39
0.94365674 0.028481327 0.12896296 6.8344311e-39
0.94365674 0.030981328 0.12646297 5.2664187e-39
0.94365674 0.030981328 0.12896296 4.0714503e-39
0.94115674 0.030981328 0.13146296 7.5098668e-40
0.94365674 0.030981328 0.13146296 2.6751951e-39
0.94365674 0.030981328 0.13396296 1.2441025e-38
0.94115674 0.033481326 0.12896296 2.7800136e-39
0.94115674 0.035981327 0.12896296 3.2402687e-39
0.94115674 0.033481326 0.13146296 1.0900701e-41
0.94115674 0.035981327 0.13146296 1.3840667e-39
0.94365674 0.033481326 0.13146296 4.9804446e-39
0.94365674 0.033481326 0.13396296 1.465336e-38
0.94365674 0.035981327 0.13146296 8.3800941e-39
0.94615674 0.028481327 0.12646297 7.0181007e-39
0.94615674 0.030981328 0.12646297 6.560012e-39
0.94865674 0.028481327 0.12896296 3.7927362e-39
0.94615674 0.028481327 0.13146296 2.3208207e-39
0.94615674 0.028481327 0.13396296 8.4927235e-40
0.94615674 0.030981328 0.13146296 2.5826463e-39
0.94615674 0.030981328 0.13396296 1.2716898e-38
0.94865674 0.028481327 0.13146296 1.8573342e-39
0.94865674 0.028481327 0.13396296 6.8189369e-39
0.94615674 0.033481326 0.13146296 4.7031458e-39
0.94615674 0.033481326 0.13396296 1.4653007e-38
0.94115674 0.038481329 0.13146296 8.5648581e-39
0.91615677 0.050981328 0.066462964 7.4918601e-40
0.91115677 0.048481327 0.10896296 3.3335209e-39
0.91115677 0.050981328 0.10896296 5.0765372e-39
0.91365677 0.048481327 0.10646296 3.2431245e-39
0.91365677 0.048481327 0.10896296 3.2416882e-39
0.91365677 0.050981328 0.10646296 2.9668964e-39
0.91365677 0.050981328 0.10896296 3.2416882e-39
0.91115677 0.048481327 0.11396296 2.9654558e-39
0.91365677 0.048481327 0.11146296 2.8732602e-39
0.91365677 0.048481327 0.11396296 3.1480548e-39
0.91115677 0.053481329 0.10896296 6.7364173e-39
0.91115677 0.048481327 0.11646296 3.3324391e-39
0.91115677 0.053481329 0.12146296 7.1016041e-39
0.91115677 0.048481327 0.12646297 5.7259199e-39
0.91115677 0.050981328 0.12646297 5.6304579e-39
0.91365677 0.048481327 0.12896296 4.7691512e-40
0.91365677 0.050981328 0.12896296 2.9582265e-39
0.91115677 0.050981328 0.13146296 6.0863941e-39
0.91365677 0.048481327 0.13146296 6.9237372e-39
0.91365677 0.050981328 0.13146296 5.717613e-39
0.91115677 0.053481329 0.12646297 8.114307e-39
0.91615677 0.048481327 0.12896296 2.5923923e-39
0.91615677 0.050981328 0.12896296 6.086041e-39
0.91615677 0.048481327 0.13146296 7.1999668e-39
0.91615677 0.050981328 0.13146296 8.9415664e-39
0.91865677 0.048481327 0.13146296 8.300555e-39
0.92115676 0.048481327 0.13146296 6.7324964e-39
0.92365676 0.048481327 0.13146296 8.0181836e-39
0.94865674 0.025981328 0.13646296 7.9339039e-39
0.94865674 0.028481327 0.13646296 1.1606225e-38
0.95615673 0.015981328 0.068962961 1.5807642e-39
0.95865673 0.013481327 0.068962961 1.4903664e-39
0.95865673 0.015981328 0.068962961 8.4534731e-40
0.95865673 0.015981328 0.071462959 8.4607318e-40
0.95865673 0.015981328 0.073962957 5.7056109e-40
0.95115674 0.018481327 0.068962961 3.3331678e-39
0.95365673 0.018481327 0.068962961 1.2119802e-39
0.95115674 0.018481327 0.073962957 5.7056109e-40
0.95115674 0.020981329 0.073962957 8.4678925e-40
0.95365673 0.018481327 0.071462959 1.2116243e-39
0.95365673 0.018481327 0.073962957 9.3826881e-40
0.95615673 0.018481327 0.068962961 1.4860504e-39
0.95615673 0.018481327 0.073962957 5.7056109e-40
0.95865673 0.018481327 0.071462959 9.3791288e-40
0.95865673 0.018481327 0.073962957 2.0250164e-40
0.96115673 0.013481327 0.068962961 1.395654e-39
0.96115673 0.015981328 0.068962961 6.6275812e-40
0.96365672 0.013481327 0.068962961 1.6733129e-39
0.96115673 0.013481327 0.071462959 4.776564e-40
0.96115673 0.015981328 0.071462959 4.787284e-40
0.96115673 0.015981328 0.073962957 8.4678925e-40
0.96365672 0.013481327 0.073962957 8.4678925e-40
0.96365672 0.015981328 0.073962957 6.6240219e-40
0.96865678 0.010981328 0.068962961 3.8546358e-40
0.96865678 0.013481327 0.068962961 5.6985203e-40
0.96615678 0.013481327 0.071462959 4.7800673e-40
0.96615678 0.013481327 0.073962957 4.7800953e-40
0.96115673 0.018481327 0.073962957 4.7800953e-40
0.95865673 0.015981328 0.078962959 2.950476e-40
0.95865673 0.015981328 0.081462957 9.3681707e-40
0.95365673 0.015981328 0.088962957 9.3681987e-40
0.95115674 0.015981328 0.091462962 9.3681987e-40
0.95115674 0.015981328 0.09396296 8.4426831e-40
0.95615673 0.015981328 0.08646296 6.5988406e-40
0.95615673 0.015981328 0.088962957 9.3681987e-40
0.95865673 0.013481327 0.08646296 8.4426831e-40
0.95865673 0.015981328 0.08646296 9.3681987e-40
0.95615673 0.015981328 0.091462962 5.6804156e-40
0.95615673 0.015981328 0.09396296 5.6804156e-40
0.95865673 0.015981328 0.091462962 8.4462424e-40
0.95865673 0.015981328 0.09396296 9.3681987e-40
0.95115674 0.020981329 0.076462962 8.4607318e-40
0.95115674 0.020981329 0.078962959 1.2119746e-39
0.95365673 0.018481327 0.076462962 1.3034542e-39
0.95365673 0.018481327 0.078962959 1.3967232e-39
0.95365673 0.020981329 0.076462962 6.6275812e-40
0.95115674 0.018481327 0.081462957 1.2119746e-39
0.95115674 0.020981329 0.081462957 1.3967232e-39
0.95115674 0.020981329 0.083962962 5.7020796e-40
0.95365673 0.018481327 0.081462957 4.7801233e-40
0.95365673 0.018481327 0.083962962 1.0275932e-39
0.95365673 0.020981329 0.081462957 4.7907872e-40
0.95365673 0.020981329 0.083962962 2.0285197e-40
0.95115674 0.023481328 0.076462962 1.3045304e-39
0.95115674 0.023481328 0.078962959 1.2119746e-39
0.95115674 0.023481328 0.083962962 4.7907872e-40
0.95615673 0.018481327 0.076462962 8.4678925e-40
0.95615673 0.018481327 0.078962959 8.4713957e-40
0.95865673 0.018481327 0.078962959 4.7907872e-40
0.95615673 0.018481327 0.081462957 2.0285197e-40
0.95865673 0.018481327 0.081462957 9.3681987e-40
0.95865673 0.018481327 0.083962962 1.0279463e-39
0.95115674 0.018481327 0.08646296 9.3646955e-40
0.95115674 0.020981329 0.08646296 9.3681707e-40
0.95365673 0.018481327 0.088962957 1.0290127e-39
0.95115674 0.018481327 0.091462962 4.7800953e-40
0.95115674 0.018481327 0.09396296 4.7835986e-40
0.95115674 0.020981329 0.091462962 9.3681987e-40
0.95865673 0.018481327 0.08646296 9.3681987e-40
0.95615673 0.018481327 0.09396296 9.3681987e-40
0.96115673 0.010981328 0.083962962 8.4462424e-40
0.96365672 0.010981328 0.081462957 8.4462144e-40
0.96115673 0.015981328 0.076462962 6.6310705e-40
0.96365672 0.013481327 0.076462962 3.858139e-40
0.96365672 0.013481327 0.078962959 8.4426831e-40
0.96365672 0.015981328 0.078962959 8.4462424e-40
0.96115673 0.013481327 0.081462957 9.3681987e-40
0.96115673 0.013481327 0.083962962 1.0290127e-39
0.96115673 0.015981328 0.081462957 9.3681987e-40
0.96115673 0.015981328 0.083962962 9.3681987e-40
0.96365672 0.013481327 0.081462957 9.3681987e-40
0.96365672 0.015981328 0.081462957 9.3681987e-40
0.96615678 0.010981328 0.078962959 2.950476e-40
0.96865678 0.0084813274 0.078962959 8.4462424e-40
0.96865678 0.010981328 0.076462962 9.3681987e-40
0.96865678 0.010981328 0.078962959 9.3681987e-40
0.96615678 0.010981328 0.083962962 9.3681987e-40
0.96865678 0.010981328 0.081462957 9.3681987e-40
0.96865678 0.010981328 0.083962962 6.6130918e-40
0.96615678 0.013481327 0.078962959 2.0285197e-40
0.96865678 0.013481327 0.076462962 4.7907872e-40
0.96115673 0.010981328 0.08646296 8.4426831e-40
0.96365672 0.010981328 0.08646296 5.6876042e-40
0.96365672 0.010981328 0.088962957 8.4462144e-40
0.96365672 0.010981328 0.09396296 6.6130918e-40
0.96115673 0.013481327 0.08646296 9.3681987e-40
0.96115673 0.013481327 0.088962957 6.6130918e-40
0.96115673 0.015981328 0.088962957 8.4426831e-40
0.96365672 0.013481327 0.08646296 6.6130918e-40
0.96365672 0.013481327 0.088962957 1.3952771e-39
0.96115673 0.013481327 0.091462962 5.6875762e-40
0.96115673 0.013481327 0.09396296 6.6130918e-40
0.96115673 0.015981328 0.091462962 1.21089e-39
0.96365672 0.013481327 0.091462962 6.6023719e-40
0.96365672 0.013481327 0.09396296 6.6130918e-40
0.96365672 0.015981328 0.091462962 7.5350481e-40
0.96615678 0.010981328 0.08646296 6.6130918e-40
0.96865678 0.010981328 0.08646296 1.211246e-39
0.96865678 0.010981328 0.088962957 1.0272148e-39
0.96615678 0.010981328 0.091462962 5.6804156e-40
0.96615678 0.010981328 0.09396296 6.6130638e-40
0.96865678 0.0084813274 0.091462962 1.0272148e-39
0.96865678 0.010981328 0.091462962 9.3681707e-40
0.96615678 0.013481327 0.091462962 1.0272148e-39
0.96115673 0.018481327 0.076462962 4.7800953e-40
0.96115673 0.018481327 0.081462957 1.0290155e-39
0.97115678 0.0084813274 0.068962961 8.4608299e-40
0.97115678 0.010981328 0.068962961 6.6275812e-40
0.97115678 0.0084813274 0.073962957 9.3681987e-40
0.97115678 0.010981328 0.071462959 6.5988966e-40
0.97115678 0.010981328 0.073962957 1.2119746e-39
0.97365677 0.0084813274 0.071462959 9.3611642e-40
0.97115678 0.013481327 0.071462959 4.7835986e-40
0.97615677 0.0084813274 0.068962961 1.3953009e-39
0.97115678 0.0084813274 0.078962959 9.3681987e-40
0.97115678 0.010981328 0.078962959 6.5988406e-40
0.97365677 0.0084813274 0.076462962 1.0290155e-39
0.97365677 0.0084813274 0.078962959 8.4391799e-40
0.97115678 0.0084813274 0.081462957 6.6130918e-40
0.97115678 0.0084813274 0.083962962 6.6130918e-40
0.97365677 0.0084813274 0.083962962 6.6130918e-40
0.97115678 0.0084813274 0.08646296 6.6130918e-40
0.97115678 0.010981328 0.08646296 6.6130918e-40
0.97365677 0.0084813274 0.08646296 3.8436496e-40
0.97365677 0.0084813274 0.088962957 6.6059031e-40
0.97365677 0.010981328 0.088962957 5.6875762e-40
0.97115678 0.0084813274 0.091462962 6.6023719e-40
0.97115678 0.0084813274 0.09396296 7.5098948e-40
0.97115678 0.010981328 0.091462962 8.4426831e-40
0.97115678 0.010981328 0.09396296 9.3502201e-40
0.97365677 0.0084813274 0.091462962 6.6130918e-40
0.97365677 0.0084813274 0.09396296 3.8436496e-40
0.97365677 0.010981328 0.09396296 4.7656199e-40
0.97615677 0.0084813274 0.09396296 3.8436496e-40
0.97615677 0.010981328 0.09396296 5.6730868e-40
0.97865677 0.0084813274 0.091462962 7.5098948e-40
0.95365673 0.015981328 0.096462958 6.6130918e-40
0.95615673 0.015981328 0.098962963 9.3681707e-40
0.95865673 0.015981328 0.096462958 7.5350481e-40
0.95865673 0.015981328 0.098962963 6.6130918e-40
0.95615673 0.015981328 0.10146296 9.3681707e-40
0.95865673 0.015981328 0.10396296 4.7691512e-40
0.95365673 0.015981328 0.10896296 4.7691512e-40
0.95115674 0.015981328 0.11146296 9.350164e-40
0.95365673 0.013481327 0.11146296 1.1197664e-39
0.95365673 0.013481327 0.11396296 1.1197664e-39
0.95365673 0.015981328 0.11146296 1.1197664e-39
0.95365673 0.015981328 0.11396296 1.4874699e-39
0.95615673 0.015981328 0.10896296 6.6130918e-40
0.95865673 0.015981328 0.10646296 9.350164e-40
0.95865673 0.015981328 0.10896296 1.0275708e-39
0.95615673 0.013481327 0.11396296 1.3952743e-39
0.95615673 0.015981328 0.11146296 6.6130918e-40
0.95615673 0.015981328 0.11396296 5.6911075e-40
0.95865673 0.013481327 0.11146296 1.3952771e-39
0.95865673 0.013481327 0.11396296 1.3956274e-39
0.95865673 0.015981328 0.11396296 6.6130638e-40
0.95115674 0.018481327 0.096462958 9.3681987e-40
0.95115674 0.018481327 0.098962963 9.3681987e-40
0.95365673 0.018481327 0.096462958 9.3646394e-40
0.95115674 0.018481327 0.10396296 9.3681987e-40
0.95365673 0.018481327 0.10146296 1.5785992e-39
0.95365673 0.018481327 0.10396296 7.5350201e-40
0.95615673 0.018481327 0.098962963 9.3646394e-40
0.95615673 0.018481327 0.10146296 7.5350481e-40
0.95865673 0.018481327 0.10396296 1.0272148e-39
0.95115674 0.018481327 0.10896296 9.3502201e-40
0.95365673 0.018481327 0.10646296 4.7691792e-40
0.95365673 0.018481327 0.10896296 6.6130638e-40
0.95115674 0.018481327 0.11146296 6.6130638e-40
0.95115674 0.018481327 0.11396296 9.37173e-40
0.95615673 0.018481327 0.10646296 1.0275708e-39
0.96115673 0.013481327 0.096462958 6.6130918e-40
0.96365672 0.013481327 0.098962963 6.6130918e-40
0.96365672 0.015981328 0.098962963 9.3681707e-40
0.96115673 0.015981328 0.10146296 4.7656479e-40
0.96365672 0.013481327 0.10146296 6.5950991e-40
0.96365672 0.015981328 0.10146296 5.6911075e-40
0.96365672 0.015981328 0.10396296 5.6875762e-40
0.96615678 0.010981328 0.096462958 6.6130918e-40
0.96615678 0.010981328 0.098962963 5.6911355e-40
0.96865678 0.0084813274 0.096462958 3.8436496e-40
0.96865678 0.010981328 0.096462958 6.6130918e-40
0.96615678 0.010981328 0.10396296 5.6911075e-40
0.96865678 0.010981328 0.10146296 7.5098948e-40
0.96865678 0.010981328 0.10396296 6.5950991e-40
0.96615678 0.013481327 0.096462958 6.6130918e-40
0.96615678 0.013481327 0.098962963 9.3502201e-40
0.96615678 0.013481327 0.10146296 3.8436216e-40
0.96615678 0.013481327 0.10396296 5.6875762e-40
0.96615678 0.015981328 0.10146296 9.350164e-40
0.96615678 0.015981328 0.10396296 4.7691512e-40
0.96865678 0.013481327 0.10146296 9.3502201e-40
0.96365672 0.010981328 0.11396296 1.1201167e-39
0.96115673 0.013481327 0.10896296 1.1197664e-39
0.96115673 0.015981328 0.10646296 5.6911355e-40
0.96115673 0.015981328 0.10896296 1.2112432e-39
0.96365672 0.013481327 0.10646296 5.6911075e-40
0.96365672 0.015981328 0.10646296 6.6130918e-40
0.96115673 0.013481327 0.11146296 1.1194105e-39
0.96115673 0.013481327 0.11396296 1.5800215e-39
0.96115673 0.015981328 0.11146296 1.3952743e-39
0.96365672 0.013481327 0.11146296 1.6722213e-39
0.96365672 0.013481327 0.11396296 7.5350201e-40
0.96365672 0.015981328 0.11146296 1.2112432e-39
0.96365672 0.015981328 0.11396296 7.5385513e-40
0.96615678 0.010981328 0.10896296 7.5350201e-40
0.96865678 0.010981328 0.10646296 1.0272148e-39
0.96865678 0.010981328 0.10896296 1.3952743e-39
0.96615678 0.010981328 0.11396296 1.2112432e-39
0.96865678 0.010981328 0.11146296 1.4874699e-39
0.96865678 0.010981328 0.11396296 1.487823e-39
0.96615678 0.013481327 0.10896296 6.6130638e-40
0.96865678 0.013481327 0.10646296 1.0272148e-39
0.96865678 0.013481327 0.10896296 6.6130638e-40
0.96865678 0.015981328 0.10646296 1.0275708e-39
0.96615678 0.013481327 0.11396296 1.4874699e-39
0.96865678 0.013481327 0.11146296 1.4874699e-39
0.96865678 0.013481327 0.11396296 1.2123151e-39
0.95115674 0.015981328 0.11646296 1.3045108e-39
0.95365673 0.013481327 0.11646296 1.0275652e-39
0.95365673 0.015981328 0.11646296 1.4878258e-39
0.95365673 0.015981328 0.11896296 1.0293686e-39
0.95365673 0.015981328 0.12146296 1.6722185e-39
0.95615673 0.013481327 0.11646296 1.3952743e-39
0.95615673 0.015981328 0.11646296 1.4878258e-39
0.95615673 0.015981328 0.11896296 1.5800215e-39
0.95865673 0.013481327 0.11646296 1.3956302e-39
0.95865673 0.015981328 0.11646296 8.4605076e-40
0.95615673 0.015981328 0.12396296 1.8569629e-39
0.95865673 0.013481327 0.12146296 1.5803746e-39
0.95865673 0.013481327 0.12396296 1.4874699e-39
0.95865673 0.015981328 0.12146296 1.5800215e-39
0.95865673 0.015981328 0.12396296 2.498382e-39
0.95865673 0.015981328 0.12646297 4.7907872e-40
0.95865673 0.015981328 0.12896296 4.2576646e-39
0.95115674 0.018481327 0.11646296 1.0293686e-39
0.95365673 0.018481327 0.11896296 1.4878202e-39
0.95115674 0.018481327 0.12146296 1.5803746e-39
0.95115674 0.018481327 0.12396296 1.7644141e-39
0.95115674 0.020981329 0.12146296 1.5796655e-39
0.95115674 0.020981329 0.12396296 1.670422e-39
0.95115674 0.023481328 0.12146296 1.5796655e-39
0.95115674 0.023481328 0.12396296 1.2094439e-39
0.95115674 0.018481327 0.12646297 1.489272e-39
0.95115674 0.018481327 0.12896296 2.0442618e-39
0.95115674 0.020981329 0.12646297 4.4341245e-39
0.95115674 0.020981329 0.12896296 5.6319643e-39
0.95365673 0.018481327 0.12646297 1.3048793e-39
0.95365673 0.018481327 0.12896296 3.8761317e-40
0.95365673 0.020981329 0.12646297 4.2497291e-39
0.95365673 0.020981329 0.12896296 6.3670084e-39
0.95115674 0.018481327 0.13146296 7.5698423e-39
0.95115674 0.020981329 0.13146296 5.7266766e-39
0.95115674 0.023481328 0.12646297 7.4744223e-39
0.95115674 0.023481328 0.12896296 7.7517337e-39
0.95365673 0.023481328 0.12896296 8.210921e-39
0.95115674 0.023481328 0.13146296 4.8043616e-39
0.95115674 0.025981328 0.13396296 2.4076339e-39
0.95365673 0.023481328 0.13146296 2.9654558e-39
0.95615673 0.018481327 0.12896296 4.8111719e-39
0.95615673 0.020981329 0.12896296 7.2886045e-39
0.95865673 0.018481327 0.12896296 7.3843805e-39
0.95615673 0.018481327 0.13146296 6.3752648e-39
0.95615673 0.020981329 0.13146296 5.4547378e-39
0.95865673 0.018481327 0.13396296 1.0322399e-39
0.95865673 0.020981329 0.13396296 2.4965856e-39
0.95615673 0.023481328 0.12896296 5.4450521e-39
0.95615673 0.023481328 0.13146296 6.6418044e-40
0.95615673 0.025981328 0.13146296 4.5226656e-39
0.95865673 0.023481328 0.13396296 4.2483039e-39
0.95865673 0.025981328 0.13396296 8.6638753e-39
0.96365672 0.010981328 0.11896296 1.4878258e-39
0.96115673 0.010981328 0.12146296 1.2137585e-39
0.96365672 0.010981328 0.12396296 1.7644141e-39
0.96115673 0.013481327 0.11646296 1.4878258e-39
0.96115673 0.013481327 0.11896296 1.4878258e-39
0.96365672 0.013481327 0.11896296 1.4878258e-39
0.96115673 0.013481327 0.12146296 1.5800215e-39
0.96115673 0.013481327 0.12396296 1.5800215e-39
0.96115673 0.015981328 0.12396296 1.0290155e-39
0.96365672 0.013481327 0.12396296 1.2123151e-39
0.96615678 0.010981328 0.11646296 1.4878258e-39
0.96615678 0.010981328 0.11896296 1.4878258e-39
0.96865678 0.0084813274 0.11896296 1.0293658e-39
0.96865678 0.010981328 0.11896296 1.5800187e-39
0.96615678 0.0084813274 0.12146296 1.6725716e-39
0.96615678 0.0084813274 0.12396296 2.040278e-39
0.96615678 0.010981328 0.12146296 1.4874699e-39
0.96615678 0.010981328 0.12396296 1.8548105e-39
0.96865678 0.0084813274 0.12146296 1.1215643e-39
0.96865678 0.0084813274 0.12396296 1.5818207e-39
0.96865678 0.010981328 0.12146296 1.6722157e-39
0.96865678 0.010981328 0.12396296 2.0395591e-39
0.96615678 0.013481327 0.11646296 1.3970595e-39
0.96615678 0.013481327 0.12146296 1.2141144e-39
0.96365672 0.010981328 0.12646297 1.5807389e-39
0.96115673 0.013481327 0.12646297 1.1201195e-39
0.96115673 0.013481327 0.12896296 2.0140022e-40
0.96115673 0.015981328 0.12646297 2.0489282e-39
0.96115673 0.015981328 0.12896296 4.8976558e-39
0.96365672 0.013481327 0.12646297 1.3016381e-39
0.96365672 0.013481327 0.12896296 5.178874e-39
0.96365672 0.015981328 0.12896296 6.3705957e-39
0.96115673 0.015981328 0.13146296 5.5476551e-39
0.96365672 0.013481327 0.13146296 7.9407562e-39
0.96365672 0.015981328 0.13146296 5.7284212e-39
0.96615678 0.010981328 0.12646297 4.7834724e-40
0.96865678 0.0084813274 0.12646297 2.1328267e-39
0.96865678 0.010981328 0.12646297 2.4072654e-39
0.96865678 0.010981328 0.12896296 4.7089318e-39
0.96615678 0.013481327 0.12646297 1.8455101e-41
0.96615678 0.013481327 0.12896296 6.0025348e-39
0.96615678 0.015981328 0.12896296 5.2674599e-39
0.96865678 0.013481327 0.12896296 7.4744475e-39
0.96615678 0.015981328 0.13146296 1.4874699e-39
0.96615678 0.015981328 0.13396296 2.010527e-40
0.96865678 0.013481327 0.13146296 6.2748099e-39
0.96865678 0.013481327 0.13396296 9.3861914e-40
0.96865678 0.015981328 0.13146296 1.1215671e-39
0.96865678 0.015981328 0.13396296 8.4391518e-40
0.96115673 0.018481327 0.13146296 2.8757938e-39
0.96115673 0.020981329 0.13146296 3.6936854e-39
0.96365672 0.018481327 0.13396296 1.9462648e-39
0.96365672 0.020981329 0.13396296 5.8062143e-39
0.96615678 0.018481327 0.13146296 1.6714702e-39
0.96615678 0.020981329 0.13146296 3.7923284e-39
0.96865678 0.018481327 0.13396296 3.6875127e-39
0.96865678 0.020981329 0.13396296 6.8221641e-39
0.95115674 0.028481327 0.13396296 6.9114899e-39
0.95115674 0.030981328 0.13396296 1.1152492e-38
0.97115678 0.0084813274 0.098962963 6.5950991e-40
0.97115678 0.010981328 0.098962963 6.5950991e-40
0.97365677 0.0084813274 0.096462958 7.5098387e-40
0.97365677 0.0084813274 0.098962963 1.9998071e-40
0.97365677 0.010981328 0.096462958 1.0275708e-39
0.97115678 0.0084813274 0.10146296 6.5950991e-40
0.97115678 0.0084813274 0.10396296 9.350164e-40
0.97115678 0.010981328 0.10146296 4.7656199e-40
0.97115678 0.010981328 0.10396296 2.010499e-40
0.97365677 0.0084813274 0.10396296 2.9324693e-40
0.97365677 0.010981328 0.10396296 1.0275708e-39
0.97615677 0.0084813274 0.096462958 7.5098948e-40
0.97865677 0.0084813274 0.10396296 4.7691792e-40
0.97115678 0.0084813274 0.10646296 4.7656199e-40
0.97115678 0.010981328 0.10646296 3.8436496e-40
0.97365677 0.0084813274 0.10896296 8.4462144e-40
0.97365677 0.010981328 0.10896296 6.6130638e-40
0.97115678 0.0084813274 0.11396296 1.0293686e-39
0.97365677 0.0084813274 0.11146296 6.6130638e-40
0.97365677 0.010981328 0.11146296 6.6130638e-40
0.97615677 0.0084813274 0.10646296 1.0268519e-39
0.97615677 0.0084813274 0.10896296 5.6911075e-40
0.97615677 0.010981328 0.10646296 1.3952743e-39
0.97615677 0.0084813274 0.11146296 1.0293686e-39
0.97615677 0.0084813274 0.11396296 1.0293686e-39
0.97615677 0.010981328 0.11146296 1.0290127e-39
0.97115678 0.0084813274 0.11896296 1.5800215e-39
0.97115678 0.010981328 0.11896296 1.3045108e-39
0.97365677 0.0084813274 0.11646296 1.0293686e-39
0.97365677 0.0084813274 0.11896296 1.8569629e-39
0.97365677 0.010981328 0.11896296 1.7644141e-39
0.97115678 0.0084813274 0.12396296 1.6722213e-39
0.97115678 0.010981328 0.12396296 8.4677243e-40
0.97365677 0.0084813274 0.12146296 1.9480823e-39
0.97365677 0.0084813274 0.12396296 1.8566126e-39
0.97615677 0.0084813274 0.11646296 1.487823e-39
0.97615677 0.0084813274 0.11896296 1.6725716e-39
0.97615677 0.0084813274 0.12146296 1.7644169e-39
0.97615677 0.0084813274 0.12396296 1.3038073e-39
0.97865677 0.0084813274 0.12396296 1.7622645e-39
0.97115678 0.0084813274 0.12646297 1.0268617e-39
0.97115678 0.010981328 0.12646297 2.6827761e-39
0.97365677 0.0084813274 0.12646297 2.1342757e-39
0.97365677 0.0084813274 0.12896296 7.2032178e-39
0.97365677 0.010981328 0.12646297 4.8007743e-39
0.97365677 0.010981328 0.12896296 7.6584689e-39
0.97115678 0.010981328 0.13146296 7.6581031e-39
0.97365677 0.0084813274 0.13146296 7.5687717e-39
0.97365677 0.010981328 0.13146296 7.1092173e-39
0.97115678 0.013481327 0.13146296 4.620294e-39
0.97115678 0.015981328 0.13146296 1.3970764e-39
0.97365677 0.013481327 0.13146296 3.6083127e-39
0.97365677 0.013481327 0.13396296 7.9173363e-43
0.97365677 0.015981328 0.13146296 7.5350761e-40
0.97365677 0.015981328 0.13396296 8.5811062e-39
