# .PCD v0.7 - Point Cloud Data file format
VERSION 0.7
FIELDS x y z rgb
SIZE 4 4 4 4
TYPE F F F F
COUNT 1 1 1 1
WIDTH 966
HEIGHT 1
VIEWPOINT 0 0 0 1 0 0 0
POINTS 966
DATA ascii
0.83958286 -0.038491283 0.08913295 4.2525975e-39
0.83958286 -0.038491283 0.091632947 2.7825093e-39
0.84208286 -0.040991284 0.091632947 4.7161162e-39
0.84208286 -0.038491283 0.091632947 4.4395279e-39
0.84208286 -0.040991284 0.094132952 5.3611185e-39
0.84208286 -0.038491283 0.094132952 6.3752704e-39
0.83708286 -0.035991285 0.081632949 3.2373568e-39
0.83708286 -0.033491284 0.081632949 3.5128493e-39
0.83958286 -0.035991285 0.079132952 3.5110472e-39
0.83958286 -0.033491284 0.079132952 3.6050449e-39
0.84208286 -0.035991285 0.081632949 4.5284487e-39
0.84208286 -0.033491284 0.081632949 4.4358944e-39
0.83958286 -0.035991285 0.084132947 4.4376922e-39
0.83958286 -0.033491284 0.084132947 4.6206416e-39
0.84208286 -0.033491284 0.084132947 4.2529478e-39
0.84208286 -0.033491284 0.086632952 4.3451491e-39
0.84208286 -0.030991284 0.081632949 4.435544e-39
0.84208286 -0.028491285 0.081632949 3.697979e-39
0.84208286 -0.030991284 0.084132947 4.2529478e-39
0.84208286 -0.030991284 0.086632952 4.3451491e-39
0.84208286 -0.028491285 0.084132947 4.2529478e-39
0.83708286 -0.035991285 0.08913295 4.3447932e-39
0.83958286 -0.035991285 0.08913295 4.2525975e-39
0.83958286 -0.035991285 0.091632947 2.9668992e-39
0.84208286 -0.035991285 0.091632947 5.5426357e-39
0.84208286 -0.033491284 0.08913295 3.9778085e-39
0.84208286 -0.035991285 0.094132952 5.548751e-39
0.84208286 -0.030991284 0.08913295 4.3447932e-39
0.84458286 -0.038491283 0.091632947 6.2834503e-39
0.84458286 -0.040991284 0.09663295 5.6373775e-39
0.84458286 -0.038491283 0.094132952 8.4050232e-39
0.84458286 -0.038491283 0.09663295 7.852218e-39
0.84708285 -0.038491283 0.094132952 7.9419095e-39
0.84708285 -0.038491283 0.09663295 6.1945113e-39
0.84958285 -0.038491283 0.094132952 6.1945113e-39
0.84458286 -0.030991284 0.081632949 4.3436847e-39
0.84458286 -0.028491285 0.081632949 4.2514891e-39
0.84708285 -0.030991284 0.079132952 4.3433484e-39
0.84708285 -0.028491285 0.079132952 3.5139465e-39
0.84458286 -0.028491285 0.084132947 4.3451491e-39
0.84458286 -0.028491285 0.086632952 4.2525975e-39
0.84708285 -0.028491285 0.086632952 4.3451463e-39
0.84458286 -0.035991285 0.091632947 6.2834503e-39
0.84458286 -0.033491284 0.091632947 3.7033894e-39
0.84708285 -0.033491284 0.091632947 2.5099035e-39
0.84458286 -0.035991285 0.094132952 8.4972189e-39
0.84458286 -0.035991285 0.09663295 8.0376981e-39
0.84458286 -0.033491284 0.094132952 7.6692532e-39
0.84708285 -0.035991285 0.094132952 8.312843e-39
0.84708285 -0.035991285 0.09663295 6.3778292e-39
0.84708285 -0.033491284 0.094132952 8.0373323e-39
0.84708285 -0.033491284 0.09663295 7.1139439e-39
0.84458286 -0.030991284 0.091632947 3.792341e-39
0.84458286 -0.028491285 0.08913295 3.8845409e-39
0.84708285 -0.030991284 0.08913295 3.8845409e-39
0.84708285 -0.030991284 0.091632947 3.4271557e-39
0.84708285 -0.028491285 0.08913295 3.5161143e-39
0.84708285 -0.028491285 0.091632947 3.0583731e-39
0.84958285 -0.035991285 0.094132952 6.1945113e-39
0.84958285 -0.033491284 0.094132952 7.8525809e-39
0.84958285 -0.033491284 0.09663295 6.3788984e-39
0.85208285 -0.035991285 0.09663295 5.2743557e-39
0.84958285 -0.028491285 0.08913295 2.5999187e-39
0.84958285 -0.028491285 0.091632947 7.4787411e-39
0.84958285 -0.030991284 0.094132952 7.9447667e-39
0.84958285 -0.030991284 0.09663295 6.7473068e-39
0.84958285 -0.028491285 0.094132952 8.0369624e-39
0.84958285 -0.028491285 0.09663295 7.2086436e-39
0.85208285 -0.028491285 0.094132952 7.8529368e-39
0.85208285 -0.028491285 0.09663295 7.6681995e-39
0.84708285 -0.025991283 0.076632947 3.4184984e-39
0.84708285 -0.020991284 0.076632947 3.4188544e-39
0.84708285 -0.018491283 0.076632947 3.3266587e-39
0.84958285 -0.025991283 0.076632947 3.4181509e-39
0.84958285 -0.023491284 0.076632947 3.4188544e-39
0.85208285 -0.025991283 0.074132949 3.6028995e-39
0.85208285 -0.023491284 0.074132949 3.3266587e-39
0.85208285 -0.023491284 0.076632947 2.9589748e-39
0.85208285 -0.020991284 0.074132949 3.3263028e-39
0.85208285 -0.020991284 0.076632947 3.143006e-39
0.85208285 -0.018491283 0.074132949 3.0500732e-39
0.85208285 -0.018491283 0.076632947 3.5110528e-39
0.84708285 -0.015991284 0.076632947 2.9582335e-39
0.84958285 -0.015991284 0.076632947 3.7836782e-39
0.85208285 -0.015991284 0.074132949 2.6827215e-39
0.85208285 -0.015991284 0.076632947 2.9571742e-39
0.84458286 -0.025991283 0.079132952 3.5110528e-39
0.84458286 -0.025991283 0.081632949 4.1600333e-39
0.84458286 -0.023491284 0.081632949 4.3437015e-39
0.84708285 -0.025991283 0.079132952 3.9749218e-39
0.84708285 -0.025991283 0.081632949 4.2529478e-39
0.84708285 -0.023491284 0.079132952 3.2352016e-39
0.84708285 -0.023491284 0.081632949 3.6093791e-39
0.84458286 -0.025991283 0.084132947 4.7124841e-39
0.84458286 -0.025991283 0.086632952 4.2529535e-39
0.84458286 -0.023491284 0.084132947 4.5284487e-39
0.84708285 -0.025991283 0.086632952 4.2529506e-39
0.84708285 -0.023491284 0.086632952 4.0692825e-39
0.84458286 -0.020991284 0.079132952 3.4188544e-39
0.84458286 -0.018491283 0.079132952 3.3266587e-39
0.84708285 -0.020991284 0.079132952 2.5923503e-39
0.84708285 -0.020991284 0.081632949 3.4249878e-39
0.84708285 -0.018491283 0.079132952 3.1451429e-39
0.84708285 -0.018491283 0.081632949 3.5150171e-39
0.84458286 -0.020991284 0.084132947 4.5284487e-39
0.84458286 -0.018491283 0.084132947 3.70013e-39
0.84708285 -0.020991284 0.086632952 3.8848912e-39
0.84708285 -0.018491283 0.086632952 3.8852443e-39
0.84958285 -0.025991283 0.079132952 2.8689442e-39
0.84958285 -0.023491284 0.079132952 2.5923503e-39
0.84958285 -0.020991284 0.079132952 3.3273986e-39
0.84958285 -0.018491283 0.079132952 2.7778038e-39
0.84958285 -0.018491283 0.084132947 4.5273767e-39
0.84458286 -0.025991283 0.08913295 4.5277453e-39
0.84458286 -0.023491284 0.08913295 4.2529535e-39
0.84708285 -0.025991283 0.08913295 4.3429953e-39
0.84708285 -0.025991283 0.091632947 2.9651055e-39
0.84708285 -0.023491284 0.08913295 4.3429953e-39
0.84708285 -0.023491284 0.091632947 3.3313643e-39
0.84458286 -0.020991284 0.08913295 4.2529535e-39
0.84708285 -0.020991284 0.08913295 4.3429953e-39
0.84708285 -0.020991284 0.091632947 3.4239187e-39
0.84708285 -0.018491283 0.08913295 4.2529535e-39
0.84958285 -0.025991283 0.091632947 6.3727523e-39
0.84958285 -0.023491284 0.091632947 5.5404651e-39
0.84958285 -0.025991283 0.094132952 7.9433136e-39
0.84958285 -0.025991283 0.09663295 7.9444262e-39
0.84958285 -0.023491284 0.094132952 6.2845195e-39
0.84958285 -0.023491284 0.09663295 7.9440605e-39
0.85208285 -0.025991283 0.094132952 7.6689001e-39
0.85208285 -0.025991283 0.09663295 7.852218e-39
0.85208285 -0.023491284 0.094132952 6.9338518e-39
0.85208285 -0.023491284 0.09663295 7.9437074e-39
0.84958285 -0.020991284 0.08913295 4.4351909e-39
0.84958285 -0.020991284 0.091632947 4.9872913e-39
0.84958285 -0.018491283 0.08913295 4.3429953e-39
0.84958285 -0.018491283 0.091632947 3.9749218e-39
0.85208285 -0.018491283 0.091632947 4.2551185e-39
0.84958285 -0.020991284 0.094132952 5.1781734e-39
0.84958285 -0.018491283 0.094132952 4.2554548e-39
0.85208285 -0.020991284 0.094132952 7.3930321e-39
0.85208285 -0.020991284 0.09663295 8.2202886e-39
0.85208285 -0.018491283 0.094132952 6.5603777e-39
0.85208285 -0.018491283 0.09663295 7.7600167e-39
0.84458286 -0.015991284 0.079132952 2.7734822e-39
0.84708285 -0.015991284 0.079132952 3.3266587e-39
0.84708285 -0.015991284 0.081632949 3.6086602e-39
0.84708285 -0.015991284 0.086632952 4.7121365e-39
0.84958285 -0.015991284 0.079132952 3.0493698e-39
0.84958285 -0.015991284 0.081632949 3.5139437e-39
0.84958285 -0.013491284 0.081632949 2.5923503e-39
0.85208285 -0.015991284 0.079132952 2.958972e-39
0.85208285 -0.015991284 0.081632949 4.7124841e-39
0.85208285 -0.013491284 0.079132952 2.9589748e-39
0.85208285 -0.013491284 0.081632949 4.1625557e-39
0.84958285 -0.015991284 0.084132947 4.1614809e-39
0.84958285 -0.015991284 0.086632952 5.1731147e-39
0.84958285 -0.013491284 0.084132947 3.9781616e-39
0.84958285 -0.013491284 0.086632952 5.1738181e-39
0.85208285 -0.013491284 0.084132947 5.4486198e-39
0.85208285 -0.013491284 0.086632952 2.2250195e-39
0.85208285 -0.010991284 0.079132952 2.6849047e-39
0.85208285 -0.010991284 0.081632949 3.3327922e-39
0.84958285 -0.010991284 0.086632952 2.7803471e-39
0.85208285 -0.010991284 0.084132947 4.71284e-39
0.85208285 -0.010991284 0.086632952 2.686348e-39
0.84708285 -0.015991284 0.08913295 3.517929e-39
0.84958285 -0.015991284 0.08913295 3.7005378e-39
0.84958285 -0.015991284 0.091632947 4.4348252e-39
0.85208285 -0.015991284 0.08913295 1.8566252e-39
0.85208285 -0.015991284 0.091632947 3.9778057e-39
0.85208285 -0.013491284 0.08913295 1.8565887e-39
0.85208285 -0.013491284 0.091632947 3.423913e-39
0.84958285 -0.015991284 0.094132952 3.0580228e-39
0.85208285 -0.015991284 0.094132952 5.2692732e-39
0.85208285 -0.015991284 0.09663295 6.1955651e-39
0.85208285 -0.010991284 0.08913295 2.2253727e-39
0.85208285 -0.010991284 0.091632947 3.8848912e-39
0.85458285 -0.035991285 0.066632949 3.8754941e-39
0.85458285 -0.033491284 0.066632949 3.7836782e-39
0.85708284 -0.033491284 0.066632949 3.7836726e-39
0.85708284 -0.030991284 0.066632949 3.6911239e-39
0.86208284 -0.030991284 0.066632949 3.51105e-39
0.86208284 -0.028491285 0.066632949 3.5110528e-39
0.85458285 -0.030991284 0.069132954 3.51105e-39
0.85458285 -0.030991284 0.071632951 3.5128493e-39
0.85708284 -0.030991284 0.069132954 3.7879942e-39
0.85708284 -0.028491285 0.069132954 3.1419242e-39
0.85458285 -0.030991284 0.074132949 4.248971e-39
0.85458285 -0.028491285 0.074132949 3.6032498e-39
0.85958284 -0.030991284 0.069132954 3.5110528e-39
0.85958284 -0.028491285 0.069132954 3.6957986e-39
0.85458285 -0.038491283 0.094132952 5.0896057e-39
0.85708284 -0.035991285 0.094132952 5.3647633e-39
0.85708284 -0.033491284 0.094132952 5.9182748e-39
0.85458285 -0.028491285 0.094132952 7.667468e-39
0.86208284 -0.023491284 0.066632949 3.7833251e-39
0.86208284 -0.020991284 0.066632949 3.6911295e-39
0.86208284 -0.018491283 0.066632949 3.6896805e-39
0.85458285 -0.025991283 0.071632951 3.3263056e-39
0.85708284 -0.025991283 0.069132954 3.3266587e-39
0.85708284 -0.023491284 0.069132954 3.1426248e-39
0.85458285 -0.023491284 0.074132949 3.0493698e-39
0.85708284 -0.020991284 0.071632951 3.050076e-39
0.85708284 -0.018491283 0.071632951 2.7734822e-39
0.85458285 -0.020991284 0.074132949 3.4188544e-39
0.85458285 -0.018491283 0.074132949 2.5919692e-39
0.85958284 -0.025991283 0.069132954 3.0500732e-39
0.85958284 -0.023491284 0.069132954 3.8758738e-39
0.85958284 -0.020991284 0.069132954 3.7836782e-39
0.85958284 -0.018491283 0.069132954 3.6911239e-39
0.86208284 -0.020991284 0.069132954 3.6911239e-39
0.85708284 -0.015991284 0.071632951 3.5989268e-39
0.85458285 -0.015991284 0.074132949 2.6809334e-39
0.85458285 -0.013491284 0.074132949 3.0500732e-39
0.85458285 -0.013491284 0.076632947 3.0500788e-39
0.85708284 -0.013491284 0.076632947 3.0500788e-39
0.85708284 -0.010991284 0.076632947 3.3263056e-39
0.85708284 -0.0084912842 0.076632947 3.235905e-39
0.85958284 -0.015991284 0.069132954 3.7833223e-39
0.86208284 -0.013491284 0.069132954 3.5989268e-39
0.86208284 -0.013491284 0.071632951 3.050076e-39
0.86208284 -0.010991284 0.074132949 3.3263056e-39
0.86208284 -0.0084912842 0.074132949 3.6911295e-39
0.86458284 -0.025991283 0.066632949 3.4185012e-39
0.86458284 -0.020991284 0.066632949 3.4163208e-39
0.86458284 -0.018491283 0.066632949 3.0471796e-39
0.86458284 -0.015991284 0.066632949 3.5974793e-39
0.86458284 -0.013491284 0.066632949 3.8758472e-39
0.86708283 -0.015991284 0.066632949 3.4145328e-39
0.86708283 -0.013491284 0.066632949 2.8656834e-39
0.86458284 -0.010991284 0.066632949 3.5992617e-39
0.86458284 -0.0084912842 0.066632949 3.9648227e-39
0.86708283 -0.010991284 0.066632949 2.1306183e-39
0.86708283 -0.0084912842 0.066632949 2.6784026e-39
0.86458284 -0.013491284 0.069132954 2.9582335e-39
0.86458284 -0.010991284 0.069132954 2.6809334e-39
0.86458284 -0.0084912842 0.069132954 3.1390249e-39
0.86458284 -0.0084912842 0.071632951 3.5989324e-39
0.85708284 -0.023491284 0.09663295 5.8275239e-39
0.85458285 -0.020991284 0.094132952 7.3905084e-39
0.85458285 -0.018491283 0.094132952 6.8365961e-39
0.85708284 -0.020991284 0.09663295 5.5523845e-39
0.85708284 -0.018491283 0.09663295 7.3019127e-39
0.85458285 -0.013491284 0.086632952 1.7640344e-39
0.85458285 -0.010991284 0.079132952 3.3281021e-39
0.85458285 -0.010991284 0.081632949 4.2507856e-39
0.85458285 -0.0084912842 0.081632949 4.4351783e-39
0.85708284 -0.0084912842 0.081632949 4.0678363e-39
0.85458285 -0.010991284 0.084132947 3.0562095e-39
0.85458285 -0.010991284 0.086632952 2.9615112e-39
0.85458285 -0.0084912842 0.084132947 3.1484052e-39
0.85708284 -0.010991284 0.086632952 2.6870697e-39
0.85708284 -0.0084912842 0.084132947 3.3310014e-39
0.85708284 -0.0084912842 0.086632952 2.7781933e-39
0.85958284 -0.0084912842 0.084132947 3.1459024e-39
0.85958284 -0.0084912842 0.086632952 3.5135962e-39
0.85458285 -0.013491284 0.08913295 3.6997769e-39
0.85458285 -0.015991284 0.094132952 5.3614716e-39
0.85458285 -0.013491284 0.094132952 3.3324363e-39
0.85708284 -0.015991284 0.09663295 7.6692532e-39
0.85708284 -0.013491284 0.09663295 7.2104233e-39
0.85458285 -0.010991284 0.08913295 3.0547788e-39
0.85708284 -0.010991284 0.08913295 4.1600333e-39
0.85708284 -0.010991284 0.091632947 4.2504325e-39
0.85458285 -0.010991284 0.094132952 3.1484052e-39
0.85708284 -0.010991284 0.094132952 2.1382147e-39
0.85708284 -0.010991284 0.09663295 7.0256719e-39
0.85958284 -0.013491284 0.09663295 8.0362589e-39
0.85958284 -0.0084912842 0.08913295 4.1600333e-39
0.85958284 -0.0084912842 0.091632947 2.0467421e-39
0.86208284 -0.0084912842 0.08913295 3.884894e-39
0.86208284 -0.0084912842 0.091632947 6.2837979e-39
0.85958284 -0.010991284 0.094132952 7.4823411e-39
0.85958284 -0.010991284 0.09663295 8.7730953e-39
0.86208284 -0.0084912842 0.094132952 6.1916022e-39
0.86458284 -0.0084912842 0.094132952 8.4035897e-39
0.83708286 -0.045991283 0.10413295 2.9698097e-39
0.83958286 -0.045991283 0.099132948 4.1651103e-39
0.83958286 -0.045991283 0.10163295 3.9803673e-39
0.83958286 -0.043491285 0.099132948 3.8917688e-39
0.83958286 -0.043491285 0.10163295 2.4188065e-39
0.84208286 -0.043491285 0.099132948 3.5222632e-39
0.83958286 -0.045991283 0.10413295 3.0620025e-39
0.83958286 -0.045991283 0.10663295 3.9828672e-39
0.84208286 -0.045991283 0.10413295 2.7854282e-39
0.84208286 -0.043491285 0.10413295 4.0743622e-39
0.84458286 -0.043491285 0.099132948 5.088147e-39
0.84458286 -0.043491285 0.10163295 3.5204625e-39
0.84708285 -0.043491285 0.10163295 4.4431433e-39
0.84458286 -0.045991283 0.10663295 5.087791e-39
0.84458286 -0.043491285 0.10413295 4.4431433e-39
0.84458286 -0.043491285 0.10663295 4.9970415e-39
0.84708285 -0.045991283 0.10663295 7.112132e-39
0.84708285 -0.043491285 0.10413295 4.9048473e-39
0.84458286 -0.040991284 0.099132948 5.0881624e-39
0.84458286 -0.038491283 0.099132948 5.9186433e-39
0.84708285 -0.040991284 0.099132948 5.3654569e-39
0.84958285 -0.045991283 0.10413295 5.9161098e-39
0.84958285 -0.045991283 0.10663295 6.5614764e-39
0.84958285 -0.043491285 0.10413295 5.5505698e-39
0.84958285 -0.043491285 0.10663295 5.6424109e-39
0.85208285 -0.045991283 0.10413295 6.7451418e-39
0.85208285 -0.045991283 0.10663295 6.6533217e-39
0.85208285 -0.043491285 0.10413295 5.5505698e-39
0.85208285 -0.043491285 0.10663295 5.9175559e-39
0.84458286 -0.035991285 0.099132948 6.1945169e-39
0.84708285 -0.033491284 0.099132948 6.102666e-39
0.85458285 -0.043491285 0.10163295 5.9182748e-39
0.85708284 -0.043491285 0.10163295 5.549851e-39
0.85458285 -0.043491285 0.10413295 5.7338793e-39
0.85708284 -0.043491285 0.10413295 5.7338793e-39
0.85458285 -0.020991284 0.099132948 6.3792515e-39
0.85458285 -0.018491283 0.099132948 7.1164508e-39
0.85458285 -0.015991284 0.099132948 7.4845215e-39
0.85708284 -0.010991284 0.099132948 5.3669045e-39
0.85958284 -0.0059912838 0.076632947 3.3266587e-39
0.86208284 -0.0059912838 0.074132949 3.1422689e-39
0.86208284 -0.0059912838 0.076632947 4.1557159e-39
0.86208284 -0.0034912839 0.074132949 3.0500732e-39
0.86208284 -0.0034912839 0.076632947 3.3263028e-39
0.86708283 -0.0059912838 0.066632949 3.6900308e-39
0.86958283 -0.0059912838 0.066632949 3.7814824e-39
0.86958283 -0.0034912839 0.066632949 3.3205042e-39
0.87208283 -0.0034912839 0.066632949 3.1390249e-39
0.87208283 -0.00099128392 0.066632949 3.1390249e-39
0.86708283 -0.0059912838 0.071632951 2.9578776e-39
0.86708283 -0.0034912839 0.071632951 2.6812893e-39
0.86458284 -0.0034912839 0.074132949 3.7836782e-39
0.86458284 -0.0034912839 0.076632947 3.4188516e-39
0.86708283 -0.00099128392 0.071632951 2.6809334e-39
0.86708283 0.001508716 0.071632951 3.4145384e-39
0.86458284 -0.00099128392 0.074132949 3.7836782e-39
0.86458284 -0.00099128392 0.076632947 3.1426248e-39
0.86458284 0.001508716 0.074132949 3.3234161e-39
0.86458284 0.001508716 0.076632947 2.2246314e-39
0.86708283 0.001508716 0.074132949 3.0500732e-39
0.86958283 -0.0059912838 0.069132954 3.1390221e-39
0.86958283 -0.0034912839 0.069132954 2.8627953e-39
0.86958283 -0.00099128392 0.069132954 3.1393752e-39
0.86458284 0.004008716 0.076632947 2.9607475e-39
0.86458284 0.0065087159 0.076632947 3.0500732e-39
0.86708283 0.004008716 0.074132949 2.7752702e-39
0.86708283 0.004008716 0.076632947 3.4188544e-39
0.86708283 0.0065087159 0.074132949 2.6827158e-39
0.86708283 0.0065087159 0.076632947 2.8685518e-39
0.86708283 0.0090087159 0.074132949 3.4159677e-39
0.86708283 0.0090087159 0.076632947 3.3266559e-39
0.86708283 0.011508716 0.076632947 2.9578776e-39
0.86958283 0.004008716 0.071632951 3.2301485e-39
0.87208283 0.004008716 0.069132954 3.1379529e-39
0.86958283 0.0090087159 0.071632951 3.2319239e-39
0.86958283 0.0090087159 0.074132949 2.8656778e-39
0.86958283 0.011508716 0.074132949 2.7745654e-39
0.86958283 0.011508716 0.076632947 3.0500732e-39
0.87208283 0.011508716 0.074132949 3.4145384e-39
0.85708284 -0.0059912838 0.084132947 3.9749218e-39
0.85958284 -0.0059912838 0.079132952 4.2486192e-39
0.85958284 -0.0059912838 0.081632949 4.0671175e-39
0.85958284 -0.0034912839 0.081632949 4.5280928e-39
0.86208284 -0.0034912839 0.079132952 3.5139437e-39
0.85958284 -0.0059912838 0.084132947 3.5146639e-39
0.85958284 -0.0059912838 0.086632952 2.5963216e-39
0.85958284 -0.0034912839 0.086632952 1.8576818e-39
0.86208284 -0.0034912839 0.084132947 4.1600333e-39
0.85958284 -0.00099128392 0.081632949 4.435544e-39
0.86208284 -0.00099128392 0.079132952 1.9484186e-39
0.86208284 -0.00099128392 0.081632949 4.1596802e-39
0.86208284 0.001508716 0.081632949 3.8841681e-39
0.85958284 -0.00099128392 0.086632952 2.1346288e-39
0.85958284 0.001508716 0.086632952 2.5005358e-39
0.86208284 -0.00099128392 0.084132947 5.1724056e-39
0.86208284 0.001508716 0.084132947 4.8983201e-39
0.86208284 0.001508716 0.086632952 2.134626e-39
0.85958284 -0.0059912838 0.08913295 3.6994265e-39
0.85958284 -0.0059912838 0.091632947 3.1480548e-39
0.86208284 -0.0059912838 0.08913295 3.792697e-39
0.86208284 -0.0059912838 0.091632947 2.4130037e-39
0.86208284 -0.0034912839 0.08913295 3.7926914e-39
0.86208284 -0.0034912839 0.091632947 3.3313643e-39
0.86208284 -0.0059912838 0.094132952 6.0965129e-39
0.86208284 -0.00099128392 0.08913295 3.7926914e-39
0.86208284 -0.00099128392 0.091632947 3.5161143e-39
0.86208284 0.001508716 0.08913295 3.8841737e-39
0.86208284 0.001508716 0.091632947 4.0678363e-39
0.86208284 -0.00099128392 0.09663295 7.9429493e-39
0.86208284 0.004008716 0.081632949 4.0635175e-39
0.86208284 0.004008716 0.084132947 3.6068596e-39
0.86208284 0.004008716 0.086632952 3.1466059e-39
0.86208284 0.0065087159 0.084132947 4.8054056e-39
0.86208284 0.0065087159 0.086632952 3.6997797e-39
0.86208284 0.004008716 0.08913295 3.1458996e-39
0.86208284 0.004008716 0.091632947 3.8841737e-39
0.86458284 0.001508716 0.079132952 3.424985e-39
0.86458284 0.001508716 0.081632949 3.7919725e-39
0.86458284 0.001508716 0.086632952 3.3324391e-39
0.86458284 -0.0059912838 0.094132952 7.4826914e-39
0.86458284 -0.0034912839 0.094132952 5.6402011e-39
0.86708283 -0.0034912839 0.094132952 8.4968363e-39
0.86458284 0.001508716 0.08913295 4.0678391e-39
0.86458284 0.001508716 0.091632947 3.4246347e-39
0.86708283 0.001508716 0.091632947 2.7828652e-39
0.86458284 -0.00099128392 0.094132952 4.0728754e-39
0.86458284 -0.00099128392 0.09663295 7.8514935e-39
0.86458284 0.001508716 0.094132952 3.2438434e-39
0.86458284 0.001508716 0.09663295 7.0220874e-39
0.86458284 0.004008716 0.079132952 3.7905081e-39
0.86458284 0.004008716 0.081632949 4.0678181e-39
0.86458284 0.0065087159 0.079132952 3.5139213e-39
0.86458284 0.0065087159 0.081632949 4.0678181e-39
0.86708283 0.0065087159 0.081632949 3.6997615e-39
0.86458284 0.004008716 0.086632952 3.5135962e-39
0.86458284 0.0065087159 0.084132947 4.1600333e-39
0.86458284 0.0065087159 0.086632952 3.1444549e-39
0.86708283 0.0065087159 0.086632952 1.4939383e-39
0.86458284 0.0090087159 0.079132952 2.8656834e-39
0.86708283 0.0090087159 0.081632949 2.6852494e-39
0.86708283 0.011508716 0.081632949 4.1625557e-39
0.86458284 0.0090087159 0.084132947 5.1731147e-39
0.86458284 0.0090087159 0.086632952 1.1215671e-39
0.86708283 0.0090087159 0.086632952 1.1215643e-39
0.86708283 0.011508716 0.084132947 4.8979669e-39
0.86708283 0.011508716 0.086632952 2.1331798e-39
0.86958283 0.011508716 0.079132952 2.5930538e-39
0.86958283 0.011508716 0.081632949 4.1603991e-39
0.86958283 0.011508716 0.084132947 2.1335428e-39
0.86458284 0.004008716 0.08913295 4.1593159e-39
0.86458284 0.004008716 0.091632947 3.9749218e-39
0.86458284 0.0065087159 0.08913295 3.7901746e-39
0.86458284 0.0065087159 0.091632947 3.9749218e-39
0.86708283 0.004008716 0.091632947 2.136414e-39
0.86708283 0.0065087159 0.08913295 4.1600333e-39
0.86708283 0.0065087159 0.091632947 2.5977523e-39
0.86458284 0.004008716 0.094132952 6.2809014e-39
0.86458284 0.004008716 0.09663295 7.5741639e-39
0.86458284 0.0065087159 0.094132952 6.7418795e-39
0.86458284 0.0065087159 0.09663295 7.6663596e-39
0.86708283 0.0065087159 0.094132952 5.542986e-39
0.86458284 0.0090087159 0.08913295 2.1342757e-39
0.86458284 0.0090087159 0.091632947 4.0674832e-39
0.86708283 0.0090087159 0.08913295 3.9745687e-39
0.86708283 0.0090087159 0.091632947 3.3324391e-39
0.86708283 0.011508716 0.08913295 3.6997769e-39
0.86708283 0.011508716 0.091632947 3.5164646e-39
0.86458284 0.0090087159 0.09663295 4.8101293e-39
0.86708283 0.0090087159 0.094132952 4.1600516e-39
0.86708283 0.011508716 0.094132952 2.6064151e-39
0.86958283 0.0065087159 0.091632947 3.607584e-39
0.86958283 0.0065087159 0.09663295 8.0358806e-39
0.87208283 0.0065087159 0.094132952 6.9295232e-39
0.86958283 0.0090087159 0.091632947 3.5150297e-39
0.86958283 0.011508716 0.091632947 4.5259404e-39
0.86958283 0.0090087159 0.09663295 8.2213438e-39
0.86958283 0.011508716 0.09663295 6.1987923e-39
0.87208283 0.011508716 0.094132952 2.096889e-40
0.86958283 0.014008716 0.076632947 3.0500732e-39
0.87208283 0.014008716 0.074132949 3.3266587e-39
0.86708283 0.014008716 0.084132947 4.1604019e-39
0.86958283 0.014008716 0.079132952 2.9621964e-39
0.86958283 0.014008716 0.081632949 3.607584e-39
0.87208283 0.014008716 0.079132952 3.8830765e-39
0.87208283 0.014008716 0.081632949 4.2525975e-39
0.87208283 0.016508715 0.079132952 3.5150171e-39
0.87208283 0.016508715 0.081632949 3.7923284e-39
0.86958283 0.014008716 0.084132947 2.5016022e-39
0.86958283 0.014008716 0.086632952 2.0416975e-39
0.87208283 0.014008716 0.084132947 2.9622146e-39
0.87208283 0.016508715 0.084132947 3.5150297e-39
0.87208283 0.019008717 0.081632949 3.9752876e-39
0.87208283 0.019008717 0.084132947 3.6068596e-39
0.87208283 0.021508716 0.084132947 4.7124897e-39
0.87208283 0.014008716 0.08913295 3.7919725e-39
0.87208283 0.014008716 0.091632947 3.6976259e-39
0.87208283 0.016508715 0.08913295 3.3306454e-39
0.87208283 0.016508715 0.091632947 3.4246319e-39
0.86708283 0.001508716 0.099132948 4.3541889e-39
0.86708283 0.004008716 0.099132948 6.5628959e-39
0.86708283 0.0065087159 0.099132948 7.4852123e-39
0.86708283 0.0090087159 0.099132948 8.3128262e-39
0.86708283 0.011508716 0.099132948 6.7519661e-39
0.86958283 0.011508716 0.099132948 8.0373253e-39
0.90708286 -0.090991281 0.066632949 7.479432e-39
0.90708286 -0.088491283 0.066632949 7.3872349e-39
0.90958285 -0.093491286 0.066632949 7.8464194e-39
0.90708286 -0.093491286 0.069132954 7.6613191e-39
0.90458286 -0.090991281 0.069132954 7.4765733e-39
0.90458286 -0.090991281 0.071632951 7.7517211e-39
0.90458286 -0.088491283 0.069132954 5.5429832e-39
0.90458286 -0.088491283 0.071632951 6.5549743e-39
0.90708286 -0.090991281 0.069132954 6.9262764e-39
0.90708286 -0.088491283 0.069132954 6.0025348e-39
0.90458286 -0.088491283 0.076632947 7.6584268e-39
0.90708286 -0.090991281 0.074132949 7.1059831e-39
0.90708286 -0.090991281 0.076632947 7.5673088e-39
0.90708286 -0.088491283 0.074132949 7.2903646e-39
0.90708286 -0.088491283 0.076632947 7.6584212e-39
0.90958285 -0.093491286 0.069132954 7.845339e-39
0.90958285 -0.093491286 0.071632951 6.9219576e-39
0.91208285 -0.093491286 0.069132954 7.1077712e-39
0.91208285 -0.093491286 0.071632951 7.2907205e-39
0.90958285 -0.093491286 0.074132949 6.9219394e-39
0.91208285 -0.093491286 0.074132949 7.4751089e-39
0.91208285 -0.093491286 0.076632947 7.6598547e-39
0.90958285 -0.090991281 0.071632951 7.1063334e-39
0.90958285 -0.090991281 0.074132949 7.1978032e-39
0.90958285 -0.090991281 0.076632947 7.8431726e-39
0.91208285 -0.090991281 0.074132949 7.750977e-39
0.90208286 -0.088491283 0.091632947 7.8435257e-39
0.90208286 -0.088491283 0.094132952 7.750977e-39
0.90208286 -0.088491283 0.09663295 7.8428195e-39
0.90458286 -0.088491283 0.081632949 7.6598603e-39
0.90708286 -0.088491283 0.079132952 7.750977e-39
0.90708286 -0.088491283 0.081632949 7.8428167e-39
0.90458286 -0.088491283 0.084132947 7.7520532e-39
0.90708286 -0.088491283 0.084132947 7.7524091e-39
0.90708286 -0.088491283 0.086632952 7.7506238e-39
0.90958285 -0.093491286 0.079132952 7.6598603e-39
0.91208285 -0.093491286 0.081632949 7.7520532e-39
0.90958285 -0.093491286 0.084132947 7.9350151e-39
0.91208285 -0.093491286 0.084132947 8.0279142e-39
0.91208285 -0.093491286 0.086632952 7.8435257e-39
0.90958285 -0.090991281 0.079132952 7.752056e-39
0.90958285 -0.090991281 0.081632949 7.7520532e-39
0.90958285 -0.088491283 0.081632949 7.6595044e-39
0.91208285 -0.090991281 0.081632949 7.9350151e-39
0.90958285 -0.090991281 0.084132947 7.9364402e-39
0.90958285 -0.088491283 0.084132947 7.6595044e-39
0.91208285 -0.090991281 0.084132947 7.8428195e-39
0.91208285 -0.090991281 0.086632952 7.8428195e-39
0.90458286 -0.088491283 0.08913295 7.9357214e-39
0.90458286 -0.088491283 0.091632947 7.7506238e-39
0.90708286 -0.090991281 0.091632947 7.8431726e-39
0.90708286 -0.088491283 0.08913295 7.7506238e-39
0.90708286 -0.088491283 0.091632947 7.5673116e-39
0.90708286 -0.090991281 0.094132952 7.935371e-39
0.90708286 -0.090991281 0.09663295 8.0275667e-39
0.90708286 -0.088491283 0.09663295 7.8435257e-39
0.91208285 -0.093491286 0.08913295 7.8431726e-39
0.91208285 -0.093491286 0.094132952 8.1201126e-39
0.91208285 -0.093491286 0.09663295 8.0279198e-39
0.90958285 -0.090991281 0.08913295 7.9357214e-39
0.90958285 -0.090991281 0.091632947 8.0279198e-39
0.90958285 -0.088491283 0.08913295 7.7506238e-39
0.91208285 -0.090991281 0.091632947 8.0279198e-39
0.90958285 -0.090991281 0.094132952 8.0272107e-39
0.90958285 -0.090991281 0.09663295 8.0272107e-39
0.91208285 -0.090991281 0.094132952 8.0279198e-39
0.91208285 -0.090991281 0.09663295 8.0279198e-39
0.88958281 -0.088491283 0.11663295 7.8431726e-39
0.88708282 -0.088491283 0.12663294 7.935371e-39
0.88958281 -0.093491286 0.12663294 8.1179616e-39
0.89208281 -0.093491286 0.12663294 7.8435257e-39
0.88958281 -0.088491283 0.11913295 7.750977e-39
0.89208281 -0.088491283 0.12163295 7.750977e-39
0.88958281 -0.090991281 0.12413295 8.2105104e-39
0.88958281 -0.090991281 0.12663294 8.2105076e-39
0.88958281 -0.088491283 0.12413295 7.8435257e-39
0.88958281 -0.088491283 0.12663294 8.118312e-39
0.89208281 -0.090991281 0.12663294 7.7509714e-39
0.89208281 -0.088491283 0.12413295 7.7509742e-39
0.89208281 -0.088491283 0.12663294 7.8428167e-39
0.88708282 -0.093491286 0.13413295 8.1186679e-39
0.88708282 -0.090991281 0.13413295 7.6598547e-39
0.88708282 -0.088491283 0.13413295 7.4754593e-39
0.88958281 -0.093491286 0.13163295 8.1183148e-39
0.89208281 -0.093491286 0.12913296 8.1179644e-39
0.88958281 -0.093491286 0.13413295 7.842074e-39
0.88958281 -0.093491286 0.13663295 7.7513273e-39
0.89208281 -0.093491286 0.13413295 8.025766e-39
0.88958281 -0.090991281 0.12913296 8.1183148e-39
0.88958281 -0.090991281 0.13163295 7.4743901e-39
0.88958281 -0.088491283 0.12913296 7.7509742e-39
0.88958281 -0.088491283 0.13163295 7.1077712e-39
0.89208281 -0.090991281 0.12913296 7.933213e-39
0.89208281 -0.088491283 0.12913296 7.750621e-39
0.88958281 -0.090991281 0.13413295 7.568015e-39
0.88958281 -0.088491283 0.13413295 7.2006674e-39
0.89208281 -0.090991281 0.13413295 7.6584212e-39
0.89208281 -0.088491283 0.13413295 6.9237372e-39
0.89708287 -0.088491283 0.10413295 7.750977e-39
0.89958286 -0.088491283 0.099132948 7.8428167e-39
0.89958286 -0.088491283 0.10163295 7.8431726e-39
0.90208286 -0.090991281 0.10163295 7.9353682e-39
0.90208286 -0.088491283 0.099132948 7.8428167e-39
0.90208286 -0.088491283 0.10163295 7.8428167e-39
0.89958286 -0.088491283 0.10413295 8.3931094e-39
0.89958286 -0.088491283 0.10663295 8.025766e-39
0.90208286 -0.090991281 0.10413295 8.1179616e-39
0.90208286 -0.090991281 0.10663295 7.8431726e-39
0.90208286 -0.088491283 0.10413295 7.750621e-39
0.90208286 -0.088491283 0.10663295 8.1179616e-39
0.89708287 -0.088491283 0.10913295 7.8435257e-39
0.89708287 -0.088491283 0.11163295 7.8428167e-39
0.89458281 -0.088491283 0.11663295 8.0257688e-39
0.89708287 -0.088491283 0.11413295 8.025766e-39
0.89708287 -0.088491283 0.11663295 8.1183148e-39
0.89958286 -0.088491283 0.10913295 7.750977e-39
0.89958286 -0.088491283 0.11163295 7.8428167e-39
0.90208286 -0.088491283 0.11163295 7.935371e-39
0.89958286 -0.088491283 0.11413295 7.8428195e-39
0.89958286 -0.088491283 0.11663295 7.8431726e-39
0.90208286 -0.088491283 0.11663295 8.1183148e-39
0.90458286 -0.090991281 0.099132948 7.8431726e-39
0.90458286 -0.088491283 0.099132948 7.8428167e-39
0.90708286 -0.090991281 0.099132948 7.935371e-39
0.90708286 -0.090991281 0.10163295 7.9353682e-39
0.90458286 -0.090991281 0.10413295 7.8428167e-39
0.90458286 -0.090991281 0.10663295 8.025766e-39
0.90708286 -0.090991281 0.10413295 8.1179616e-39
0.91208285 -0.095991284 0.10163295 8.1201154e-39
0.91208285 -0.093491286 0.099132948 8.4870931e-39
0.91208285 -0.093491286 0.10163295 8.4867371e-39
0.90958285 -0.090991281 0.099132948 7.9353682e-39
0.90958285 -0.090991281 0.10163295 8.0272135e-39
0.91208285 -0.090991281 0.099132948 8.0279198e-39
0.91208285 -0.090991281 0.10163295 8.302706e-39
0.90958285 -0.090991281 0.10663295 8.2105104e-39
0.91208285 -0.090991281 0.10413295 7.8428195e-39
0.91208285 -0.090991281 0.10663295 7.9357214e-39
0.90708286 -0.093491286 0.10913295 8.0275639e-39
0.90708286 -0.093491286 0.11163295 8.1201126e-39
0.90708286 -0.093491286 0.11413295 8.0275639e-39
0.90708286 -0.093491286 0.11663295 8.0279142e-39
0.90458286 -0.090991281 0.10913295 8.2101573e-39
0.90458286 -0.088491283 0.10913295 7.750977e-39
0.90708286 -0.090991281 0.10913295 8.1179644e-39
0.90708286 -0.090991281 0.11163295 7.8431726e-39
0.90458286 -0.088491283 0.11413295 8.3023529e-39
0.90458286 -0.088491283 0.11663295 8.3023557e-39
0.90708286 -0.090991281 0.11413295 8.3030619e-39
0.90708286 -0.090991281 0.11663295 8.2105104e-39
0.90958285 -0.093491286 0.11163295 8.3041465e-39
0.91208285 -0.093491286 0.10913295 8.302706e-39
0.91208285 -0.093491286 0.11163295 8.3030619e-39
0.90958285 -0.093491286 0.11413295 8.4867371e-39
0.90958285 -0.090991281 0.10913295 8.3023585e-39
0.90958285 -0.090991281 0.11163295 8.302706e-39
0.91208285 -0.090991281 0.10913295 8.2105104e-39
0.91208285 -0.090991281 0.11163295 8.2105104e-39
0.90958285 -0.090991281 0.11413295 8.1183148e-39
0.89708287 -0.093491286 0.12163295 8.2101573e-39
0.89458281 -0.093491286 0.12413295 8.2101573e-39
0.89458281 -0.093491286 0.12663294 8.1183148e-39
0.89708287 -0.093491286 0.12413295 8.2098069e-39
0.89458281 -0.090991281 0.12163295 8.302706e-39
0.89458281 -0.088491283 0.11913295 7.750977e-39
0.89458281 -0.088491283 0.12163295 8.3023529e-39
0.89708287 -0.090991281 0.12163295 8.2105104e-39
0.89708287 -0.088491283 0.11913295 7.7509742e-39
0.89708287 -0.088491283 0.12163295 7.8435257e-39
0.89458281 -0.090991281 0.12413295 8.1183148e-39
0.89458281 -0.090991281 0.12663294 8.1183148e-39
0.89458281 -0.088491283 0.12413295 7.8428167e-39
0.89708287 -0.090991281 0.12413295 8.2098069e-39
0.89958286 -0.093491286 0.11913295 8.027917e-39
0.89958286 -0.093491286 0.12413295 7.9357186e-39
0.89958286 -0.093491286 0.12663294 8.1183148e-39
0.89958286 -0.090991281 0.11913295 8.2101629e-39
0.89958286 -0.088491283 0.11913295 7.935371e-39
0.89458281 -0.093491286 0.12913296 7.8435229e-39
0.89458281 -0.093491286 0.13163295 7.4747404e-39
0.89708287 -0.093491286 0.12913296 8.0261191e-39
0.89708287 -0.093491286 0.13163295 7.750621e-39
0.89458281 -0.095991284 0.13413295 8.0257688e-39
0.89458281 -0.095991284 0.13663295 7.658424e-39
0.89458281 -0.093491286 0.13413295 7.4747432e-39
0.89708287 -0.093491286 0.13413295 7.6595198e-39
0.89458281 -0.090991281 0.12913296 8.0257688e-39
0.89458281 -0.090991281 0.13163295 7.4743957e-39
0.89458281 -0.088491283 0.12913296 7.2003199e-39
0.89458281 -0.088491283 0.13163295 7.0166517e-39
0.89708287 -0.090991281 0.12913296 7.1981563e-39
0.89708287 -0.090991281 0.13163295 7.9357368e-39
0.89708287 -0.088491283 0.13163295 7.479076e-39
0.89458281 -0.090991281 0.13413295 8.1204784e-39
0.89458281 -0.088491283 0.13413295 7.4797823e-39
0.89708287 -0.090991281 0.13413295 7.2925198e-39
0.89708287 -0.088491283 0.13413295 7.8449845e-39
0.90208286 -0.095991284 0.12913296 8.1186679e-39
0.90208286 -0.093491286 0.12913296 7.6587771e-39
0.89958286 -0.090991281 0.13163295 7.3847126e-39
0.89958286 -0.088491283 0.13163295 7.754221e-39
0.90208286 -0.090991281 0.13163295 7.3847154e-39
0.90208286 -0.088491283 0.13163295 7.9371801e-39
0.89958286 -0.090991281 0.13413295 7.5691095e-39
0.89958286 -0.088491283 0.13413295 7.8460845e-39
0.90958285 -0.098491281 0.12663294 8.1179616e-39
0.91208285 -0.10099129 0.12663294 8.1183148e-39
0.91208285 -0.098491281 0.12413295 8.1179616e-39
0.91208285 -0.098491281 0.12663294 7.8417237e-39
0.90458286 -0.098491281 0.13163295 7.750977e-39
0.90458286 -0.098491281 0.13413295 7.6584268e-39
0.90708286 -0.10099129 0.13413295 7.6584268e-39
0.90708286 -0.098491281 0.13413295 7.750621e-39
0.91208285 -0.10349128 0.13413295 7.750621e-39
0.90958285 -0.10099129 0.12913296 8.1179616e-39
0.90958285 -0.10099129 0.13163295 8.0264723e-39
0.90958285 -0.098491281 0.12913296 8.1183148e-39
0.90958285 -0.098491281 0.13163295 7.658424e-39
0.91208285 -0.10099129 0.12913296 7.750977e-39
0.91208285 -0.098491281 0.12913296 7.2899988e-39
0.90958285 -0.10099129 0.13413295 7.5666025e-39
0.90958285 -0.10099129 0.13663295 7.4743929e-39
0.90958285 -0.098491281 0.13413295 8.2123251e-39
0.90958285 -0.098491281 0.13663295 8.304892e-39
0.91208285 -0.10099129 0.13413295 7.7509742e-39
0.91208285 -0.098491281 0.13413295 8.1201252e-39
0.90458286 -0.093491286 0.12663294 7.933569e-39
0.90708286 -0.095991284 0.12663294 7.9353654e-39
0.91208285 -0.095991284 0.12663294 7.4743929e-39
0.90458286 -0.095991284 0.12913296 8.1179644e-39
0.90458286 -0.095991284 0.13163295 7.8428195e-39
0.90458286 -0.093491286 0.12913296 7.750621e-39
0.90458286 -0.093491286 0.13163295 7.4743929e-39
0.90708286 -0.095991284 0.12913296 7.8428167e-39
0.90708286 -0.095991284 0.13163295 7.6595072e-39
0.90708286 -0.093491286 0.12913296 7.6584268e-39
0.90708286 -0.093491286 0.13163295 7.935734e-39
0.90458286 -0.095991284 0.13413295 7.6591569e-39
0.90458286 -0.093491286 0.13413295 8.0275793e-39
0.90708286 -0.095991284 0.13413295 7.5669557e-39
0.90708286 -0.095991284 0.13663295 7.661675e-39
0.90708286 -0.093491286 0.13413295 7.7520686e-39
0.90708286 -0.093491286 0.13663295 4.895446e-39
0.90458286 -0.090991281 0.13163295 6.0957772e-39
0.90958285 -0.095991284 0.12913296 7.933213e-39
0.90958285 -0.095991284 0.13163295 7.4744097e-39
0.91208285 -0.095991284 0.12913296 7.4743929e-39
0.90958285 -0.095991284 0.13413295 7.9364669e-39
0.90958285 -0.095991284 0.13663295 8.442529e-40
0.90958285 -0.093491286 0.13413295 5.0801974e-39
0.90958285 -0.093491286 0.13663295 2.9615084e-39
0.91208285 -0.095991284 0.13413295 7.936464e-39
0.87708282 -0.078491285 0.066632949 7.4751286e-39
0.88208282 -0.078491285 0.066632949 7.844637e-39
0.87958282 -0.078491285 0.069132954 7.6613219e-39
0.88208282 -0.078491285 0.069132954 7.8442838e-39
0.88208282 -0.078491285 0.076632947 7.1974529e-39
0.87708282 -0.07599128 0.066632949 7.4772796e-39
0.87708282 -0.073491283 0.066632949 7.293261e-39
0.87458283 -0.070991285 0.066632949 7.0174028e-39
0.87458283 -0.073491283 0.069132954 7.4772796e-39
0.87458283 -0.073491283 0.071632951 6.0936206e-39
0.87708282 -0.073491283 0.069132954 6.0032439e-39
0.87708282 -0.073491283 0.071632951 6.4624256e-39
0.87458283 -0.073491283 0.074132949 6.7386397e-39
0.87708282 -0.073491283 0.074132949 7.1063306e-39
0.87708282 -0.073491283 0.076632947 6.8315416e-39
0.87458283 -0.070991285 0.069132954 7.2921666e-39
0.87458283 -0.070991285 0.071632951 6.9219576e-39
0.87708282 -0.070991285 0.069132954 6.8293906e-39
0.87458283 -0.070991285 0.074132949 6.9219422e-39
0.87458283 -0.070991285 0.076632947 7.014135e-39
0.87708282 -0.070991285 0.074132949 7.1063362e-39
0.87958282 -0.07599128 0.069132954 7.0173972e-39
0.87958282 -0.07599128 0.071632951 6.7386397e-39
0.87958282 -0.073491283 0.069132954 6.0950878e-39
0.88208282 -0.07599128 0.069132954 7.8435636e-39
0.88208282 -0.07599128 0.071632951 6.7375467e-39
0.87958282 -0.07599128 0.076632947 7.0137819e-39
0.87958282 -0.073491283 0.074132949 6.8311885e-39
0.87958282 -0.073491283 0.076632947 7.2896485e-39
0.88208282 -0.07599128 0.074132949 6.6467972e-39
0.88208282 -0.07599128 0.076632947 7.2896485e-39
0.88458282 -0.078491285 0.066632949 7.7520868e-39
0.89208281 -0.083491281 0.066632949 7.5698283e-39
0.88958281 -0.078491285 0.066632949 7.3843805e-39
0.89208281 -0.080991283 0.066632949 7.4776327e-39
0.89208281 -0.078491285 0.066632949 7.5669739e-39
0.88458282 -0.078491285 0.069132954 6.2780357e-39
0.88458282 -0.078491285 0.071632951 6.6468e-39
0.88708282 -0.078491285 0.069132954 7.5687563e-39
0.88708282 -0.078491285 0.071632951 7.0137847e-39
0.88458282 -0.078491285 0.076632947 7.2900016e-39
0.88708282 -0.078491285 0.074132949 7.0127029e-39
0.88708282 -0.078491285 0.076632947 7.2900016e-39
0.89208281 -0.083491281 0.069132954 7.5687535e-39
0.88958281 -0.080991283 0.069132954 6.5546016e-39
0.88958281 -0.080991283 0.071632951 6.7371908e-39
0.88958281 -0.078491285 0.069132954 7.1999962e-39
0.88958281 -0.078491285 0.071632951 6.8293906e-39
0.89208281 -0.080991283 0.069132954 5.8199288e-39
0.89208281 -0.080991283 0.071632951 6.4624018e-39
0.88958281 -0.080991283 0.074132949 7.1974501e-39
0.88958281 -0.080991283 0.076632947 7.1048985e-39
0.88958281 -0.078491285 0.074132949 7.1048985e-39
0.88958281 -0.078491285 0.076632947 7.1077684e-39
0.89208281 -0.080991283 0.074132949 7.0137847e-39
0.89208281 -0.080991283 0.076632947 7.1063362e-39
0.88458282 -0.07599128 0.071632951 6.9212387e-39
0.88458282 -0.07599128 0.076632947 7.3818441e-39
0.88208282 -0.078491285 0.081632949 7.2900016e-39
0.87708282 -0.073491283 0.079132952 7.1063362e-39
0.87708282 -0.073491283 0.081632949 7.2907205e-39
0.87458283 -0.073491283 0.086632952 7.2900114e-39
0.87708282 -0.073491283 0.084132947 7.4743957e-39
0.87708282 -0.073491283 0.086632952 7.2900142e-39
0.87458283 -0.070991285 0.079132952 7.1063362e-39
0.87458283 -0.070991285 0.081632949 7.3818441e-39
0.87708282 -0.070991285 0.081632949 7.106702e-39
0.87458283 -0.070991285 0.084132947 7.2903646e-39
0.87458283 -0.070991285 0.086632952 7.4743957e-39
0.87708282 -0.070991285 0.086632952 7.2903674e-39
0.87958282 -0.07599128 0.081632949 7.3818441e-39
0.87958282 -0.073491283 0.079132952 7.2896485e-39
0.87958282 -0.073491283 0.081632949 7.2907205e-39
0.88208282 -0.07599128 0.079132952 7.2896485e-39
0.88208282 -0.07599128 0.081632949 7.2900114e-39
0.87958282 -0.07599128 0.086632952 7.3829133e-39
0.87958282 -0.073491283 0.086632952 7.3818441e-39
0.88208282 -0.07599128 0.084132947 7.4743957e-39
0.88208282 -0.07599128 0.086632952 7.3825602e-39
0.87708282 -0.073491283 0.08913295 7.3825602e-39
0.87708282 -0.073491283 0.091632947 7.382563e-39
0.87458283 -0.073491283 0.094132952 7.3829133e-39
0.87708282 -0.073491283 0.094132952 7.2907177e-39
0.87708282 -0.073491283 0.09663295 7.2907177e-39
0.87458283 -0.070991285 0.08913295 7.3821973e-39
0.87458283 -0.070991285 0.091632947 7.4740426e-39
0.87708282 -0.070991285 0.091632947 7.3818413e-39
0.87458283 -0.070991285 0.094132952 7.3825602e-39
0.87708282 -0.070991285 0.09663295 7.3821973e-39
0.87958282 -0.07599128 0.08913295 7.6584268e-39
0.87958282 -0.07599128 0.091632947 7.47476e-39
0.87958282 -0.073491283 0.08913295 7.4743929e-39
0.87958282 -0.073491283 0.091632947 7.3829133e-39
0.88208282 -0.07599128 0.08913295 7.4751089e-39
0.88208282 -0.07599128 0.091632947 7.4751089e-39
0.88208282 -0.073491283 0.08913295 7.3829161e-39
0.87958282 -0.07599128 0.094132952 7.3829133e-39
0.87958282 -0.07599128 0.09663295 7.3829161e-39
0.87958282 -0.073491283 0.094132952 7.3829161e-39
0.87958282 -0.073491283 0.09663295 7.2903646e-39
0.88208282 -0.07599128 0.09663295 7.2903674e-39
0.88458282 -0.078491285 0.079132952 7.3821973e-39
0.88458282 -0.078491285 0.081632949 7.4740398e-39
0.88708282 -0.078491285 0.079132952 7.2903674e-39
0.88708282 -0.078491285 0.081632949 7.3818413e-39
0.88458282 -0.078491285 0.084132947 7.4743929e-39
0.88458282 -0.078491285 0.086632952 7.8428223e-39
0.88708282 -0.080991283 0.084132947 7.474746e-39
0.88708282 -0.078491285 0.084132947 7.382563e-39
0.88708282 -0.078491285 0.086632952 7.4743901e-39
0.89208281 -0.083491281 0.079132952 7.4747558e-39
0.89208281 -0.083491281 0.086632952 7.750621e-39
0.88958281 -0.080991283 0.079132952 7.3825602e-39
0.88958281 -0.080991283 0.081632949 7.3829161e-39
0.88958281 -0.078491285 0.079132952 7.2903674e-39
0.88958281 -0.078491285 0.081632949 7.4743929e-39
0.89208281 -0.080991283 0.079132952 7.2903674e-39
0.88958281 -0.080991283 0.084132947 7.4743957e-39
0.88958281 -0.080991283 0.086632952 7.7502679e-39
0.88958281 -0.078491285 0.084132947 7.4743901e-39
0.88958281 -0.078491285 0.086632952 7.4751118e-39
0.89208281 -0.080991283 0.084132947 7.4743901e-39
0.89208281 -0.080991283 0.086632952 7.4743929e-39
0.88458282 -0.078491285 0.08913295 7.6584268e-39
0.88708282 -0.078491285 0.08913295 7.4751089e-39
0.88708282 -0.078491285 0.091632947 7.6584268e-39
0.88458282 -0.078491285 0.094132952 7.4743957e-39
0.88458282 -0.078491285 0.09663295 7.4751118e-39
0.88708282 -0.080991283 0.094132952 7.4736866e-39
0.88708282 -0.080991283 0.09663295 7.4743929e-39
0.88708282 -0.078491285 0.094132952 7.4743957e-39
0.88708282 -0.078491285 0.09663295 7.4751118e-39
0.89208281 -0.083491281 0.08913295 7.750621e-39
0.89208281 -0.083491281 0.091632947 7.5673116e-39
0.88958281 -0.083491281 0.09663295 7.750977e-39
0.89208281 -0.083491281 0.094132952 7.6580779e-39
0.89208281 -0.083491281 0.09663295 7.567306e-39
0.88958281 -0.080991283 0.08913295 7.5673088e-39
0.88958281 -0.080991283 0.091632947 7.6584268e-39
0.88958281 -0.078491285 0.08913295 7.750621e-39
0.88958281 -0.078491285 0.091632947 7.750977e-39
0.89208281 -0.080991283 0.08913295 7.750621e-39
0.89208281 -0.078491285 0.08913295 7.750621e-39
0.88958281 -0.080991283 0.094132952 7.5673088e-39
0.88958281 -0.080991283 0.09663295 7.3829133e-39
0.89208281 -0.080991283 0.094132952 7.5673088e-39
0.88458282 -0.07599128 0.079132952 7.2907205e-39
0.88458282 -0.07599128 0.081632949 7.2900142e-39
0.88458282 -0.07599128 0.084132947 7.750621e-39
0.88458282 -0.07599128 0.086632952 7.3829133e-39
0.88458282 -0.07599128 0.08913295 7.4751118e-39
0.88458282 -0.07599128 0.094132952 7.6584212e-39
0.88458282 -0.07599128 0.09663295 7.5673116e-39
0.89458281 -0.083491281 0.066632949 7.293261e-39
0.89958286 -0.085991286 0.066632949 7.2014185e-39
0.90208286 -0.085991286 0.066632949 7.4769292e-39
0.89458281 -0.083491281 0.069132954 7.7517028e-39
0.89458281 -0.083491281 0.071632951 7.1974501e-39
0.89708287 -0.085991286 0.071632951 6.4624046e-39
0.89708287 -0.083491281 0.069132954 7.3843595e-39
0.89458281 -0.083491281 0.076632947 7.1063362e-39
0.89708287 -0.085991286 0.074132949 7.1063362e-39
0.89708287 -0.085991286 0.076632947 6.8315416e-39
0.89708287 -0.083491281 0.074132949 7.1063362e-39
0.89458281 -0.080991283 0.076632947 7.2903674e-39
0.89958286 -0.085991286 0.069132954 6.5553247e-39
0.89958286 -0.085991286 0.071632951 6.9241086e-39
0.90208286 -0.085991286 0.069132954 6.5549799e-39
0.90208286 -0.085991286 0.071632951 6.4631318e-39
0.89958286 -0.085991286 0.074132949 7.0137819e-39
0.89958286 -0.085991286 0.076632947 7.2907177e-39
0.90208286 -0.085991286 0.074132949 6.6471503e-39
0.90208286 -0.085991286 0.076632947 7.2903646e-39
0.90458286 -0.085991286 0.069132954 7.107795e-39
0.90458286 -0.085991286 0.074132949 7.1066866e-39
0.90458286 -0.085991286 0.076632947 7.7509742e-39
0.89458281 -0.083491281 0.079132952 7.3829161e-39
0.89458281 -0.083491281 0.081632949 7.6584268e-39
0.89708287 -0.085991286 0.079132952 7.4743929e-39
0.89708287 -0.085991286 0.081632949 7.750621e-39
0.89708287 -0.083491281 0.079132952 7.4743901e-39
0.89708287 -0.083491281 0.081632949 7.567306e-39
0.89458281 -0.083491281 0.084132947 7.7502679e-39
0.89458281 -0.083491281 0.086632952 7.7502679e-39
0.89708287 -0.083491281 0.084132947 7.3821973e-39
0.89708287 -0.083491281 0.086632952 7.750621e-39
0.89458281 -0.080991283 0.086632952 7.750621e-39
0.89958286 -0.085991286 0.079132952 7.6587771e-39
0.90208286 -0.085991286 0.079132952 7.7506238e-39
0.90208286 -0.085991286 0.081632949 7.8435257e-39
0.89958286 -0.085991286 0.084132947 7.6584212e-39
0.89958286 -0.085991286 0.086632952 7.8428167e-39
0.90208286 -0.085991286 0.084132947 7.6595044e-39
0.89458281 -0.083491281 0.08913295 7.750621e-39
0.89708287 -0.083491281 0.091632947 7.5673088e-39
0.89458281 -0.083491281 0.094132952 7.5673088e-39
0.89458281 -0.083491281 0.09663295 7.6584212e-39
0.89708287 -0.085991286 0.09663295 7.8431698e-39
0.89708287 -0.083491281 0.094132952 7.567306e-39
0.89708287 -0.083491281 0.09663295 7.6584212e-39
0.89958286 -0.085991286 0.091632947 7.567306e-39
0.89958286 -0.083491281 0.08913295 7.5673088e-39
0.89958286 -0.083491281 0.091632947 7.4743901e-39
0.90208286 -0.085991286 0.08913295 7.6595044e-39
0.90208286 -0.085991286 0.091632947 7.750977e-39
0.89958286 -0.085991286 0.094132952 7.6584212e-39
0.89958286 -0.085991286 0.09663295 7.750977e-39
0.90208286 -0.085991286 0.094132952 7.750621e-39
0.90458286 -0.085991286 0.081632949 7.750977e-39
0.90458286 -0.085991286 0.086632952 7.7517e-39
0.90458286 -0.085991286 0.08913295 7.750977e-39
0.87958282 -0.078491285 0.10913295 7.474746e-39
0.88208282 -0.078491285 0.11163295 7.3821973e-39
0.87458283 -0.073491283 0.10163295 7.2907205e-39
0.87708282 -0.07599128 0.10163295 7.3829161e-39
0.87708282 -0.073491283 0.099132948 7.1063362e-39
0.87708282 -0.073491283 0.10163295 7.1066866e-39
0.87458283 -0.073491283 0.10413295 7.2907205e-39
0.87458283 -0.073491283 0.10663295 7.1063306e-39
0.87708282 -0.07599128 0.10413295 7.2907177e-39
0.87708282 -0.07599128 0.10663295 7.3821945e-39
0.87708282 -0.073491283 0.10413295 7.2907177e-39
0.87708282 -0.073491283 0.10663295 7.3821945e-39
0.87458283 -0.070991285 0.099132948 7.3818441e-39
0.87458283 -0.070991285 0.10163295 7.2903674e-39
0.87458283 -0.070991285 0.10413295 7.2907205e-39
0.87958282 -0.07599128 0.099132948 7.3829161e-39
0.87958282 -0.07599128 0.10163295 7.3829133e-39
0.87958282 -0.073491283 0.099132948 7.3829161e-39
0.87958282 -0.073491283 0.10163295 7.2896485e-39
0.88208282 -0.07599128 0.099132948 7.4743957e-39
0.88208282 -0.07599128 0.10163295 7.3829133e-39
0.87958282 -0.07599128 0.10413295 7.3821945e-39
