# .PCD v0.7 - Point Cloud Data file format
VERSION 0.7
FIELDS x y z rgb
SIZE 4 4 4 4
TYPE F F F F
COUNT 1 1 1 1
WIDTH 994
HEIGHT 1
VIEWPOINT 0 0 0 1 0 0 0
POINTS 994
DATA ascii
0.99990022 -0.0053051091 0.10048866 3.8327755e-40
0.99740022 -0.0053051091 0.10298866 6.5986304e-40
0.99990022 -0.007805109 0.10298866 1.9924923e-40
0.99990022 -0.007805109 0.10548866 1.9924923e-40
0.99990022 -0.0053051091 0.10298866 5.6659542e-40
0.99990022 -0.0053051091 0.10548866 7.5205447e-40
0.99740022 -0.0028051091 0.10298866 9.3537233e-40
1.0024003 -0.007805109 0.097988658 1.9924923e-40
1.0024003 -0.007805109 0.10048866 5.6730868e-40
1.0049002 -0.007805109 0.10048866 9.339332e-40
1.0024003 -0.007805109 0.10548866 6.5986304e-40
1.0024003 -0.0053051091 0.10548866 6.5879105e-40
0.99740022 -0.0053051091 0.10798866 1.0279211e-39
0.99740022 -0.0053051091 0.11048866 1.0279211e-39
0.99990022 -0.007805109 0.10798866 6.5986024e-40
0.99990022 -0.0053051091 0.10798866 9.3572546e-40
0.99740022 -0.007805109 0.11298866 1.3941869e-39
0.99740022 -0.007805109 0.11548866 1.0279211e-39
0.99740022 -0.0053051091 0.11298866 1.0275652e-39
0.99740022 -0.0053051091 0.11548866 1.0275652e-39
0.99990022 -0.007805109 0.11298866 1.3941869e-39
0.99990022 -0.007805109 0.11548866 1.3048639e-39
0.99990022 -0.0053051091 0.11298866 1.2123151e-39
0.99990022 -0.0053051091 0.11548866 1.3956274e-39
1.0024003 -0.007805109 0.11048866 6.5986304e-40
1.0024003 -0.0053051091 0.11048866 1.2126683e-39
1.0049002 -0.007805109 0.10798866 7.5206007e-40
0.98740023 -0.00030510916 0.11798866 1.5803746e-39
0.98740023 -0.00030510916 0.12048866 1.6722185e-39
0.98990023 -0.00030510916 0.11798866 1.487823e-39
0.98990023 -0.00030510916 0.12048866 1.5800187e-39
0.98740023 -0.00030510916 0.12548865 2.0391835e-40
0.98990023 -0.00030510916 0.12298866 1.8548105e-39
0.99490023 -0.0053051091 0.11798866 1.3045108e-39
0.99490023 -0.0053051091 0.12048866 1.5814452e-39
0.99240023 -0.00030510916 0.12048866 1.8569629e-39
0.99490023 -0.0028051091 0.11798866 1.5800187e-39
0.99490023 -0.0028051091 0.12048866 1.8569629e-39
0.99490023 -0.00030510916 0.11798866 1.4878258e-39
0.99490023 -0.00030510916 0.12048866 1.6722185e-39
0.99240023 -0.00030510916 0.12298866 1.5796655e-39
0.99240023 -0.00030510916 0.12548865 5.7198061e-40
0.99490023 -0.00030510916 0.12548865 7.567292e-40
0.98740023 -0.00030510916 0.12798867 3.8938861e-40
0.99240023 -0.00030510916 0.12798867 3.5132472e-39
0.99490023 -0.0028051091 0.12798867 4.7114303e-39
0.99490023 -0.00030510916 0.12798867 6.7411733e-39
0.99490023 -0.00030510916 0.13048866 8.6754514e-39
0.99490023 -0.00030510916 0.13298866 3.7001846e-39
0.98740023 0.0021948908 0.11798866 2.0381228e-39
0.98740023 0.0021948908 0.12048866 2.1324708e-39
0.98990023 0.0021948908 0.11798866 1.6722185e-39
0.98990023 0.0021948908 0.12048866 1.8558839e-39
0.98740023 0.0021948908 0.12548865 2.9360005e-40
0.99240023 0.0021948908 0.12048866 1.9473635e-39
0.99490023 0.0021948908 0.12548865 3.4203411e-39
0.98740023 0.0021948908 0.12798867 3.2456553e-39
0.98740023 0.0046948907 0.12798867 7.479432e-39
0.98740023 0.0046948907 0.13048866 4.3502232e-39
0.98990023 0.0021948908 0.13048866 6.9262764e-39
0.98990023 0.0046948907 0.13048866 4.0754342e-39
0.98990023 0.0021948908 0.13298866 6.2783678e-39
0.98990023 0.0046948907 0.13298866 1.0354993e-39
0.98740023 0.0071948906 0.13048866 7.5639148e-40
0.98740023 0.0096948911 0.13048866 1.5934165e-41
0.98740023 0.0071948906 0.13298866 1.7025776e-41
0.98740023 0.0096948911 0.13298866 4.6110483e-39
0.98990023 0.0071948906 0.13298866 1.5596452e-41
0.98990023 0.0071948906 0.13548866 1.5485644e-38
0.98990023 0.0096948911 0.13548866 2.0925186e-38
0.99240023 0.0021948908 0.12798867 7.0166714e-39
0.99490023 0.0021948908 0.13048866 6.7393432e-39
0.99240023 0.0021948908 0.13298866 1.2342637e-41
0.99240023 0.0021948908 0.13548866 1.0955772e-40
0.99240023 0.0046948907 0.13298866 7.2475157e-42
0.99240023 0.0046948907 0.13548866 4.8839427e-39
0.99490023 0.0021948908 0.13298866 7.676313e-42
0.99490023 0.0046948907 0.13298866 1.44614e-41
0.99240023 0.0071948906 0.13298866 6.011129e-39
0.99240023 0.0071948906 0.13548866 1.9356744e-38
0.99240023 0.0096948911 0.13298866 2.1017383e-38
0.99240023 0.0096948911 0.13548866 2.3136765e-38
0.99490023 0.0071948906 0.13298866 5.459407e-39
0.99740022 -0.0053051091 0.11798866 1.3974127e-39
0.99990022 -0.0053051091 0.12048866 1.3974099e-39
0.99740022 -0.0053051091 0.12298866 1.5800215e-39
0.99740022 -0.0053051091 0.12548865 4.7800953e-40
0.99990022 -0.0053051091 0.12548865 7.5961587e-40
0.99740022 -0.0028051091 0.12298866 1.3041577e-39
0.99740022 -0.0028051091 0.12548865 2.0320229e-40
0.99740022 -0.00030510916 0.12298866 1.0275708e-39
0.99740022 -0.00030510916 0.12548865 5.7198341e-40
0.99990022 -0.0028051091 0.12548865 3.9756645e-39
1.0024003 -0.007805109 0.11798866 1.3048639e-39
1.0024003 -0.007805109 0.12048866 1.5800187e-39
1.0024003 -0.0053051091 0.11798866 1.3974099e-39
1.0024003 -0.0053051091 0.12048866 1.487823e-39
1.0049002 -0.007805109 0.11798866 1.3045108e-39
1.0024003 -0.007805109 0.12548865 1.3952771e-39
1.0024003 -0.0053051091 0.12298866 4.7800953e-40
1.0024003 -0.0053051091 0.12548865 2.0970432e-41
1.0049002 -0.007805109 0.12298866 1.3952743e-39
0.99990022 -0.0053051091 0.12798867 1.3102883e-39
0.99990022 -0.0053051091 0.13048866 7.293261e-39
0.99740022 -0.0028051091 0.12798867 6.6435882e-39
0.99740022 -0.00030510916 0.12798867 8.0283248e-39
0.99740022 -0.00030510916 0.13048866 5.7227138e-39
0.99990022 -0.0028051091 0.12798867 6.0000209e-39
0.99990022 -0.0028051091 0.13048866 6.4609949e-39
0.99990022 -0.00030510916 0.13048866 5.4472031e-39
0.99740022 -0.00030510916 0.13298866 1.6284489e-41
0.99740022 -0.00030510916 0.13548866 2.8777766e-40
0.99990022 -0.00030510916 0.13298866 5.7665113e-40
1.0024003 -0.0053051091 0.13048866 7.2024877e-39
1.0049002 -0.0053051091 0.12798867 6.8344283e-39
1.0049002 -0.0053051091 0.13048866 7.2024877e-39
1.0024003 -0.0053051091 0.13298866 1.5843361e-39
1.0024003 -0.0028051091 0.13048866 4.0768439e-39
1.0024003 -0.00030510916 0.13048866 1.4028119e-39
1.0049002 -0.0028051091 0.13048866 4.0761222e-39
1.0049002 -0.00030510916 0.13048866 2.3229633e-39
1.0024003 -0.0028051091 0.13298866 6.5843512e-40
1.0024003 -0.00030510916 0.13298866 6.2231665e-42
1.0049002 -0.0028051091 0.13548866 9.0818153e-42
1.0049002 -0.00030510916 0.13548866 9.5414412e-42
0.99740022 0.0021948908 0.13048866 3.2445847e-39
0.99740022 0.0021948908 0.13298866 1.4853764e-41
0.99740022 0.0021948908 0.13548866 1.2365407e-38
0.99740022 0.0046948907 0.13298866 4.8842833e-39
0.99990022 0.0021948908 0.13298866 1.5213897e-41
0.99990022 0.0021948908 0.13548866 1.0414534e-38
0.99990022 0.0046948907 0.13298866 2.0093973e-38
0.99990022 0.0046948907 0.13548866 2.2119748e-38
0.99740022 0.0071948906 0.13298866 1.3734705e-38
0.99740022 0.0071948906 0.13548866 2.3501587e-38
0.99740022 0.0096948911 0.13548866 2.2948415e-38
0.99990022 0.0071948906 0.13298866 2.2307026e-38
0.99990022 0.0071948906 0.13548866 2.2673282e-38
1.0024003 0.0021948908 0.13048866 1.4841152e-41
1.0024003 0.0021948908 0.13298866 1.083484e-41
1.0024003 0.0046948907 0.13298866 2.0276567e-38
1.0049002 0.0021948908 0.13548866 1.0782961e-38
1.0049002 0.0046948907 0.13548866 2.2212663e-38
1.0024003 0.0071948906 0.13298866 2.2397427e-38
0.98740023 0.012194891 0.13048866 6.0928653e-39
0.98740023 0.012194891 0.13298866 1.4009773e-38
0.98990023 0.012194891 0.13548866 2.3225736e-38
0.99240023 0.012194891 0.13298866 2.313354e-38
0.99240023 0.012194891 0.13548866 2.3503389e-38
1.0074003 -0.007805109 0.12548865 6.6382451e-40
1.0099002 -0.007805109 0.12298866 2.9504479e-40
1.0099002 -0.007805109 0.12548865 5.3625604e-39
1.0099002 -0.0053051091 0.12298866 1.4928845e-39
1.0099002 -0.0053051091 0.12548865 6.2837754e-39
1.0074003 -0.0053051091 0.12798867 7.1113683e-39
1.0074003 -0.0053051091 0.13298866 1.7725024e-41
1.0074003 -0.0053051091 0.13548866 2.41804e-39
1.0074003 -0.0028051091 0.12798867 4.7196895e-39
1.0074003 -0.0028051091 0.13048866 3.814951e-40
1.0074003 -0.00030510916 0.13048866 8.0364467e-42
1.0099002 -0.0028051091 0.13048866 1.9963038e-40
1.0099002 -0.00030510916 0.13048866 6.2203639e-42
1.0074003 -0.0028051091 0.13298866 8.8225751e-42
1.0074003 -0.0028051091 0.13548866 1.0513914e-38
1.0074003 -0.00030510916 0.13298866 1.0270116e-41
1.0074003 -0.00030510916 0.13548866 1.8350899e-38
1.0099002 -0.0028051091 0.13548866 1.65898e-38
1.0099002 -0.00030510916 0.13548866 2.2305928e-38
1.0124003 -0.007805109 0.12798867 7.5680725e-39
1.0124003 -0.0053051091 0.12798867 8.1244454e-39
1.0149002 -0.007805109 0.12798867 6.9237695e-39
1.0149002 -0.007805109 0.13048866 5.8184631e-39
1.0149002 -0.0053051091 0.13048866 1.1294732e-39
1.0149002 -0.007805109 0.13298866 1.5941171e-41
1.0149002 -0.0053051091 0.13298866 2.5819835e-39
1.0124003 -0.0028051091 0.12798867 6.5557086e-40
1.0149002 -0.0028051091 0.13048866 5.2380537e-42
1.0149002 -0.00030510916 0.13048866 7.7589896e-42
1.0124003 -0.0028051091 0.13548866 2.3509158e-38
1.0124003 -0.00030510916 0.13548866 2.3509886e-38
1.0149002 -0.0028051091 0.13298866 1.6682717e-38
1.0149002 -0.00030510916 0.13298866 2.2122618e-38
1.0074003 0.0021948908 0.13048866 9.751636e-42
1.0074003 0.0046948907 0.13048866 2.027657e-38
1.0099002 0.0021948908 0.13048866 5.6256668e-40
1.0099002 0.0046948907 0.13048866 2.2120467e-38
1.0074003 0.0021948908 0.13298866 1.0782958e-38
1.0074003 0.0021948908 0.13548866 2.350592e-38
1.0074003 0.0046948907 0.13298866 2.2487452e-38
1.0099002 0.0021948908 0.13548866 2.3506632e-38
1.0124003 0.0021948908 0.13298866 2.313714e-38
1.0124003 0.0021948908 0.13548866 2.350591e-38
1.0149002 0.0021948908 0.13298866 2.3506626e-38
1.0149002 0.0046948907 0.13298866 2.3509874e-38
1.0174003 -0.007805109 0.12798867 6.0943269e-39
1.0174003 -0.007805109 0.13048866 1.3774764e-41
1.0174003 -0.0053051091 0.12798867 1.0383706e-39
1.0174003 -0.0053051091 0.13048866 9.7894711e-42
1.0174003 -0.007805109 0.13548866 9.1450447e-39
1.0174003 -0.0053051091 0.13548866 1.8437331e-38
1.0199002 -0.007805109 0.13298866 1.4853764e-41
1.0199002 -0.0053051091 0.13298866 2.9493283e-39
1.0174003 -0.0028051091 0.13048866 2.2347305e-39
1.0174003 -0.0028051091 0.13548866 2.3509521e-38
1.0174003 -0.00030510916 0.13548866 2.3509886e-38
1.0199002 -0.0028051091 0.13298866 9.218271e-39
1.0199002 -0.00030510916 0.13298866 2.2030067e-38
1.0174003 0.0021948908 0.13548866 2.3509886e-38
1.0199002 0.0021948908 0.13298866 2.3507351e-38
1.0274003 -0.042805109 0.13298866 1.5944802e-38
1.0274003 -0.040305108 0.13298866 1.6222112e-38
1.0274003 -0.03780511 0.13298866 1.6222112e-38
1.0274003 -0.017805109 0.13048866 1.1992312e-41
1.0274003 -0.015305109 0.13048866 9.4797841e-42
1.0274003 -0.017805109 0.13298866 1.7387311e-41
1.0274003 -0.015305109 0.13298866 1.1274847e-41
0.95240021 -0.12030511 0.13798866 6.1905064e-39
0.95240021 -0.11780511 0.13798866 1.8573132e-39
0.95240021 -0.11530511 0.13798866 7.5456139e-40
0.95490021 -0.11780511 0.14048865 1.1605537e-38
0.95490021 -0.11530511 0.14048865 9.4901089e-39
0.9574002 -0.11780511 0.13798866 1.1418999e-38
0.9574002 -0.11530511 0.13798866 8.9380211e-39
0.9599002 -0.11530511 0.13798866 6.6327702e-39
0.9599002 -0.11280511 0.13798866 5.2538015e-39
0.97240025 -0.09280511 0.13798866 3.6043442e-39
0.97240025 -0.09280511 0.14048865 7.093363e-39
0.97240025 -0.090305112 0.13798866 3.2352016e-39
0.97240025 -0.090305112 0.14048865 7.3695912e-39
0.97740024 -0.10030511 0.13798866 8.9350476e-39
0.97740024 -0.097805113 0.13798866 9.2116344e-39
0.97740024 -0.095305108 0.13798866 9.4871676e-39
0.97740024 -0.09280511 0.13798866 8.8417981e-39
0.97740024 -0.087805107 0.13798866 7.3714101e-39
0.99490023 -0.070305109 0.13798866 2.3502651e-38
0.99490023 -0.070305109 0.14048865 2.3226074e-38
0.99490023 -0.067805111 0.13798866 2.3041314e-38
0.99490023 -0.067805111 0.14048865 2.3226074e-38
0.99490023 -0.065305106 0.13798866 2.2856906e-38
0.99490023 -0.065305106 0.14048865 2.3501601e-38
0.99490023 -0.062805109 0.13798866 1.9721936e-38
0.99490023 -0.060305107 0.13798866 1.7969866e-38
0.99490023 -0.05780511 0.13798866 1.6675986e-38
0.99490023 -0.05780511 0.14048865 2.3501603e-38
0.99990022 -0.067805111 0.13798866 2.3318286e-38
0.99990022 -0.065305106 0.13798866 2.3501956e-38
1.0024003 -0.060305107 0.13798866 2.3501965e-38
1.0024003 -0.05780511 0.13798866 2.3503042e-38
0.94990021 0.027194891 0.13798866 9.6776671e-39
0.98740023 0.0071948906 0.13798866 1.9539693e-38
0.98740023 0.0096948911 0.13798866 2.341191e-38
0.98990023 0.0071948906 0.13798866 2.3501954e-38
0.98990023 0.0096948911 0.13798866 2.2856585e-38
0.99490023 0.0046948907 0.13798866 2.2396326e-38
0.99490023 0.0071948906 0.13798866 2.2857664e-38
0.99490023 0.0071948906 0.14048865 2.350663e-38
0.98740023 0.012194891 0.13798866 2.3503029e-38
0.98990023 0.012194891 0.13798866 2.2488511e-38
0.88240021 0.03219489 0.075488657 3.3270091e-39
0.88240021 0.034694891 0.075488657 3.6914756e-39
0.88490021 0.03219489 0.072988659 2.8656834e-39
0.88490021 0.034694891 0.072988659 3.1429779e-39
0.88490021 0.037194889 0.072988659 4.1521006e-39
0.87990022 0.03219489 0.077988662 2.8681987e-39
0.87990022 0.03219489 0.080488659 3.5153674e-39
0.87990022 0.034694891 0.080488659 3.5153674e-39
0.87740022 0.03219489 0.082988657 4.4358972e-39
0.87990022 0.03219489 0.082988657 4.1603893e-39
0.87990022 0.03219489 0.085488662 4.6202884e-39
0.87990022 0.034694891 0.082988657 4.0671146e-39
0.87990022 0.034694891 0.085488662 4.6202884e-39
0.87990022 0.037194889 0.082988657 4.9865318e-39
0.88240021 0.03219489 0.077988662 3.9720253e-39
0.88240021 0.034694891 0.077988662 3.6957986e-39
0.88240021 0.034694891 0.080488659 4.5266284e-39
0.88490021 0.034694891 0.077988662 3.9720253e-39
0.88240021 0.03219489 0.082988657 4.435544e-39
0.88240021 0.034694891 0.082988657 4.5284487e-39
0.88240021 0.034694891 0.085488662 4.160755e-39
0.88240021 0.037194889 0.080488659 4.2496716e-39
0.88490021 0.037194889 0.077988662 3.7883445e-39
0.88490021 0.03969489 0.080488659 5.6257887e-39
0.88240021 0.037194889 0.082988657 4.8032378e-39
0.88240021 0.037194889 0.085488662 4.6202884e-39
0.88490021 0.037194889 0.082988657 4.8032378e-39
0.88490021 0.037194889 0.085488662 4.5280928e-39
0.88490021 0.03969489 0.082988657 5.0783953e-39
0.88490021 0.03969489 0.085488662 4.6210073e-39
0.87740022 0.03219489 0.090488657 4.5277453e-39
0.87990022 0.03219489 0.08798866 4.5277425e-39
0.87990022 0.03219489 0.090488657 4.4351909e-39
0.87990022 0.034694891 0.08798866 4.5277425e-39
0.88240021 0.03219489 0.090488657 2.9665432e-39
0.88240021 0.034694891 0.090488657 4.3429953e-39
0.88490021 0.034694891 0.090488657 4.8133495e-39
0.88240021 0.03219489 0.092988662 5.0902965e-39
0.88240021 0.034694891 0.092988662 4.4452901e-39
0.88490021 0.03219489 0.09548866 6.7483914e-39
0.88240021 0.037194889 0.08798866 4.6202912e-39
0.88490021 0.037194889 0.08798866 4.1603991e-39
0.88490021 0.037194889 0.090488657 2.7807143e-39
0.88490021 0.042194892 0.080488659 5.6243244e-39
0.88490021 0.042194892 0.085488662 4.7132029e-39
0.88740021 0.03219489 0.070488662 3.5989268e-39
0.88740021 0.034694891 0.070488662 3.5992673e-39
0.88990021 0.03219489 0.070488662 2.9582335e-39
0.88990021 0.034694891 0.070488662 3.2312205e-39
0.88740021 0.037194889 0.072988659 3.7836782e-39
0.88740021 0.03969489 0.075488657 4.0649272e-39
0.88990021 0.03969489 0.072988659 4.2493185e-39
0.89240021 0.034694891 0.067988664 3.5992673e-39
0.8949002 0.034694891 0.067988664 3.691463e-39
0.8949002 0.037194889 0.067988664 3.413095e-39
0.8949002 0.03969489 0.070488662 2.9578804e-39
0.89240021 0.03969489 0.072988659 3.9723757e-39
0.8949002 0.042194892 0.070488662 4.0609405e-39
0.89240021 0.042194892 0.072988659 3.876227e-39
0.89240021 0.044694889 0.072988659 5.0811082e-42
0.8949002 0.042194892 0.072988659 3.2322378e-39
0.8949002 0.044694889 0.072988659 5.0825095e-42
0.8949002 0.047194891 0.072988659 3.643376e-44
0.8949002 0.047194891 0.075488657 3.6991897e-40
0.8974002 0.03969489 0.067988664 3.7836782e-39
0.89990026 0.03969489 0.067988664 3.6911239e-39
0.8974002 0.042194892 0.067988664 4.6111912e-39
0.8974002 0.042194892 0.070488662 4.2432018e-39
0.8974002 0.044694889 0.070488662 2.6751404e-39
0.89990026 0.042194892 0.067988664 4.4278916e-39
0.89990026 0.044694889 0.067988664 1.385866e-39
0.8974002 0.047194891 0.070488662 3.3631163e-44
0.8974002 0.049694892 0.070488662 5.7453237e-44
0.89990026 0.047194891 0.067988664 7.0064923e-45
0.89990026 0.047194891 0.070488662 1.474166e-42
0.89990026 0.049694892 0.070488662 6.5861028e-44
0.8974002 0.047194891 0.075488657 6.160108e-42
0.8974002 0.049694892 0.075488657 7.4918881e-40
0.90240026 0.047194891 0.067988664 2.3822074e-44
0.90240026 0.049694892 0.067988664 3.9236357e-44
0.90490025 0.049694892 0.070488662 1.229219e-41
0.88740021 0.03969489 0.077988662 4.3418686e-39
0.88740021 0.03969489 0.080488659 4.6199381e-39
0.88740021 0.03969489 0.082988657 4.7128372e-39
0.88740021 0.03219489 0.092988662 6.5636414e-39
0.88740021 0.03219489 0.09548866 5.0013603e-39
0.88740021 0.034694891 0.092988662 6.1952176e-39
0.88990021 0.03219489 0.092988662 3.8064227e-39
0.88990021 0.03219489 0.09548866 5.084568e-39
0.88990021 0.034694891 0.092988662 4.9091647e-39
0.88740021 0.037194889 0.08798866 3.8848884e-39
0.88740021 0.03969489 0.08798866 4.7132085e-39
0.88990021 0.037194889 0.090488657 5.7280989e-39
0.88990021 0.03969489 0.090488657 4.8068531e-39
0.88990021 0.037194889 0.092988662 6.3788676e-39
0.88990021 0.03969489 0.092988662 5.4572546e-39
0.89240021 0.03219489 0.09548866 5.0859904e-39
0.89240021 0.034694891 0.09548866 6.5614792e-39
0.8949002 0.03219489 0.092988662 5.08564e-39
0.8949002 0.034694891 0.092988662 6.8362836e-39
0.8949002 0.034694891 0.09548866 1.4010602e-39
0.89240021 0.037194889 0.092988662 3.8993274e-39
0.89240021 0.037194889 0.09548866 6.561126e-39
0.89240021 0.03969489 0.09548866 7.4823565e-39
0.8949002 0.037194889 0.092988662 6.5618421e-39
0.8949002 0.037194889 0.09548866 2.7811052e-39
0.8949002 0.03969489 0.092988662 7.113225e-39
0.8949002 0.03969489 0.09548866 3.1513297e-39
0.88740021 0.042194892 0.077988662 4.5194412e-39
0.88740021 0.042194892 0.080488659 3.144808e-39
0.88740021 0.044694889 0.077988662 2.5811848e-39
0.88740021 0.044694889 0.080488659 3.053313e-39
0.88990021 0.044694889 0.080488659 3.1436968e-39
0.88740021 0.042194892 0.082988657 4.7128372e-39
0.88740021 0.044694889 0.082988657 4.988701e-39
0.88990021 0.044694889 0.085488662 5.3578591e-39
0.88990021 0.047194891 0.080488659 1.3023626e-39
0.88990021 0.049694892 0.080488659 4.5284459e-39
0.88740021 0.047194891 0.082988657 5.541509e-39
0.88740021 0.049694892 0.082988657 4.9858283e-39
0.88990021 0.047194891 0.085488662 5.7259199e-39
0.88990021 0.049694892 0.085488662 4.3426253e-39
0.89240021 0.044694889 0.077988662 2.3060272e-39
0.89240021 0.047194891 0.077988662 3.8544536e-40
0.8949002 0.049694892 0.077988662 1.450484e-41
0.88740021 0.042194892 0.08798866 4.7132085e-39
0.88740021 0.044694889 0.08798866 5.2627922e-39
0.88990021 0.042194892 0.090488657 3.8845381e-39
0.88990021 0.044694889 0.08798866 4.8954516e-39
0.88990021 0.044694889 0.090488657 5.1705938e-39
0.88990021 0.042194892 0.092988662 4.3512671e-39
0.88990021 0.044694889 0.092988662 4.4377104e-39
0.88740021 0.047194891 0.08798866 4.8997648e-39
0.88990021 0.047194891 0.08798866 5.0819925e-39
0.88990021 0.047194891 0.090488657 4.5295431e-39
0.88990021 0.049694892 0.08798866 4.0678391e-39
0.88990021 0.047194891 0.092988662 3.6090316e-39
0.88990021 0.049694892 0.092988662 5.6246747e-39
0.89240021 0.042194892 0.09548866 7.6667491e-39
0.89240021 0.044694889 0.092988662 6.9295176e-39
0.89240021 0.044694889 0.09548866 7.2968764e-39
0.8949002 0.042194892 0.092988662 7.5742018e-39
0.8949002 0.042194892 0.09548866 4.3498729e-39
0.8949002 0.044694889 0.092988662 7.7578545e-39
0.8949002 0.044694889 0.09548866 4.5338942e-39
0.89240021 0.047194891 0.08798866 5.1731091e-39
0.89240021 0.047194891 0.090488657 3.5193485e-39
0.89240021 0.049694892 0.08798866 4.435544e-39
0.89240021 0.049694892 0.090488657 2.8739791e-39
0.89240021 0.047194891 0.092988662 5.7327667e-39
0.89240021 0.047194891 0.09548866 4.8111887e-39
0.89240021 0.049694892 0.092988662 2.7828652e-39
0.89240021 0.049694892 0.09548866 2.4173393e-39
0.8949002 0.047194891 0.092988662 6.1944707e-39
0.8949002 0.047194891 0.09548866 4.3541538e-39
0.8949002 0.049694892 0.092988662 3.2442091e-39
0.8949002 0.049694892 0.09548866 2.5102412e-39
0.89990026 0.03969489 0.09548866 1.6722367e-39
0.88990021 0.05219489 0.085488662 1.6500163e-38
0.88990021 0.05219489 0.08798866 1.5949145e-38
0.88990021 0.05219489 0.092988662 1.5121185e-38
0.89240021 0.05219489 0.08798866 1.5306295e-38
0.89240021 0.05219489 0.090488657 1.4844238e-38
0.89240021 0.054694891 0.08798866 2.0462022e-38
0.89240021 0.054694891 0.090488657 1.9448589e-38
0.89240021 0.05219489 0.092988662 1.383333e-38
0.89240021 0.05219489 0.09548866 1.2913894e-38
0.89240021 0.054694891 0.092988662 1.9079811e-38
0.89240021 0.054694891 0.09548866 1.8158573e-38
0.8949002 0.05219489 0.092988662 1.3648581e-38
0.8949002 0.05219489 0.09548866 1.3004661e-38
0.8949002 0.054694891 0.092988662 1.8342965e-38
0.8949002 0.054694891 0.09548866 1.8249694e-38
0.89240021 0.044694889 0.097988658 3.7048566e-39
0.89240021 0.047194891 0.097988658 4.1679857e-39
0.89240021 0.049694892 0.097988658 1.773786e-39
0.8949002 0.047194891 0.097988658 3.5247785e-39
0.8949002 0.047194891 0.10048866 4.0772334e-39
0.8949002 0.049694892 0.097988658 3.2449518e-39
0.8949002 0.049694892 0.10048866 2.5091846e-39
0.8949002 0.047194891 0.10298866 2.9723264e-39
0.8949002 0.049694892 0.10298866 1.5886703e-39
0.8974002 0.03969489 0.097988658 2.0385053e-39
0.8974002 0.03969489 0.10048866 6.6312386e-40
0.89990026 0.03969489 0.097988658 3.8761037e-40
0.90240026 0.03969489 0.10048866 1.5825424e-39
0.90490025 0.03969489 0.097988658 1.9502487e-39
0.90490025 0.03969489 0.10048866 1.4899937e-39
0.90240026 0.03969489 0.10298866 1.7647855e-39
0.8974002 0.042194892 0.097988658 1.5796824e-39
0.8974002 0.042194892 0.10048866 1.6658636e-41
0.8974002 0.044694889 0.097988658 1.6758311e-39
0.8974002 0.044694889 0.10048866 1.7647855e-39
0.89990026 0.042194892 0.097988658 1.738591e-41
0.89990026 0.044694889 0.10048866 5.0831093e-39
0.89990026 0.042194892 0.10298866 8.4426831e-40
0.89990026 0.044694889 0.10298866 2.0395745e-39
0.8974002 0.047194891 0.097988658 3.4340178e-39
0.8974002 0.047194891 0.10048866 3.7098942e-39
0.8974002 0.049694892 0.097988658 1.8663334e-39
0.8974002 0.049694892 0.10048866 1.773786e-39
0.89990026 0.047194891 0.10048866 3.3421823e-39
0.89990026 0.049694892 0.10048866 1.5908241e-39
0.8974002 0.047194891 0.10298866 2.605346e-39
0.8974002 0.047194891 0.10548866 1.8695802e-39
0.8974002 0.049694892 0.10298866 4.8664153e-40
0.8974002 0.049694892 0.10548866 1.1785621e-40
0.89990026 0.047194891 0.10298866 2.9737627e-39
0.89990026 0.047194891 0.10548866 2.7861443e-39
0.89990026 0.049694892 0.10298866 9.4509874e-40
0.89990026 0.049694892 0.10548866 2.2796323e-41
0.90240026 0.042194892 0.10048866 1.1215643e-39
0.90240026 0.044694889 0.10048866 2.3179565e-39
0.90490025 0.042194892 0.10048866 1.0290155e-39
0.90240026 0.042194892 0.10298866 1.5818207e-39
0.90240026 0.044694889 0.10298866 2.1339225e-39
0.90490025 0.042194892 0.10298866 1.8566252e-39
0.90490025 0.044694889 0.10298866 2.4094094e-39
0.90490025 0.044694889 0.10548866 1.8591307e-39
0.90240026 0.047194891 0.10048866 2.5138664e-39
0.90240026 0.049694892 0.10048866 4.4279336e-39
0.90240026 0.047194891 0.10298866 2.8786902e-39
0.90240026 0.047194891 0.10548866 2.6942976e-39
0.90240026 0.049694892 0.10298866 3.5978324e-39
0.90240026 0.049694892 0.10548866 8.5038638e-40
0.90490025 0.047194891 0.10298866 2.878693e-39
0.90490025 0.047194891 0.10548866 3.1520331e-39
0.90490025 0.049694892 0.10298866 4.8232553e-40
0.90490025 0.049694892 0.10548866 7.5818655e-40
0.89990026 0.049694892 0.10798866 9.4258201e-40
0.89990026 0.049694892 0.11048866 1.7712539e-39
0.89990026 0.047194891 0.11298866 3.0580228e-39
0.89990026 0.049694892 0.11298866 4.4297609e-39
0.90490025 0.044694889 0.10798866 1.8580377e-39
0.90240026 0.047194891 0.10798866 2.6017362e-39
0.90240026 0.049694892 0.10798866 1.218443e-39
0.90240026 0.049694892 0.11048866 3.05802e-39
0.90490025 0.047194891 0.10798866 2.508463e-39
0.90490025 0.047194891 0.11048866 3.2427714e-39
0.90490025 0.049694892 0.10798866 1.6787009e-39
0.90490025 0.049694892 0.11048866 3.0583759e-39
0.90240026 0.049694892 0.11298866 3.2416854e-39
0.90490025 0.047194891 0.11298866 3.0583731e-39
0.90490025 0.049694892 0.11298866 3.0583731e-39
0.90490025 0.049694892 0.11548866 2.9654614e-39
0.89990026 0.047194891 0.12048866 3.3324391e-39
0.89990026 0.049694892 0.12048866 5.5342769e-39
0.89990026 0.047194891 0.12548865 3.1462556e-39
0.90490025 0.044694889 0.12048866 2.318304e-39
0.90240026 0.044694889 0.12298866 3.053704e-39
0.90240026 0.044694889 0.12548865 3.6076093e-39
0.90490025 0.044694889 0.12298866 2.6877956e-39
0.90240026 0.047194891 0.11798866 2.8732658e-39
0.90240026 0.047194891 0.12048866 3.3324391e-39
0.90240026 0.049694892 0.11798866 5.1662147e-39
0.90240026 0.049694892 0.12048866 5.3505863e-39
0.90490025 0.047194891 0.11798866 2.9654558e-39
0.90490025 0.047194891 0.12048866 3.6987049e-39
0.90490025 0.049694892 0.11798866 3.5157612e-39
0.90490025 0.049694892 0.12048866 5.6275432e-39
0.90240026 0.047194891 0.12298866 3.2384484e-39
0.90240026 0.047194891 0.12548865 3.8841737e-39
0.90240026 0.049694892 0.12298866 5.4420813e-39
0.90240026 0.049694892 0.12548865 5.5346469e-39
0.90490025 0.047194891 0.12298866 3.2384484e-39
0.90490025 0.049694892 0.12298866 5.5342769e-39
0.89990026 0.047194891 0.12798867 4.4348252e-39
0.90490025 0.049694892 0.12798867 5.4449778e-39
0.89240021 0.05219489 0.097988658 1.2267098e-38
0.89240021 0.054694891 0.097988658 1.7513201e-38
0.8949002 0.05219489 0.097988658 1.1621005e-38
0.8949002 0.05219489 0.10048866 1.226673e-38
0.8949002 0.054694891 0.097988658 1.6867835e-38
0.8949002 0.054694891 0.10048866 1.6682717e-38
0.8949002 0.05219489 0.10298866 1.2634789e-38
0.8949002 0.054694891 0.10298866 1.6960027e-38
0.8974002 0.05219489 0.097988658 1.152918e-38
0.8974002 0.05219489 0.10048866 1.1898316e-38
0.8974002 0.054694891 0.097988658 1.7052226e-38
0.8974002 0.054694891 0.10048866 1.6867462e-38
0.89990026 0.05219489 0.10048866 1.2451121e-38
0.89990026 0.054694891 0.10048866 1.696003e-38
0.8974002 0.05219489 0.10298866 1.3463105e-38
0.8974002 0.05219489 0.10548866 1.4109213e-38
0.8974002 0.054694891 0.10298866 1.7788343e-38
0.8974002 0.054694891 0.10548866 2.0369118e-38
0.89990026 0.05219489 0.10298866 1.3555301e-38
0.89990026 0.05219489 0.10548866 1.5487812e-38
0.89990026 0.054694891 0.10298866 1.769723e-38
0.89990026 0.054694891 0.10548866 2.0830076e-38
0.90240026 0.05219489 0.10548866 1.5671482e-38
0.90240026 0.054694891 0.10548866 2.064606e-38
0.90490025 0.05219489 0.10298866 1.5672556e-38
0.90490025 0.05219489 0.10548866 1.2080206e-38
0.89990026 0.05219489 0.10798866 1.2080209e-38
0.89990026 0.05219489 0.11048866 1.2263423e-38
0.89990026 0.054694891 0.10798866 1.8244661e-38
0.89990026 0.054694891 0.11048866 1.5021742e-38
0.89990026 0.05219489 0.11298866 6.4584235e-39
0.90240026 0.05219489 0.10798866 1.2354998e-38
0.90240026 0.05219489 0.11048866 5.3556632e-39
0.90240026 0.054694891 0.10798866 1.8244661e-38
0.90240026 0.054694891 0.11048866 8.204297e-39
0.90490025 0.05219489 0.10798866 1.2447116e-38
0.90490025 0.05219489 0.11048866 5.9981642e-39
0.90490025 0.054694891 0.11048866 6.8224388e-39
0.90240026 0.05219489 0.11298866 6.0917667e-39
0.90240026 0.054694891 0.11298866 8.2032404e-39
0.90490025 0.05219489 0.11548866 7.1023229e-39
0.90490025 0.054694891 0.11298866 8.5720286e-39
0.89990026 0.05219489 0.12048866 7.0094084e-39
0.90240026 0.05219489 0.11798866 7.1023229e-39
0.90490025 0.05219489 0.11798866 7.1945185e-39
0.90490025 0.05219489 0.12048866 7.2863414e-39
0.90240026 0.05219489 0.12298866 7.1016041e-39
0.90240026 0.05219489 0.12548865 7.1019726e-39
0.90490025 0.05219489 0.12298866 7.0094084e-39
0.90490025 0.054694891 0.12298866 8.4791239e-39
0.90490025 0.05219489 0.12798867 6.5509666e-39
0.91490024 0.037194889 0.085488662 1.4918308e-39
0.90740025 0.037194889 0.08798866 2.7807549e-39
0.91240025 0.03969489 0.08798866 1.7052401e-41
0.91240025 0.03969489 0.090488657 1.3956512e-39
0.91490024 0.037194889 0.08798866 1.6688063e-41
0.91490024 0.03969489 0.08798866 1.7408331e-41
0.91490024 0.03969489 0.090488657 1.5796824e-39
0.91240025 0.03969489 0.09548866 1.1230132e-39
0.91490024 0.03969489 0.092988662 1.1230132e-39
0.91490024 0.03969489 0.09548866 1.5818235e-39
0.91990024 0.034694891 0.080488659 4.7179295e-39
0.91740024 0.034694891 0.082988657 5.6987445e-40
0.91990024 0.034694891 0.082988657 2.0251706e-40
0.91990024 0.034694891 0.085488662 6.6383012e-40
0.91740024 0.037194889 0.082988657 1.4921867e-39
0.91740024 0.037194889 0.085488662 1.4523057e-41
0.91740024 0.03969489 0.085488662 1.6688063e-41
0.91990024 0.037194889 0.082988657 1.5239121e-41
0.91990024 0.037194889 0.085488662 1.489272e-39
0.92240024 0.034694891 0.080488659 1.5255936e-41
0.92490023 0.03219489 0.077988662 3.6119421e-39
0.92490023 0.03219489 0.080488659 2.0144786e-40
0.92490023 0.034694891 0.077988662 4.6257367e-39
0.92490023 0.034694891 0.080488659 2.0036606e-40
0.92240024 0.034694891 0.082988657 1.6308312e-41
0.92490023 0.034694891 0.085488662 1.5818235e-39
0.92490023 0.037194889 0.080488659 8.4718301e-40
0.91740024 0.037194889 0.08798866 4.7907872e-40
0.91740024 0.03969489 0.08798866 9.3862194e-40
0.91740024 0.03969489 0.090488657 9.3826881e-40
0.91990024 0.037194889 0.08798866 6.6310985e-40
0.91990024 0.037194889 0.090488657 8.4713957e-40
0.91990024 0.03969489 0.08798866 9.3826881e-40
0.91990024 0.03969489 0.090488657 1.0308176e-39
0.91740024 0.037194889 0.092988662 1.1230132e-39
0.91740024 0.03969489 0.092988662 1.0315308e-39
0.91990024 0.037194889 0.09548866 1.8569811e-39
0.91990024 0.03969489 0.09548866 1.5818235e-39
0.92240024 0.034694891 0.08798866 9.393352e-40
0.92240024 0.034694891 0.090488657 1.7647855e-39
0.92490023 0.03219489 0.08798866 1.3967232e-39
0.92490023 0.034694891 0.08798866 1.0308176e-39
0.92490023 0.034694891 0.090488657 1.4892692e-39
0.92240024 0.034694891 0.092988662 8.4713957e-40
0.92240024 0.034694891 0.09548866 1.3063128e-39
0.92490023 0.034694891 0.092988662 1.4896251e-39
0.92490023 0.034694891 0.09548866 1.5818207e-39
0.92240024 0.037194889 0.08798866 8.4678925e-40
0.92240024 0.037194889 0.090488657 1.5818235e-39
0.92240024 0.03969489 0.08798866 1.8569783e-39
0.92240024 0.03969489 0.090488657 1.0315308e-39
0.92240024 0.037194889 0.092988662 1.5818207e-39
0.92240024 0.03969489 0.092988662 1.6740192e-39
0.90740025 0.05219489 0.067988664 6.1657132e-42
0.92740023 0.03219489 0.075488657 2.8740211e-39
0.92740023 0.034694891 0.075488657 4.0757873e-39
0.93240023 0.03219489 0.072988659 1.8634803e-39
0.92740023 0.03219489 0.077988662 2.0144506e-40
0.92990023 0.03219489 0.080488659 5.6805417e-40
0.92740023 0.03219489 0.082988657 1.5818235e-39
0.92740023 0.03219489 0.085488662 8.4713957e-40
0.92740023 0.034694891 0.082988657 1.1230132e-39
0.92740023 0.034694891 0.085488662 9.393352e-40
0.92990023 0.03219489 0.082988657 1.4892692e-39
0.92740023 0.03219489 0.08798866 1.3970764e-39
0.92740023 0.03219489 0.090488657 1.489272e-39
0.92740023 0.034694891 0.08798866 1.3967232e-39
0.92740023 0.034694891 0.090488657 1.3967232e-39
0.92990023 0.03219489 0.08798866 1.3967232e-39
0.92990023 0.034694891 0.08798866 1.489272e-39
0.92740023 0.03219489 0.092988662 1.2119746e-39
0.92740023 0.03219489 0.09548866 1.5818235e-39
0.92740023 0.034694891 0.092988662 1.3970764e-39
0.92990023 0.03219489 0.092988662 1.3045262e-39
0.92990023 0.03219489 0.09548866 9.3826601e-40
0.92990023 0.034694891 0.092988662 1.3967232e-39
0.92990023 0.034694891 0.09548866 1.1226573e-39
0.93240023 0.03219489 0.090488657 1.2126837e-39
0.93240023 0.034694891 0.090488657 1.489272e-39
0.93240023 0.03219489 0.09548866 1.0308176e-39
0.90740025 0.03969489 0.097988658 1.3056038e-39
0.90990025 0.03969489 0.10048866 1.7644323e-39
0.90740025 0.03969489 0.10298866 1.3056038e-39
0.90990025 0.03969489 0.10298866 1.1226573e-39
0.91240025 0.03969489 0.097988658 1.0318868e-39
0.91240025 0.03969489 0.10048866 1.0315308e-39
0.91490024 0.037194889 0.097988658 1.0315308e-39
0.91490024 0.037194889 0.10048866 1.0315308e-39
0.91490024 0.03969489 0.097988658 1.8569811e-39
0.91490024 0.03969489 0.10048866 1.489272e-39
0.91240025 0.03969489 0.10548866 1.3063283e-39
0.91490024 0.03969489 0.10298866 1.489272e-39
0.91490024 0.03969489 0.10548866 1.5818235e-39
0.91490024 0.03969489 0.11298866 1.7647855e-39
0.91490024 0.03969489 0.11548866 1.9477292e-39
0.90740025 0.042194892 0.10298866 1.856628e-39
0.90740025 0.044694889 0.10298866 1.8591335e-39
0.90990025 0.042194892 0.10298866 1.7644295e-39
0.90990025 0.042194892 0.10548866 1.4907195e-39
0.90990025 0.044694889 0.10548866 1.859837e-39
0.90740025 0.047194891 0.10298866 2.6939318e-39
0.90990025 0.047194891 0.10548866 3.0594718e-39
0.90990025 0.049694892 0.10548866 2.0467618e-39
0.91240025 0.042194892 0.10048866 1.7644295e-39
0.91240025 0.042194892 0.10548866 1.6751066e-39
0.91490024 0.042194892 0.10298866 1.8566252e-39
0.91490024 0.042194892 0.10548866 1.5811145e-39
0.91240025 0.047194891 0.10548866 3.2424155e-39
0.90740025 0.044694889 0.10798866 2.1335456e-39
0.90740025 0.044694889 0.11048866 1.9502305e-39
0.90990025 0.042194892 0.10798866 1.3063283e-39
0.90990025 0.044694889 0.10798866 1.4910698e-39
0.90990025 0.044694889 0.11048866 1.3084737e-39
0.90740025 0.044694889 0.11548866 1.3988742e-39
0.90990025 0.044694889 0.11298866 2.3175907e-39
0.90990025 0.044694889 0.11548866 1.6743821e-39
0.90740025 0.047194891 0.10798866 3.3335377e-39
0.90740025 0.047194891 0.11048866 3.2416882e-39
0.90740025 0.049694892 0.10798866 3.0580228e-39
0.90740025 0.049694892 0.11048866 3.1505716e-39
0.90990025 0.047194891 0.10798866 3.3338866e-39
0.90990025 0.047194891 0.11048866 3.2416854e-39
0.90990025 0.049694892 0.10798866 3.1505744e-39
0.90990025 0.049694892 0.11048866 3.4257165e-39
0.90740025 0.047194891 0.11548866 3.4239187e-39
0.90740025 0.049694892 0.11548866 3.5161143e-39
0.90990025 0.047194891 0.11298866 2.7814331e-39
0.90990025 0.047194891 0.11548866 3.4239187e-39
0.90990025 0.049694892 0.11298866 2.9654586e-39
0.90990025 0.049694892 0.11548866 3.1498457e-39
0.91240025 0.042194892 0.10798866 1.0304616e-39
0.91240025 0.042194892 0.11048866 1.396726e-39
0.91240025 0.044694889 0.10798866 1.6740164e-39
0.91240025 0.044694889 0.11048866 1.6750884e-39
0.91490024 0.042194892 0.10798866 1.4889189e-39
0.91490024 0.042194892 0.11048866 1.6740192e-39
0.91490024 0.044694889 0.10798866 1.3995931e-39
0.91240025 0.042194892 0.11298866 1.7647855e-39
0.91240025 0.044694889 0.11298866 1.8580531e-39
0.91240025 0.044694889 0.11548866 1.9502487e-39
0.91490024 0.042194892 0.11298866 1.1240796e-39
0.91490024 0.042194892 0.11548866 1.489272e-39
0.91490024 0.044694889 0.11548866 2.3175851e-39
0.91240025 0.047194891 0.10798866 3.1505688e-39
0.91240025 0.047194891 0.11048866 3.2416882e-39
0.91490024 0.047194891 0.10798866 3.1494898e-39
0.91740024 0.037194889 0.097988658 1.5818235e-39
0.91740024 0.037194889 0.10048866 1.6736632e-39
0.91740024 0.03969489 0.10048866 1.5818207e-39
0.91990024 0.037194889 0.097988658 1.5818207e-39
0.91990024 0.037194889 0.10048866 1.6740164e-39
0.91990024 0.03969489 0.10048866 1.5818207e-39
0.91740024 0.037194889 0.10298866 1.5818235e-39
0.91740024 0.03969489 0.10298866 1.4892692e-39
0.91990024 0.037194889 0.10298866 1.3970764e-39
0.91990024 0.037194889 0.10548866 2.0402808e-39
0.91990024 0.03969489 0.10298866 1.5818207e-39
0.91990024 0.03969489 0.10548866 1.489272e-39
0.92240024 0.034694891 0.097988658 1.6722311e-39
0.92240024 0.034694891 0.10048866 1.489272e-39
0.92490023 0.03219489 0.10048866 1.3967232e-39
0.92490023 0.034694891 0.097988658 1.4896251e-39
0.92490023 0.034694891 0.10048866 1.3970764e-39
0.92240024 0.034694891 0.10548866 1.489272e-39
0.92490023 0.03219489 0.10548866 1.1215671e-39
0.92490023 0.034694891 0.10298866 1.489272e-39
0.92490023 0.034694891 0.10548866 1.2137613e-39
0.92240024 0.037194889 0.097988658 1.489272e-39
0.92240024 0.037194889 0.10048866 1.3970764e-39
0.92240024 0.037194889 0.10298866 1.3970764e-39
0.92240024 0.037194889 0.10548866 2.0402808e-39
0.92240024 0.03969489 0.10298866 1.1215615e-39
0.92490023 0.037194889 0.10298866 1.489272e-39
0.91990024 0.034694891 0.11298866 1.1215643e-39
0.91740024 0.037194889 0.10798866 1.9477292e-39
0.91740024 0.03969489 0.10798866 1.9477292e-39
0.91990024 0.037194889 0.10798866 1.3059569e-39
0.91990024 0.037194889 0.11048866 1.4892692e-39
0.91990024 0.03969489 0.10798866 1.1215643e-39
0.91990024 0.03969489 0.11048866 1.30631e-39
0.91740024 0.03969489 0.11298866 1.5818235e-39
0.91740024 0.03969489 0.11548866 1.1215615e-39
0.91990024 0.037194889 0.11298866 1.30631e-39
0.91990024 0.037194889 0.11548866 1.2137613e-39
0.91990024 0.03969489 0.11298866 1.1219174e-39
0.91990024 0.03969489 0.11548866 1.30631e-39
0.92490023 0.03219489 0.11048866 1.1215643e-39
0.92490023 0.034694891 0.10798866 1.5800215e-39
0.92490023 0.034694891 0.11048866 1.4896223e-39
0.92240024 0.034694891 0.11298866 1.4892692e-39
0.92240024 0.034694891 0.11548866 1.489272e-39
0.92490023 0.03219489 0.11298866 1.1215643e-39
0.92490023 0.03219489 0.11548866 1.0293686e-39
0.92490023 0.034694891 0.11298866 1.3048793e-39
0.92490023 0.034694891 0.11548866 1.3048765e-39
0.92240024 0.037194889 0.11048866 1.4903412e-39
0.92240024 0.03969489 0.11048866 1.5818207e-39
0.92490023 0.037194889 0.10798866 1.4892692e-39
0.92490023 0.037194889 0.11048866 1.0293686e-39
0.92240024 0.037194889 0.11298866 6.6382451e-40
0.92240024 0.037194889 0.11548866 1.30631e-39
0.92490023 0.037194889 0.11298866 1.3059569e-39
0.91740024 0.042194892 0.10048866 1.8569811e-39
0.91740024 0.042194892 0.10298866 1.3070443e-39
0.91990024 0.042194892 0.10298866 1.8569811e-39
0.91990024 0.042194892 0.10548866 1.3070471e-39
0.92240024 0.042194892 0.10298866 1.5811145e-39
0.91740024 0.042194892 0.10798866 1.4889189e-39
0.91990024 0.042194892 0.10798866 1.5818207e-39
0.91990024 0.042194892 0.11048866 1.1240796e-39
0.91740024 0.042194892 0.11298866 1.5818235e-39
0.91740024 0.044694889 0.11298866 2.042443e-39
0.91240025 0.03969489 0.11798866 1.7651358e-39
0.91490024 0.03969489 0.12048866 1.489988e-39
0.91490024 0.03969489 0.12298866 3.8796489e-40
0.90740025 0.042194892 0.12048866 2.0395591e-39
0.90740025 0.044694889 0.11798866 2.5019848e-39
0.90740025 0.044694889 0.12048866 2.7799912e-39
0.90990025 0.044694889 0.11798866 2.0406437e-39
0.90990025 0.044694889 0.12048866 1.7658393e-39
0.90740025 0.044694889 0.12548865 4.4344903e-39
0.90990025 0.042194892 0.12298866 2.1321205e-39
0.90990025 0.042194892 0.12548865 1.7611701e-39
0.90990025 0.044694889 0.12298866 3.6072533e-39
0.90990025 0.044694889 0.12548865 7.7574832e-39
0.90740025 0.047194891 0.11798866 3.3306454e-39
0.90740025 0.047194891 0.12048866 3.3324391e-39
0.90740025 0.049694892 0.11798866 3.6072309e-39
0.90740025 0.049694892 0.12048866 3.4246347e-39
0.90990025 0.047194891 0.11798866 3.3324391e-39
0.90990025 0.049694892 0.11798866 5.5346273e-39
0.90990025 0.049694892 0.12048866 3.6994237e-39
0.90740025 0.047194891 0.12548865 4.15896e-39
0.90740025 0.049694892 0.12548865 5.5349972e-39
0.90990025 0.047194891 0.12298866 2.8739791e-39
0.90990025 0.047194891 0.12548865 8.3048738e-39
0.90990025 0.049694892 0.12298866 3.8848884e-39
0.90990025 0.049694892 0.12548865 5.7219318e-39
0.91240025 0.042194892 0.11798866 1.8573314e-39
0.91240025 0.044694889 0.11798866 1.6750856e-39
0.91490024 0.042194892 0.12048866 1.0293686e-39
0.91490024 0.044694889 0.12048866 2.2225182e-39
0.91240025 0.042194892 0.12298866 1.6298502e-41
0.91240025 0.042194892 0.12548865 2.1411252e-39
0.91240025 0.044694889 0.12298866 2.498382e-39
0.91240025 0.044694889 0.12548865 4.8994173e-39
0.91490024 0.042194892 0.12298866 1.7022974e-41
0.91490024 0.042194892 0.12548865 5.0856246e-39
0.91490024 0.044694889 0.12548865 7.1085195e-39
0.90740025 0.047194891 0.12798867 7.6620239e-39
0.90740025 0.049694892 0.12798867 5.4460638e-39
0.90990025 0.047194891 0.12798867 7.3872321e-39
0.90990025 0.047194891 0.13048866 1.8099171e-41
0.90990025 0.049694892 0.12798867 4.2482493e-39
0.90990025 0.049694892 0.13048866 3.603233e-39
0.91240025 0.042194892 0.12798867 7.2007151e-39
0.91240025 0.044694889 0.12798867 7.9382801e-39
0.91490024 0.044694889 0.12798867 5.4533309e-39
0.91240025 0.047194891 0.12798867 2.2318719e-39
0.91240025 0.047194891 0.13048866 1.4874699e-39
0.91240025 0.049694892 0.12798867 4.1560509e-39
0.91240025 0.049694892 0.13048866 2.8704044e-39
0.91490024 0.047194891 0.12798867 2.5048658e-39
0.91490024 0.049694892 0.13298866 8.7575353e-39
0.91740024 0.03969489 0.11798866 1.1215643e-39
0.91740024 0.03969489 0.12048866 1.4874699e-39
0.91990024 0.037194889 0.11798866 1.30631e-39
0.91990024 0.037194889 0.12048866 1.7644169e-39
0.91990024 0.03969489 0.11798866 1.1215615e-39
0.91990024 0.03969489 0.12048866 1.857316e-39
0.91740024 0.03969489 0.12298866 2.1340374e-41
0.91990024 0.03969489 0.12298866 5.6730868e-40
0.91990024 0.03969489 0.12548865 5.8235428e-39
0.92240024 0.034694891 0.11798866 1.3048737e-39
0.92490023 0.03219489 0.12048866 1.1215643e-39
0.92490023 0.034694891 0.12048866 1.8555336e-39
0.92240024 0.034694891 0.12298866 1.947732e-39
0.92490023 0.034694891 0.12548865 9.3969113e-40
0.92240024 0.037194889 0.12048866 1.2126781e-39
0.92240024 0.03969489 0.12048866 1.6704164e-39
0.92490023 0.037194889 0.12048866 5.6911355e-40
0.92240024 0.037194889 0.12298866 4.7799131e-40
0.92240024 0.03969489 0.12298866 2.0140302e-40
0.92490023 0.037194889 0.12548865 4.0685972e-39
0.92490023 0.03969489 0.12548865 6.9241506e-39
0.92240024 0.03969489 0.12798867 7.7542336e-39
0.92240024 0.03969489 0.13048866 2.5970615e-39
0.92490023 0.037194889 0.12798867 7.2007151e-39
0.92490023 0.03969489 0.12798867 5.910342e-39
0.92490023 0.03969489 0.13048866 1.0991085e-40
0.91740024 0.042194892 0.11798866 1.5818207e-39
0.91740024 0.042194892 0.12298866 1.6812218e-39
0.91740024 0.042194892 0.12548865 4.25768e-39
0.91740024 0.044694889 0.12548865 4.900876e-39
0.91990024 0.042194892 0.12298866 4.5324663e-39
0.91990024 0.042194892 0.12548865 6.0090088e-39
0.91740024 0.044694889 0.13048866 4.2580276e-39
0.91990024 0.042194892 0.12798867 7.2014185e-39
0.91990024 0.042194892 0.13048866 2.8693352e-39
0.91990024 0.044694889 0.12798867 4.8090335e-39
0.91990024 0.044694889 0.13048866 1.5839857e-39
0.91740024 0.047194891 0.13048866 1.0261456e-39
0.91740024 0.049694892 0.13048866 2.2246874e-39
0.91990024 0.047194891 0.13048866 6.6424616e-39
0.91990024 0.049694892 0.13048866 7.2907205e-39
0.91740024 0.049694892 0.13298866 8.1175931e-39
0.92240024 0.042194892 0.12798867 7.2014185e-39
0.92240024 0.042194892 0.13048866 7.5420546e-40
0.92240024 0.044694889 0.13048866 1.9455768e-39
0.92490023 0.042194892 0.13048866 2.414803e-39
0.92490023 0.044694889 0.13048866 6.2736735e-39
0.92240024 0.042194892 0.13298866 2.0474512e-39
0.92240024 0.044694889 0.13298866 5.4457107e-39
0.92490023 0.044694889 0.13298866 7.3781895e-39
0.92240024 0.047194891 0.13048866 6.7321433e-39
0.90990025 0.05219489 0.10548866 5.0714603e-39
0.90990025 0.05219489 0.10798866 6.7339005e-39
0.90740025 0.05219489 0.11548866 7.1023229e-39
0.90740025 0.054694891 0.11548866 8.8479036e-39
0.90740025 0.057194892 0.11048866 7.7419148e-39
0.90740025 0.05969489 0.11048866 7.7419148e-39
0.90990025 0.057194892 0.11048866 8.6642256e-39
0.90990025 0.05969489 0.11048866 8.8482567e-39
0.90990025 0.057194892 0.11298866 8.4794798e-39
0.90990025 0.057194892 0.11548866 8.4794798e-39
0.90990025 0.05969489 0.11298866 8.5716754e-39
0.91240025 0.057194892 0.11298866 8.2043349e-39
0.91240025 0.05969489 0.11298866 8.0199436e-39
0.91240025 0.062194891 0.11048866 8.9397335e-39
0.91490024 0.062194891 0.11298866 8.2968808e-39
0.91740024 0.057194892 0.11298866 8.4794798e-39
0.91740024 0.05969489 0.11298866 8.4791239e-39
0.91740024 0.05969489 0.11548866 8.5716782e-39
0.92240024 0.054694891 0.11298866 8.4812819e-39
0.92490023 0.054694891 0.11298866 8.4791239e-39
0.92240024 0.057194892 0.11298866 8.2043349e-39
0.92490023 0.057194892 0.11298866 8.3869283e-39
0.92490023 0.05969489 0.11298866 8.6627949e-39
0.92490023 0.062194891 0.11048866 8.5720286e-39
0.90740025 0.05219489 0.11798866 7.1952248e-39
0.90740025 0.05219489 0.12048866 7.1030292e-39
0.90990025 0.05219489 0.11798866 7.1030292e-39
0.90990025 0.054694891 0.11798866 8.8479036e-39
0.90740025 0.05219489 0.12548865 7.2863639e-39
0.90740025 0.054694891 0.12548865 8.3887275e-39
0.90990025 0.05219489 0.12548865 5.905963e-39
0.90990025 0.054694891 0.12548865 8.0206695e-39
0.90740025 0.05219489 0.12798867 6.0914332e-39
0.90740025 0.054694891 0.12798867 8.3887275e-39
0.90990025 0.05219489 0.12798867 5.5389881e-39
0.90990025 0.05219489 0.13048866 5.446061e-39
0.91240025 0.05219489 0.12798867 5.8155722e-39
0.91240025 0.05219489 0.13048866 5.8116051e-39
0.91240025 0.054694891 0.12798867 8.4812791e-39
0.92740023 0.03219489 0.10048866 1.489272e-39
0.92990023 0.03219489 0.097988658 1.0308176e-39
0.92990023 0.03219489 0.10048866 1.3048793e-39
0.92740023 0.03219489 0.10298866 1.489272e-39
0.92740023 0.03219489 0.10548866 4.7943465e-40
0.92740023 0.034694891 0.10548866 1.4892692e-39
0.92990023 0.03219489 0.10298866 1.489272e-39
0.92990023 0.03219489 0.10548866 4.7943465e-40
0.93240023 0.03219489 0.10298866 1.6722213e-39
0.92740023 0.03219489 0.10798866 5.7162748e-40
0.92740023 0.03219489 0.11048866 1.1215615e-39
0.92740023 0.034694891 0.10798866 1.1215643e-39
0.92740023 0.034694891 0.11048866 5.7162748e-40
0.92990023 0.03219489 0.10798866 1.5796655e-39
0.92990023 0.03219489 0.11048866 1.1215615e-39
0.92740023 0.03219489 0.11298866 1.0293658e-39
0.92740023 0.034694891 0.11298866 1.0293658e-39
0.92740023 0.03219489 0.11798866 1.0293686e-39
0.92740023 0.034694891 0.11798866 1.1215643e-39
0.92740023 0.03219489 0.12298866 1.3945708e-39
0.92740023 0.03219489 0.12548865 9.3539475e-40
0.92740023 0.034694891 0.12298866 1.0272176e-39
0.92740023 0.034694891 0.12548865 1.7038388e-41
0.92990023 0.03219489 0.12298866 6.6130638e-40
0.92990023 0.03219489 0.12548865 3.8832923e-40
0.92740023 0.037194889 0.12298866 2.4097835e-39
0.92740023 0.037194889 0.12548865 4.2504774e-39
0.92740023 0.03969489 0.12298866 5.3596864e-39
0.92740023 0.03969489 0.12548865 5.3596892e-39
0.93490022 0.03219489 0.12048866 1.2116117e-39
0.93240023 0.03219489 0.12548865 4.1597012e-39
0.93490022 0.03219489 0.12548865 6.9244757e-39
0.93490022 0.034694891 0.12548865 7.7485009e-39
0.93240023 0.037194889 0.12548865 6.8380254e-39
0.92990023 0.03219489 0.12798867 3.1484024e-39
0.92990023 0.034694891 0.12798867 5.725955e-39
0.92740023 0.037194889 0.12798867 7.8489333e-39
0.92740023 0.03969489 0.12798867 4.6221185e-39
0.92740023 0.03969489 0.13048866 2.4068871e-39
0.92990023 0.037194889 0.12798867 6.8362107e-39
0.92990023 0.03969489 0.12798867 3.9799595e-39
0.92990023 0.03969489 0.13048866 2.132489e-39
0.93240023 0.034694891 0.12798867 7.2900409e-39
0.93490022 0.034694891 0.12798867 7.6591541e-39
0.93490022 0.034694891 0.13048866 4.0642812e-39
0.93240023 0.034694891 0.13298866 2.2250251e-39
0.93240023 0.037194889 0.12798867 6.4602788e-39
0.93240023 0.03969489 0.12798867 1.1030041e-40
0.93490022 0.037194889 0.12798867 6.0006823e-39
0.93490022 0.037194889 0.13048866 2.1306729e-39
0.93490022 0.03969489 0.12798867 1.9506257e-39
0.93490022 0.03969489 0.13048866 5.9088594e-39
0.93240023 0.037194889 0.13298866 3.3263056e-39
0.93240023 0.03969489 0.13298866 7.5600823e-39
0.93490022 0.037194889 0.13298866 3.9713457e-39
0.93490022 0.037194889 0.13548866 8.1992972e-39
0.93490022 0.03969489 0.13298866 7.7444707e-39
0.93490022 0.03969489 0.13548866 8.1071016e-39
0.92740023 0.042194892 0.13048866 4.5277453e-39
0.92740023 0.044694889 0.13048866 7.8373768e-39
0.92990023 0.042194892 0.12798867 1.122988e-39
0.92990023 0.042194892 0.13048866 3.6043414e-39
0.92990023 0.044694889 0.13048866 7.6547778e-39
