# .PCD v0.7 - Point Cloud Data file format
VERSION 0.7
FIELDS x y z rgb
SIZE 4 4 4 4
TYPE F F F F
COUNT 1 1 1 1
WIDTH 979
HEIGHT 1
VIEWPOINT 0 0 0 1 0 0 0
POINTS 979
DATA ascii
1.0120828 -0.015397158 0.10663295 7.4953913e-40
1.0095829 -0.012897157 0.099132948 1.4857968e-41
1.0095829 -0.010397158 0.099132948 4.7367812e-40
1.0095829 -0.010397158 0.10163295 7.4918601e-40
1.0120828 -0.012897157 0.10163295 1.070536e-40
1.0120828 -0.010397158 0.10163295 1.070536e-40
1.0095829 -0.012897157 0.10413295 2.9108192e-40
1.0095829 -0.010397158 0.10413295 7.4918601e-40
1.0120828 -0.012897157 0.10413295 1.9853036e-40
1.0120828 -0.012897157 0.10663295 3.8327755e-40
1.0120828 -0.010397158 0.10663295 6.5986024e-40
1.0145829 -0.017897157 0.099132948 1.0596479e-40
1.0145829 -0.017897157 0.10163295 3.7967762e-40
1.0145829 -0.015397158 0.099132948 3.8112936e-40
1.0170828 -0.017897157 0.10163295 1.3774764e-41
1.0145829 -0.017897157 0.10413295 2.8928546e-40
1.0145829 -0.017897157 0.10663295 3.8183281e-40
1.0145829 -0.015397158 0.10413295 8.4173476e-40
1.0145829 -0.012897157 0.099132948 1.9853036e-40
1.0145829 -0.012897157 0.10413295 5.6766461e-40
1.0095829 -0.017897157 0.11163295 7.4953913e-40
1.0095829 -0.015397158 0.10913295 8.4173476e-40
1.0095829 -0.015397158 0.11163295 1.1183174e-39
1.0120828 -0.017897157 0.10913295 3.8147968e-40
1.0120828 -0.015397158 0.10913295 9.339332e-40
1.0095829 -0.017897157 0.11413295 6.5986024e-40
1.0095829 -0.015397158 0.11413295 8.4138164e-40
1.0120828 -0.017897157 0.11413295 1.1175986e-39
1.0120828 -0.017897157 0.11663295 1.2097942e-39
1.0120828 -0.015397158 0.11413295 1.3019912e-39
1.0120828 -0.015397158 0.11663295 1.3019912e-39
1.0095829 -0.012897157 0.10913295 8.4209069e-40
1.0095829 -0.012897157 0.11163295 1.1175986e-39
1.0095829 -0.010397158 0.10913295 7.5206007e-40
1.0095829 -0.010397158 0.11163295 1.3941869e-39
1.0120828 -0.012897157 0.10913295 5.6730868e-40
1.0095829 -0.012897157 0.11413295 5.676618e-40
1.0095829 -0.012897157 0.11663295 1.0279211e-39
1.0095829 -0.010397158 0.11663295 1.1201195e-39
1.0120828 -0.012897157 0.11413295 1.0279211e-39
1.0120828 -0.012897157 0.11663295 1.211962e-39
1.0145829 -0.017897157 0.10913295 4.7367531e-40
1.0145829 -0.017897157 0.11163295 7.4953913e-40
1.0145829 -0.015397158 0.10913295 7.4953913e-40
1.0145829 -0.017897157 0.11413295 4.7367812e-40
1.0170828 -0.017897157 0.11413295 1.1183174e-39
1.0170828 -0.017897157 0.11663295 7.5096145e-40
1.0095829 -0.027897157 0.12163295 1.2123151e-39
1.0120828 -0.027897157 0.11913295 1.2097942e-39
1.0120828 -0.027897157 0.12163295 1.301994e-39
1.0120828 -0.025397157 0.11913295 1.3027101e-39
1.0120828 -0.025397157 0.12163295 1.3027101e-39
1.0095829 -0.027897157 0.12413295 1.1201195e-39
1.0120828 -0.027897157 0.12413295 2.9180359e-40
1.0120828 -0.027897157 0.12663294 1.9523983e-39
1.0145829 -0.027897157 0.11913295 7.5205447e-40
1.0145829 -0.025397157 0.11913295 1.2105145e-39
1.0145829 -0.025397157 0.12163295 1.1172427e-39
1.0170828 -0.025397157 0.12163295 1.3030632e-39
1.0145829 -0.027897157 0.12413295 8.4209069e-40
1.0145829 -0.027897157 0.12663294 2.1360637e-39
1.0145829 -0.025397157 0.12413295 1.9451956e-39
1.0145829 -0.025397157 0.12663294 1.9164158e-41
1.0170828 -0.027897157 0.12663294 6.3727313e-39
1.0170828 -0.025397157 0.12663294 3.9842951e-39
1.0145829 -0.022897158 0.11913295 1.2105145e-39
1.0145829 -0.022897158 0.12163295 1.3941869e-39
1.0145829 -0.020397156 0.11913295 7.5061113e-40
1.0145829 -0.020397156 0.12163295 1.303066e-39
1.0170828 -0.022897158 0.12163295 1.853e-39
1.0170828 -0.020397156 0.12163295 1.853e-39
1.0145829 -0.022897158 0.12413295 9.3393039e-40
1.0145829 -0.022897158 0.12663294 1.8445292e-41
1.0145829 -0.020397156 0.12663294 1.6654432e-41
1.0170828 -0.022897158 0.12413295 1.665163e-41
1.0170828 -0.022897158 0.12663294 3.7077082e-39
1.0170828 -0.020397156 0.12413295 1.5931362e-41
1.0170828 -0.020397156 0.12663294 3.980705e-39
1.0120828 -0.027897157 0.12913296 6.5553275e-39
1.0145829 -0.027897157 0.12913296 6.4599103e-39
1.0170828 -0.027897157 0.12913296 6.2780301e-39
1.0170828 -0.027897157 0.13163295 1.0633753e-40
1.0170828 -0.025397157 0.12913296 7.476223e-39
1.0170828 -0.025397157 0.13163295 2.8664415e-39
1.0170828 -0.022897158 0.12913296 6.8308536e-39
1.0170828 -0.022897158 0.13163295 3.8762816e-39
1.0170828 -0.020397156 0.12913296 6.4631472e-39
1.0170828 -0.020397156 0.13163295 3.2381023e-39
1.0095829 -0.010397158 0.12163295 1.6700689e-39
1.0120828 -0.012897157 0.11913295 1.6700535e-39
1.0120828 -0.012897157 0.12163295 1.761896e-39
1.0120828 -0.010397158 0.11913295 1.4878258e-39
1.0120828 -0.010397158 0.12163295 1.3038045e-39
1.0095829 -0.010397158 0.12413295 1.7376101e-41
1.0120828 -0.010397158 0.12413295 2.9611553e-39
1.0120828 -0.010397158 0.12663294 4.8958412e-39
1.0145829 -0.017897157 0.11913295 1.3019912e-39
1.0145829 -0.017897157 0.12163295 2.1285051e-39
1.0145829 -0.015397158 0.11913295 1.5785767e-39
1.0145829 -0.015397158 0.12163295 2.3132551e-39
1.0170828 -0.017897157 0.12163295 2.1281548e-39
1.0170828 -0.015397158 0.12163295 2.4969359e-39
1.0170828 -0.017897157 0.12413295 1.5232114e-41
1.0170828 -0.015397158 0.12413295 1.4871981e-41
1.0145829 -0.012897157 0.11913295 1.0268519e-39
1.0145829 -0.012897157 0.12163295 1.0282938e-39
1.0170828 -0.012897157 0.12163295 1.0297372e-39
1.0145829 -0.012897157 0.12413295 2.9576366e-40
1.0145829 -0.012897157 0.12663294 1.9172566e-41
1.0145829 -0.010397158 0.12413295 1.3995903e-39
1.0145829 -0.010397158 0.12663294 4.619606e-39
1.0170828 -0.012897157 0.12413295 1.739712e-41
1.0170828 -0.012897157 0.12663294 4.344796e-39
1.0170828 -0.010397158 0.12663294 7.1077978e-39
1.0120828 -0.010397158 0.12913296 7.5684186e-39
1.0170828 -0.015397158 0.12913296 5.9103294e-39
1.0170828 -0.015397158 0.13163295 5.818131e-39
1.0145829 -0.010397158 0.12913296 7.7542182e-39
1.0145829 -0.010397158 0.13163295 2.5066637e-39
1.0170828 -0.012897157 0.12913296 6.2783832e-39
1.0170828 -0.012897157 0.13163295 4.8947453e-39
1.0170828 -0.010397158 0.12913296 7.4779802e-39
1.0170828 -0.010397158 0.13163295 2.8757994e-39
1.0170828 -0.012897157 0.13413295 1.0336818e-39
1.0170828 -0.012897157 0.13663295 2.3172348e-39
1.0170828 -0.010397158 0.13413295 1.5222305e-41
1.0170828 -0.010397158 0.13663295 8.6635768e-39
1.0195829 -0.022897158 0.12663294 4.1658123e-39
1.0195829 -0.020397156 0.12663294 4.2562157e-39
1.0195829 -0.027897157 0.13163295 1.2688758e-41
1.0195829 -0.025397157 0.13163295 1.2337032e-41
1.0220828 -0.027897157 0.13163295 1.1253828e-41
1.0195829 -0.027897157 0.13413295 9.8664122e-39
1.0195829 -0.025397157 0.13413295 2.0406283e-39
1.0195829 -0.022897158 0.12913296 3.5118109e-39
1.0195829 -0.022897158 0.13163295 4.7367531e-40
1.0195829 -0.020397156 0.12913296 4.1564642e-39
1.0195829 -0.020397156 0.13163295 1.0268519e-39
1.0220828 -0.022897158 0.13163295 3.8147968e-40
1.0220828 -0.020397156 0.13163295 1.4845832e-39
1.0195829 -0.022897158 0.13413295 1.3970595e-39
1.0195829 -0.020397156 0.13413295 2.9108472e-40
1.0245829 -0.025397157 0.13413295 1.0878458e-38
1.0270828 -0.022897158 0.13163295 8.4842456e-39
1.0270828 -0.020397156 0.13163295 7.1081089e-39
1.0245829 -0.022897158 0.13413295 8.6682824e-39
1.0245829 -0.020397156 0.13413295 7.4736866e-39
1.0195829 -0.017897157 0.12663294 1.4993445e-39
1.0195829 -0.015397158 0.12663294 6.6994398e-40
1.0195829 -0.012897157 0.12663294 5.1706064e-39
1.0195829 -0.010397158 0.12663294 7.9368354e-39
1.0195829 -0.017897157 0.12913296 5.3546389e-39
1.0195829 -0.015397158 0.12913296 6.5528219e-39
1.0220828 -0.017897157 0.13163295 2.5034225e-39
1.0220828 -0.015397158 0.13163295 2.8722064e-39
1.0195829 -0.012897157 0.12913296 5.1716924e-39
1.0195829 -0.012897157 0.13163295 2.0503351e-39
1.0195829 -0.010397158 0.12913296 4.4344875e-39
1.0195829 -0.010397158 0.13163295 1.665163e-41
1.0220828 -0.012897157 0.13163295 2.6009907e-39
1.0220828 -0.010397158 0.13163295 3.9082074e-40
1.0195829 -0.012897157 0.13413295 9.8090893e-41
1.0195829 -0.010397158 0.13413295 1.8300958e-42
1.0220828 -0.012897157 0.13663295 1.7522227e-38
1.0270828 -0.017897157 0.13163295 1.8470515e-41
1.0270828 -0.015397158 0.13163295 1.2708376e-41
1.0245829 -0.017897157 0.13413295 1.7391515e-41
1.0245829 -0.015397158 0.13413295 1.1267841e-41
1.0245829 -0.015397158 0.13663295 1.2368648e-38
1.0245829 -0.012897157 0.13413295 9.4671724e-42
1.0245829 -0.012897157 0.13663295 1.7430034e-38
1.0245829 -0.010397158 0.13413295 2.0413696e-39
1.0245829 -0.010397158 0.13663295 1.8443827e-38
0.98958284 -0.0028971573 0.071632951 7.5063495e-40
0.98958284 -0.00039715736 0.071632951 8.4426831e-40
0.99208283 -0.0028971573 0.069132954 2.0388584e-39
0.99208283 -0.0028971573 0.071632951 9.3358287e-40
0.98958284 -0.0028971573 0.076632947 3.8436496e-40
0.98958284 -0.00039715736 0.076632947 3.8436496e-40
0.99208283 -0.0028971573 0.074132949 1.3780369e-41
0.99208283 -0.0028971573 0.076632947 1.070536e-40
0.99208283 -0.00039715736 0.074132949 1.5945375e-41
0.99208283 -0.00039715736 0.076632947 1.0850114e-40
0.99708283 -0.0078971572 0.071632951 1.2105397e-39
0.99708283 -0.0053971573 0.069132954 1.3020067e-39
0.99708283 -0.0053971573 0.071632951 2.9144766e-40
0.99458283 -0.0053971573 0.074132949 6.5844072e-40
0.99708283 -0.0053971573 0.076632947 2.9145046e-40
0.99458283 -0.0028971573 0.071632951 1.5585242e-41
0.99958283 -0.0078971572 0.071632951 7.5098668e-40
0.99958283 -0.0053971573 0.071632951 2.9180359e-40
1.0020828 -0.0078971572 0.069132954 1.7629806e-39
1.0020828 -0.0078971572 0.071632951 1.1194105e-39
1.0020828 -0.0053971573 0.069132954 2.0070097e-40
0.99958283 -0.0078971572 0.074132949 3.8292442e-40
0.99958283 -0.0078971572 0.076632947 2.9072879e-40
0.99958283 -0.0053971573 0.074132949 3.8292442e-40
1.0020828 -0.0078971572 0.076632947 3.8183281e-40
1.0045829 -0.0078971572 0.069132954 6.5844072e-40
1.0070828 -0.0078971572 0.071632951 1.9853316e-40
0.99208283 -0.0053971573 0.084132947 1.9853597e-40
0.98958284 -0.0028971573 0.079132952 3.8292723e-40
0.98958284 -0.0028971573 0.081632949 2.9072879e-40
0.98958284 -0.00039715736 0.079132952 5.6695835e-40
0.98958284 -0.00039715736 0.081632949 1.6305509e-41
0.99208283 -0.0028971573 0.081632949 1.0670327e-40
0.99208283 -0.00039715736 0.081632949 2.9037567e-40
0.98958284 -0.0028971573 0.084132947 2.9072879e-40
0.98958284 -0.00039715736 0.084132947 3.8292442e-40
0.99208283 -0.0028971573 0.084132947 1.450484e-41
0.99208283 -0.0028971573 0.086632952 1.4510446e-41
0.99208283 -0.00039715736 0.086632952 3.8292442e-40
0.99458283 -0.0053971573 0.079132952 2.9072879e-40
0.99458283 -0.0053971573 0.081632949 1.0670327e-40
0.99708283 -0.0078971572 0.079132952 6.5663725e-40
0.99708283 -0.0053971573 0.079132952 1.9853597e-40
0.99708283 -0.0053971573 0.081632949 1.5585242e-41
0.99458283 -0.0053971573 0.084132947 1.4510446e-41
0.99458283 -0.0053971573 0.086632952 1.9853597e-40
0.99708283 -0.0053971573 0.084132947 1.6294299e-41
0.99458283 -0.0028971573 0.079132952 3.8292442e-40
0.99458283 -0.0028971573 0.084132947 1.450484e-41
0.98958284 -0.0028971573 0.08913295 1.6305509e-41
0.98958284 -0.0028971573 0.091632947 4.7404386e-40
0.98958284 -0.00039715736 0.08913295 2.9072879e-40
0.99208283 -0.0028971573 0.08913295 1.9853597e-40
0.99208283 -0.0028971573 0.091632947 2.9072879e-40
0.98958284 -0.0028971573 0.09663295 1.0885427e-40
0.98958284 -0.00039715736 0.09663295 7.5098668e-40
0.99208283 -0.0028971573 0.094132952 5.6659542e-40
0.99208283 -0.0028971573 0.09663295 7.5098668e-40
0.99458283 -0.0053971573 0.08913295 1.0670047e-40
0.99708283 -0.0078971572 0.091632947 3.8363348e-40
0.99708283 -0.0053971573 0.08913295 1.9853597e-40
0.99708283 -0.0053971573 0.091632947 1.9853316e-40
0.99708283 -0.0078971572 0.09663295 1.9960235e-40
0.99708283 -0.0053971573 0.094132952 1.6655834e-41
0.99708283 -0.0053971573 0.09663295 4.7404105e-40
0.99458283 -0.0028971573 0.08913295 1.4855165e-41
0.99458283 -0.0028971573 0.091632947 1.9853597e-40
0.99458283 -0.0028971573 0.094132952 2.9072879e-40
0.99458283 -0.0028971573 0.09663295 6.5843512e-40
0.99708283 -0.0028971573 0.094132952 2.9072879e-40
0.99708283 -0.0028971573 0.09663295 2.9037567e-40
0.98958284 0.0021028426 0.079132952 6.5844072e-40
0.98958284 0.0021028426 0.081632949 2.010527e-40
0.98958284 0.0021028426 0.084132947 7.5098948e-40
0.98958284 0.0021028426 0.09663295 6.5986304e-40
0.99958283 -0.0078971572 0.081632949 6.5663725e-40
0.99958283 -0.0053971573 0.081632949 1.450484e-41
1.0020828 -0.0078971572 0.079132952 1.9853597e-40
0.99958283 -0.0053971573 0.086632952 1.4855165e-41
1.0020828 -0.0078971572 0.084132947 1.070536e-40
1.0020828 -0.0078971572 0.086632952 1.070536e-40
1.0045829 -0.0078971572 0.081632949 1.070536e-40
0.99958283 -0.0078971572 0.08913295 1.4857968e-41
0.99958283 -0.0053971573 0.08913295 1.4855165e-41
1.0020828 -0.0078971572 0.08913295 1.070536e-40
1.0020828 -0.0078971572 0.091632947 1.4857968e-41
0.99958283 -0.0078971572 0.094132952 4.7367812e-40
0.99958283 -0.0078971572 0.09663295 3.8328035e-40
0.99958283 -0.0053971573 0.094132952 1.0633753e-40
0.99958283 -0.0053971573 0.09663295 5.6659542e-40
1.0045829 -0.0078971572 0.094132952 1.450484e-41
1.0045829 -0.0078971572 0.09663295 1.450484e-41
0.98958284 -0.0028971573 0.099132948 6.5986304e-40
0.98958284 -0.00039715736 0.099132948 9.3502201e-40
0.98958284 -0.00039715736 0.10163295 3.8436216e-40
0.99208283 -0.0028971573 0.10163295 7.5206007e-40
0.99208283 -0.00039715736 0.10163295 7.5098948e-40
0.98958284 -0.00039715736 0.10413295 9.3502201e-40
0.98958284 -0.00039715736 0.10663295 9.350164e-40
0.99208283 -0.0028971573 0.10663295 5.6910794e-40
0.99208283 -0.00039715736 0.10663295 1.1201195e-39
0.99708283 -0.0078971572 0.099132948 3.8328035e-40
0.99708283 -0.0053971573 0.099132948 5.6623949e-40
0.99458283 -0.0053971573 0.10663295 1.0275708e-39
0.99708283 -0.0053971573 0.10413295 6.5843512e-40
0.99458283 -0.0028971573 0.099132948 9.3502201e-40
0.99708283 -0.0028971573 0.099132948 9.3502201e-40
0.99708283 -0.0028971573 0.10163295 9.3502201e-40
0.99458283 -0.0028971573 0.10413295 7.5206007e-40
0.99458283 -0.0028971573 0.10663295 1.0275652e-39
0.99458283 -0.00039715736 0.10413295 1.0275708e-39
0.99708283 -0.0028971573 0.10413295 9.350164e-40
0.99208283 -0.0053971573 0.11663295 1.3045108e-39
0.98958284 -0.0028971573 0.11163295 9.350164e-40
0.98958284 -0.00039715736 0.10913295 1.1201195e-39
0.98958284 -0.00039715736 0.11163295 1.0275708e-39
0.99208283 -0.0028971573 0.10913295 1.0275708e-39
0.99208283 -0.00039715736 0.10913295 1.0275708e-39
0.98958284 -0.0028971573 0.11663295 1.5800187e-39
0.98958284 -0.00039715736 0.11663295 1.4874699e-39
0.99208283 -0.0028971573 0.11413295 1.3952743e-39
0.99208283 -0.0028971573 0.11663295 1.5800215e-39
0.99208283 -0.00039715736 0.11413295 1.1197664e-39
0.99208283 -0.00039715736 0.11663295 1.5800215e-39
0.99708283 -0.0078971572 0.10913295 6.5986304e-40
0.99708283 -0.0078971572 0.11163295 6.5986304e-40
0.99708283 -0.0053971573 0.10913295 9.350164e-40
0.99708283 -0.0053971573 0.11163295 1.0275708e-39
0.99458283 -0.0053971573 0.11413295 1.2123151e-39
0.99708283 -0.0078971572 0.11413295 7.5206007e-40
0.99708283 -0.0078971572 0.11663295 1.0279211e-39
0.99708283 -0.0053971573 0.11413295 1.2123151e-39
0.99708283 -0.0053971573 0.11663295 1.3959805e-39
0.99458283 -0.0028971573 0.10913295 7.5098387e-40
0.99458283 -0.0028971573 0.11163295 1.0275708e-39
0.99458283 -0.00039715736 0.10913295 1.1197664e-39
0.99458283 -0.00039715736 0.11163295 1.3952743e-39
0.98958284 0.0021028426 0.10163295 1.0275708e-39
0.98958284 0.0021028426 0.10413295 9.350192e-40
0.98958284 0.0021028426 0.10663295 1.0275708e-39
0.98958284 0.0021028426 0.10913295 1.2123151e-39
0.98958284 0.0021028426 0.11163295 1.3956274e-39
0.98958284 0.0021028426 0.11663295 1.5803746e-39
0.99208283 0.0021028426 0.11413295 1.487823e-39
0.99958283 -0.0078971572 0.10163295 5.6730868e-40
0.99958283 -0.0053971573 0.099132948 8.4210611e-40
0.99958283 -0.0053971573 0.10163295 6.5843512e-40
1.0020828 -0.0078971572 0.099132948 7.4918601e-40
1.0020828 -0.0053971573 0.099132948 5.6730868e-40
0.99958283 -0.0078971572 0.10663295 6.5950991e-40
0.99958283 -0.0053971573 0.10663295 7.5098387e-40
1.0020828 -0.0078971572 0.10413295 5.6730868e-40
1.0020828 -0.0078971572 0.10663295 6.5986304e-40
1.0020828 -0.0053971573 0.10413295 6.5878824e-40
0.99958283 -0.0028971573 0.099132948 1.3949212e-39
0.99958283 -0.0028971573 0.10663295 9.350164e-40
1.0045829 -0.0078971572 0.10163295 1.450484e-41
1.0045829 -0.0078971572 0.10663295 7.5206007e-40
0.99958283 -0.0078971572 0.11163295 7.5206007e-40
0.99958283 -0.0053971573 0.11163295 1.1201195e-39
1.0020828 -0.0078971572 0.10913295 6.5986304e-40
1.0020828 -0.0078971572 0.11163295 1.0279211e-39
1.0020828 -0.0053971573 0.10913295 1.0275708e-39
0.99958283 -0.0078971572 0.11413295 7.5205447e-40
0.99958283 -0.0078971572 0.11663295 5.6801773e-40
1.0020828 -0.0078971572 0.11663295 1.2123151e-39
0.98958284 -0.00039715736 0.12163295 1.8558867e-39
0.99208283 -0.0028971573 0.11913295 2.1306729e-39
0.99208283 -0.0028971573 0.12163295 2.040278e-39
0.99208283 -0.00039715736 0.11913295 1.6725716e-39
0.99208283 -0.00039715736 0.12163295 2.040278e-39
0.98958284 -0.00039715736 0.12413295 2.9576366e-40
0.99208283 -0.00039715736 0.12663294 3.8813193e-39
0.99458283 -0.0053971573 0.11913295 1.6725688e-39
0.99708283 -0.0053971573 0.12163295 1.8569629e-39
0.99708283 -0.0053971573 0.12413295 1.6725716e-39
0.99458283 -0.0028971573 0.11913295 1.6725716e-39
0.99458283 -0.00039715736 0.11913295 2.040278e-39
0.99708283 -0.0028971573 0.12163295 1.8566098e-39
0.99708283 -0.00039715736 0.12163295 1.6722185e-39
0.99458283 -0.0028971573 0.12663294 1.029719e-39
0.99458283 -0.00039715736 0.12413295 1.3941897e-39
0.99458283 -0.00039715736 0.12663294 1.3063072e-39
0.99708283 -0.0028971573 0.12413295 1.9473635e-39
0.99708283 -0.0028971573 0.12663294 4.0664168e-39
0.99708283 -0.00039715736 0.12413295 7.5206007e-40
0.99708283 -0.00039715736 0.12663294 7.2932638e-39
0.98958284 -0.00039715736 0.12913296 3.8813193e-39
0.99208283 -0.00039715736 0.12913296 7.4765733e-39
0.99458283 -0.00039715736 0.12913296 8.8583979e-39
0.99458283 -0.00039715736 0.13163295 3.1523891e-39
0.99708283 -0.0028971573 0.12913296 6.0925697e-39
0.99708283 -0.0028971573 0.13163295 6.2773281e-39
0.99708283 -0.00039715736 0.12913296 8.1208735e-39
0.99708283 -0.00039715736 0.13163295 6.0907704e-39
0.99458283 -0.00039715736 0.13663295 2.8777766e-40
0.99708283 -0.00039715736 0.13413295 1.449363e-41
0.99208283 0.0021028426 0.11913295 1.5800215e-39
0.99208283 0.0021028426 0.12163295 1.9473635e-39
0.99458283 0.0021028426 0.12663294 3.69837e-39
0.98958284 0.0021028426 0.12913296 7.1081509e-39
0.98958284 0.0021028426 0.13163295 6.737897e-39
0.98958284 0.0046028425 0.12913296 3.7066558e-39
0.98958284 0.0046028425 0.13163295 1.3124435e-39
0.99208283 0.0021028426 0.12913296 6.9234023e-39
0.98958284 0.0021028426 0.13413295 1.3787376e-41
0.98958284 0.0021028426 0.13663295 1.5934165e-41
0.98958284 0.0046028425 0.13413295 1.3365585e-41
0.98958284 0.0046028425 0.13663295 5.3438307e-39
0.99208283 0.0021028426 0.13413295 1.3417433e-41
0.99208283 0.0046028425 0.13413295 1.4459999e-41
0.98958284 0.0071028424 0.13413295 6.1043966e-39
0.98958284 0.0071028424 0.13663295 1.3825829e-38
0.98958284 0.0096028429 0.13413295 2.0557124e-38
0.98958284 0.0096028429 0.13663295 2.304348e-38
0.99208283 0.0071028424 0.13413295 6.1029743e-39
0.99208283 0.0096028429 0.13413295 2.1017383e-38
0.99458283 0.0021028426 0.12913296 6.0936206e-39
0.99458283 0.0021028426 0.13163295 1.3430044e-41
0.99458283 0.0046028425 0.13163295 1.4095661e-41
0.99708283 0.0021028426 0.13163295 3.1520359e-39
0.99458283 0.0046028425 0.13663295 2.0185805e-38
0.99708283 0.0021028426 0.13413295 1.4855165e-41
0.99708283 0.0046028425 0.13413295 5.3434803e-39
0.99458283 0.0071028424 0.13663295 2.2490339e-38
0.99458283 0.0096028429 0.13663295 2.2856585e-38
0.99708283 0.0071028424 0.13413295 1.4010576e-38
0.99958283 -0.0078971572 0.11913295 1.2123151e-39
0.99958283 -0.0053971573 0.11913295 1.5803746e-39
0.99958283 -0.0053971573 0.12163295 1.6725716e-39
1.0020828 -0.0078971572 0.11913295 1.2123151e-39
1.0020828 -0.0053971573 0.11913295 1.4881762e-39
0.99958283 -0.0053971573 0.12663294 4.7907872e-40
1.0020828 -0.0053971573 0.12413295 1.0300875e-39
0.99958283 -0.0028971573 0.12663294 4.0660609e-39
1.0045829 -0.0078971572 0.11913295 1.5800215e-39
1.0045829 -0.0078971572 0.12163295 1.5800215e-39
1.0045829 -0.0053971573 0.11913295 1.7622491e-39
1.0045829 -0.0053971573 0.12163295 1.3970735e-39
1.0070828 -0.0078971572 0.11913295 1.8569629e-39
1.0045829 -0.0078971572 0.12413295 1.2090908e-39
1.0045829 -0.0053971573 0.12413295 2.0177016e-40
1.0045829 -0.0053971573 0.12663294 4.7910535e-40
1.0070828 -0.0053971573 0.12413295 1.4907223e-39
1.0070828 -0.0053971573 0.12663294 7.3858098e-39
0.99958283 -0.0053971573 0.12913296 2.043187e-39
0.99958283 -0.0028971573 0.12913296 6.6439442e-39
0.99958283 -0.00039715736 0.12913296 5.9071036e-39
1.0020828 -0.0028971573 0.13163295 4.8100901e-39
1.0020828 -0.00039715736 0.13163295 1.9538178e-39
1.0020828 -0.0028971573 0.13663295 7.756187e-42
1.0020828 -0.00039715736 0.13663295 8.1163207e-42
1.0045829 -0.0053971573 0.12913296 7.3861629e-39
1.0070828 -0.0053971573 0.12913296 7.2014003e-39
1.0070828 -0.0053971573 0.13163295 7.5638868e-40
1.0045829 -0.0053971573 0.13663295 8.1140968e-39
1.0045829 -0.0028971573 0.12913296 6.6446687e-39
1.0045829 -0.00039715736 0.12913296 2.5977649e-39
1.0070828 -0.0028971573 0.12913296 4.2601603e-39
1.0070828 -0.0028971573 0.13163295 4.7404386e-40
1.0070828 -0.00039715736 0.13163295 9.1056374e-42
1.0045829 -0.0028971573 0.13413295 7.7617922e-42
1.0045829 -0.0028971573 0.13663295 1.6590169e-38
1.0045829 -0.00039715736 0.13413295 7.7519831e-42
1.0045829 -0.00039715736 0.13663295 1.7797372e-38
0.99958283 0.0021028426 0.13163295 3.8363348e-40
1.0020828 0.0021028426 0.13163295 3.7745516e-40
1.0020828 0.0046028425 0.13163295 2.0092892e-38
0.99958283 0.0021028426 0.13413295 4.7037105e-40
0.99958283 0.0046028425 0.13413295 1.9817744e-38
1.0020828 0.0021028426 0.13663295 1.0875154e-38
1.0020828 0.0046028425 0.13663295 2.2027916e-38
1.0020828 0.0071028424 0.13163295 2.2581815e-38
1.0070828 0.0021028426 0.13163295 3.7925442e-40
1.0070828 0.0046028425 0.13163295 1.9908861e-38
1.0045829 0.0021028426 0.13413295 1.0598577e-38
1.0045829 0.0021028426 0.13663295 2.3413368e-38
1.0045829 0.0046028425 0.13413295 2.2119748e-38
0.98958284 0.012102842 0.13163295 1.4653713e-38
0.98958284 0.012102842 0.13413295 2.3226092e-38
0.98958284 0.012102842 0.13663295 2.3503025e-38
0.98958284 0.014602843 0.13413295 2.3133896e-38
0.99208283 0.012102842 0.13413295 2.3225736e-38
0.99458283 0.012102842 0.13663295 2.2580707e-38
1.0095829 -0.0078971572 0.12163295 9.3502201e-40
1.0095829 -0.0078971572 0.12413295 1.113724e-40
1.0095829 -0.0053971573 0.12413295 1.4900133e-39
1.0120828 -0.0078971572 0.12413295 6.5571449e-39
1.0120828 -0.0078971572 0.12663294 7.5695144e-39
1.0120828 -0.0053971573 0.12413295 7.2939673e-39
1.0120828 -0.0053971573 0.12663294 8.7683659e-39
1.0120828 -0.0028971573 0.12663294 7.7545895e-39
1.0145829 -0.0078971572 0.12663294 7.6599122e-39
1.0145829 -0.0053971573 0.12663294 8.5843502e-39
1.0170828 -0.0078971572 0.12663294 6.9216045e-39
1.0170828 -0.0053971573 0.12663294 3.7981214e-39
1.0095829 -0.0053971573 0.12913296 6.659755e-40
1.0095829 -0.0053971573 0.13163295 2.0593482e-41
1.0120828 -0.0078971572 0.12913296 6.4624312e-39
1.0120828 -0.0053971573 0.12913296 3.4318444e-39
1.0095829 -0.0053971573 0.13413295 2.6921116e-39
1.0095829 -0.0053971573 0.13663295 9.3108225e-39
1.0120828 -0.0078971572 0.13413295 1.3783172e-41
1.0120828 -0.0078971572 0.13663295 9.2379634e-39
1.0120828 -0.0053971573 0.13413295 1.3396413e-41
1.0120828 -0.0053971573 0.13663295 1.8529527e-38
1.0095829 -0.0028971573 0.12913296 2.0070097e-40
1.0095829 -0.0028971573 0.13163295 1.0979173e-41
1.0095829 -0.00039715736 0.12913296 3.7204474e-42
1.0095829 -0.00039715736 0.13163295 7.04713e-42
1.0120828 -0.0028971573 0.12913296 1.8616502e-39
1.0095829 -0.0028971573 0.13413295 1.0421719e-38
1.0095829 -0.0028971573 0.13663295 1.6682355e-38
1.0095829 -0.00039715736 0.13413295 1.8073956e-38
1.0095829 -0.00039715736 0.13663295 2.2029701e-38
1.0120828 -0.0028971573 0.13413295 1.0606469e-38
1.0120828 -0.0028971573 0.13663295 2.3509521e-38
1.0120828 -0.00039715736 0.13413295 1.8165433e-38
1.0145829 -0.0078971572 0.12913296 5.6337173e-39
1.0145829 -0.0078971572 0.13163295 1.4133496e-41
1.0145829 -0.0053971573 0.12913296 1.2238184e-39
1.0145829 -0.0053971573 0.13163295 1.7704005e-41
1.0170828 -0.0078971572 0.12913296 6.1854463e-39
1.0170828 -0.0078971572 0.13163295 1.3417433e-41
1.0170828 -0.0053971573 0.12913296 1.3131442e-39
1.0170828 -0.0053971573 0.13163295 1.5546005e-41
1.0170828 -0.0078971572 0.13413295 1.5211095e-41
1.0170828 -0.0053971573 0.13413295 3.5946949e-39
1.0145829 -0.0028971573 0.12913296 1.9158553e-41
1.0145829 -0.0028971573 0.13163295 2.1446859e-39
1.0145829 -0.00039715736 0.13163295 1.7891007e-38
1.0170828 -0.0028971573 0.13163295 2.600269e-39
1.0170828 -0.0028971573 0.13413295 1.6590525e-38
1.0170828 -0.00039715736 0.13413295 2.2122262e-38
1.0095829 0.0021028426 0.12913296 4.6965499e-40
1.0095829 0.0021028426 0.13163295 1.0874791e-38
1.0095829 0.0046028425 0.12913296 2.0093252e-38
1.0095829 0.0046028425 0.13163295 2.2120462e-38
1.0095829 0.0021028426 0.13413295 2.3413368e-38
1.0095829 0.0021028426 0.13663295 2.3506993e-38
1.0120828 0.0021028426 0.13413295 2.3506992e-38
1.0120828 0.0021028426 0.13663295 2.3509886e-38
1.0170828 0.0021028426 0.13413295 2.3505547e-38
1.0170828 0.0046028425 0.13413295 2.3509149e-38
1.0195829 -0.0078971572 0.13163295 1.5931362e-41
1.0195829 -0.0053971573 0.13163295 2.3975922e-39
1.0195829 -0.0078971572 0.13413295 9.5120252e-39
1.0195829 -0.0053971573 0.13413295 1.8436975e-38
1.0195829 -0.0028971573 0.13163295 8.5747008e-39
1.0195829 -0.0028971573 0.13413295 2.2678333e-38
0.90708286 -0.095397159 0.13913295 5.6730868e-40
0.90708286 -0.092897154 0.13913295 2.1306729e-39
0.91208285 -0.10289716 0.13913295 7.567327e-39
0.91208285 -0.10039715 0.13913295 8.2126964e-39
0.90958285 -0.095397159 0.13913295 8.3923064e-40
0.91208285 -0.097897157 0.13913295 5.6875762e-40
0.91208285 -0.095397159 0.13913295 4.7330117e-40
0.95208281 -0.11789716 0.13913295 2.775678e-39
0.95208281 -0.11539716 0.13913295 1.3977602e-39
0.95458281 -0.11789716 0.13913295 1.1604482e-38
0.95458281 -0.11539716 0.13913295 9.4890425e-39
0.95708281 -0.11789716 0.13913295 1.1697364e-38
0.95708281 -0.11539716 0.13913295 9.4901145e-39
0.99458283 -0.067897156 0.13913295 2.3409033e-38
0.99458283 -0.065397158 0.13913295 2.267106e-38
0.99458283 -0.062897161 0.13913295 2.0181117e-38
0.99958283 -0.067897156 0.13913295 2.3040608e-38
0.99958283 -0.065397158 0.13913295 2.3500878e-38
0.99958283 -0.062897161 0.13913295 2.3040257e-38
0.99958283 -0.060397156 0.13913295 2.3500878e-38
0.97708285 -0.00039715736 0.14663295 2.3044945e-38
0.97708285 0.0021028426 0.14663295 2.3508804e-38
0.97708285 0.0046028425 0.14663295 2.2028269e-38
0.97708285 0.0071028424 0.14663295 2.3224995e-38
0.98208284 -0.0028971573 0.14663295 2.1569093e-38
0.98208284 -0.00039715736 0.14663295 2.350627e-38
0.98708284 -0.00039715736 0.14413296 1.8166152e-38
0.98208284 -0.00039715736 0.14913295 2.3509886e-38
0.97958285 0.0046028425 0.14163294 1.9908861e-38
0.98208284 0.0021028426 0.14163294 1.2180295e-38
0.98208284 0.0046028425 0.14163294 2.0093255e-38
0.97958285 0.0021028426 0.14413296 1.7975296e-38
0.97958285 0.0046028425 0.14663295 2.3509517e-38
0.98208284 0.0021028426 0.14413296 2.3506281e-38
0.98208284 0.0046028425 0.14413296 2.2028272e-38
0.98208284 0.0046028425 0.14663295 2.3509876e-38
0.97958285 0.0071028424 0.14163294 2.3502677e-38
0.97958285 0.0071028424 0.14663295 2.3505909e-38
0.98208284 0.0071028424 0.14413296 2.3409023e-38
0.98208284 0.0071028424 0.14663295 2.3509879e-38
0.98458284 0.0046028425 0.13913295 5.0668921e-39
0.98708284 0.0021028426 0.13913295 1.2549796e-38
0.98708284 0.0021028426 0.14163294 1.8343709e-38
0.98458284 0.0021028426 0.14663295 2.3509146e-38
0.98458284 0.0071028424 0.13913295 1.9356022e-38
0.98458284 0.0096028429 0.13913295 2.3136043e-38
0.98708284 0.0096028429 0.13913295 2.2763666e-38
0.97958285 0.0021028426 0.14913295 2.3509877e-38
0.97958285 0.0046028425 0.14913295 2.3509877e-38
0.98208284 0.0021028426 0.14913295 2.3509886e-38
0.98208284 0.0046028425 0.14913295 2.350988e-38
0.98208284 0.0046028425 0.15163295 2.3509877e-38
0.98208284 0.0071028424 0.14913295 2.3509874e-38
0.98208284 0.0071028424 0.15163295 2.3509877e-38
0.98458284 0.0021028426 0.14913295 2.3509886e-38
0.98708284 0.0021028426 0.14913295 2.3509881e-38
0.98958284 -0.00039715736 0.14163294 1.0875863e-38
0.98958284 -0.00039715736 0.14663295 2.3509886e-38
0.98958284 -0.00039715736 0.14913295 2.3509886e-38
1.0045829 -0.0053971573 0.13913295 2.2493939e-38
1.0045829 -0.0053971573 0.14163294 2.3508777e-38
1.0045829 -0.0028971573 0.13913295 2.3508804e-38
1.0045829 -0.0028971573 0.14163294 2.3509884e-38
0.87958282 0.032102842 0.076632947 4.1524537e-39
0.88208282 0.032102842 0.074132949 3.0471796e-39
0.88208282 0.032102842 0.076632947 3.3266559e-39
0.88208282 0.034602843 0.076632947 4.0602581e-39
0.88458282 0.032102842 0.071632951 3.5974793e-39
0.88708282 0.032102842 0.071632951 2.6812893e-39
0.88708282 0.034602843 0.071632951 3.0475327e-39
0.88708282 0.034602843 0.074132949 3.1429779e-39
0.88458282 0.037102841 0.076632947 3.9723757e-39
0.88708282 0.037102841 0.074132949 4.059905e-39
0.88708282 0.037102841 0.076632947 3.695793e-39
0.88708282 0.039602842 0.076632947 4.2493185e-39
0.87708282 0.032102842 0.079132952 3.3266531e-39
0.87708282 0.032102842 0.081632949 4.0660202e-39
0.87708282 0.034602843 0.081632949 4.0660202e-39
0.87708282 0.032102842 0.084132947 4.3429813e-39
0.87708282 0.032102842 0.086632952 4.8032406e-39
0.87708282 0.034602843 0.084132947 4.2507856e-39
0.87708282 0.032102842 0.08913295 4.5277397e-39
0.87958282 0.032102842 0.079132952 4.0645741e-39
0.87958282 0.032102842 0.081632949 4.0660202e-39
0.87958282 0.034602843 0.079132952 3.7883473e-39
0.87958282 0.034602843 0.081632949 3.9734771e-39
0.88208282 0.032102842 0.079132952 3.51105e-39
0.88208282 0.034602843 0.079132952 3.6957986e-39
0.87958282 0.032102842 0.086632952 4.6202912e-39
0.87958282 0.034602843 0.086632952 4.5280956e-39
0.87958282 0.037102841 0.081632949 4.068174e-39
0.88208282 0.037102841 0.079132952 4.2493185e-39
0.88208282 0.037102841 0.081632949 4.068174e-39
0.87958282 0.037102841 0.086632952 4.803235e-39
0.88208282 0.037102841 0.084132947 4.8954306e-39
0.88208282 0.037102841 0.086632952 4.6202884e-39
0.88458282 0.037102841 0.081632949 4.8954334e-39
0.88458282 0.039602842 0.079132952 4.0667265e-39
0.88458282 0.039602842 0.081632949 4.3444302e-39
0.88708282 0.039602842 0.079132952 5.7183319e-39
0.88708282 0.039602842 0.081632949 4.5295179e-39
0.88458282 0.037102841 0.084132947 4.620294e-39
0.88458282 0.037102841 0.086632952 4.6199381e-39
0.88458282 0.039602842 0.084132947 4.5284487e-39
0.88708282 0.037102841 0.086632952 4.6199381e-39
0.88708282 0.039602842 0.084132947 4.4380482e-39
0.88708282 0.039602842 0.086632952 4.6210073e-39
0.87958282 0.032102842 0.091632947 4.0674832e-39
0.87958282 0.034602843 0.08913295 4.5277425e-39
0.88208282 0.032102842 0.08913295 4.3429953e-39
0.88208282 0.032102842 0.091632947 2.598474e-39
0.88208282 0.034602843 0.08913295 4.1596802e-39
0.88208282 0.034602843 0.091632947 2.9668964e-39
0.87958282 0.032102842 0.094132952 3.059092e-39
0.88208282 0.032102842 0.09663295 6.3803291e-39
0.87958282 0.037102841 0.08913295 4.6199381e-39
0.88208282 0.037102841 0.08913295 4.159683e-39
0.88208282 0.037102841 0.091632947 3.2416854e-39
0.88708282 0.034602843 0.091632947 4.1704982e-39
0.88458282 0.032102842 0.094132952 5.6434661e-39
0.88458282 0.032102842 0.09663295 4.3581545e-39
0.88458282 0.034602843 0.094132952 4.8137055e-39
0.88708282 0.032102842 0.094132952 5.3679849e-39
0.88708282 0.034602843 0.094132952 6.3785298e-39
0.88458282 0.037102841 0.08913295 4.4355468e-39
0.88708282 0.037102841 0.08913295 3.4246347e-39
0.88708282 0.037102841 0.091632947 7.0155994e-39
0.88708282 0.039602842 0.08913295 3.4249878e-39
0.88458282 0.037102841 0.094132952 6.7408103e-39
0.88708282 0.037102841 0.094132952 6.5629015e-39
0.88708282 0.042102844 0.081632949 3.5153674e-39
0.88708282 0.044602841 0.081632949 3.5132024e-39
0.88458282 0.042102844 0.084132947 4.71284e-39
0.88708282 0.042102844 0.084132947 4.4380482e-39
0.88708282 0.042102844 0.086632952 4.7132029e-39
0.88708282 0.044602841 0.084132947 4.713912e-39
0.88708282 0.044602841 0.086632952 4.9883647e-39
0.88708282 0.049602844 0.084132947 4.9883353e-39
0.88708282 0.042102844 0.08913295 3.4249878e-39
0.88708282 0.044602841 0.08913295 4.3440771e-39
0.89458281 0.034602843 0.066632949 3.6896805e-39
0.89458281 0.037102841 0.066632949 3.3237721e-39
0.88958281 0.032102842 0.069132954 2.6812893e-39
0.88958281 0.034602843 0.069132954 3.2319239e-39
0.88958281 0.034602843 0.071632951 2.8656834e-39
0.89208281 0.034602843 0.069132954 3.7822293e-39
0.88958281 0.037102841 0.071632951 2.8656834e-39
0.89208281 0.037102841 0.071632951 3.4188516e-39
0.89208281 0.039602842 0.071632951 3.9723757e-39
0.88958281 0.039602842 0.074132949 4.7056247e-39
0.88958281 0.039602842 0.076632947 4.7981763e-39
0.89458281 0.039602842 0.069132954 3.7836782e-39
0.89458281 0.039602842 0.071632951 4.1567697e-39
0.89708287 0.039602842 0.069132954 4.1524537e-39
0.89208281 0.042102844 0.071632951 4.7052562e-39
0.89208281 0.042102844 0.074132949 3.6925462e-39
0.89208281 0.042102844 0.076632947 4.9804165e-39
0.89208281 0.044602841 0.076632947 2.0333864e-39
0.89458281 0.042102844 0.069132954 4.6111912e-39
0.89458281 0.042102844 0.071632951 4.6134165e-39
0.89458281 0.044602841 0.071632951 5.4426432e-42
0.89708287 0.042102844 0.069132954 4.7033868e-39
0.89708287 0.044602841 0.071632951 2.2182555e-42
0.89458281 0.044602841 0.076632947 2.3081908e-39
0.89458281 0.047102842 0.071632951 5.6051939e-44
0.89708287 0.047102842 0.071632951 3.3631163e-44
0.89708287 0.049602844 0.071632951 7.4268819e-44
0.89458281 0.047102842 0.076632947 1.395214e-39
0.89708287 0.047102842 0.074132949 4.0035097e-42
0.89708287 0.049602844 0.076632947 1.2366459e-41
0.89958286 0.039602842 0.066632949 3.7836782e-39
0.89958286 0.042102844 0.066632949 4.7955825e-39
0.90208286 0.044602841 0.066632949 2.5829448e-39
0.90208286 0.047102842 0.066632949 9.8090893e-45
0.89958286 0.044602841 0.069132954 2.4904157e-39
0.89958286 0.049602844 0.071632951 5.4594588e-42
0.90208286 0.047102842 0.069132954 4.6242849e-44
0.90208286 0.049602844 0.069132954 6.7262326e-44
0.90208286 0.049602844 0.071632951 1.3732725e-41
0.90208286 0.049602844 0.074132949 3.8328035e-40
0.90458286 0.049602844 0.069132954 7.5670117e-44
0.88958281 0.034602843 0.091632947 6.1948645e-39
0.89208281 0.034602843 0.091632947 4.724063e-39
0.88958281 0.034602843 0.094132952 5.6449305e-39
0.89208281 0.032102842 0.094132952 5.5455476e-39
0.89208281 0.034602843 0.094132952 6.7440908e-39
0.88958281 0.037102841 0.08913295 6.37023e-39
0.88958281 0.037102841 0.091632947 6.8373374e-39
0.88958281 0.039602842 0.08913295 4.8968949e-39
0.88958281 0.039602842 0.091632947 5.8242588e-39
0.89208281 0.037102841 0.091632947 4.5414542e-39
0.89208281 0.039602842 0.091632947 4.4492586e-39
0.88958281 0.037102841 0.094132952 4.8180411e-39
0.88958281 0.039602842 0.094132952 5.9182551e-39
0.89208281 0.037102841 0.094132952 6.7462376e-39
0.89208281 0.037102841 0.09663295 3.0566173e-39
0.89208281 0.039602842 0.094132952 7.2057738e-39
0.89208281 0.039602842 0.09663295 3.1524045e-39
0.89458281 0.032102842 0.094132952 4.9937947e-39
0.89458281 0.034602843 0.094132952 1.1241244e-39
0.89458281 0.037102841 0.094132952 6.8387891e-39
0.89458281 0.039602842 0.094132952 6.6540377e-39
0.89708287 0.037102841 0.094132952 2.1339506e-39
0.89708287 0.039602842 0.09663295 1.0358707e-39
0.88958281 0.042102844 0.079132952 4.9807669e-39
0.88958281 0.044602841 0.079132952 2.9628999e-39
0.88958281 0.044602841 0.081632949 4.8983046e-39
0.88958281 0.044602841 0.084132947 5.2653103e-39
0.88958281 0.044602841 0.086632952 4.8050524e-39
0.88958281 0.047102842 0.079132952 7.5135101e-40
0.88958281 0.047102842 0.081632949 5.4486044e-39
0.88958281 0.049602844 0.081632949 4.8954306e-39
0.89208281 0.047102842 0.079132952 1.303024e-39
0.89208281 0.049602844 0.079132952 4.8954306e-39
0.88958281 0.047102842 0.084132947 5.4496988e-39
0.88958281 0.047102842 0.086632952 4.6217374e-39
0.88958281 0.049602844 0.084132947 4.6199381e-39
0.88958281 0.049602844 0.086632952 4.2529535e-39
0.89208281 0.049602844 0.084132947 4.1603893e-39
0.89458281 0.049602844 0.079132952 5.3553367e-39
0.88958281 0.042102844 0.08913295 4.1593299e-39
0.88958281 0.042102844 0.091632947 4.6260744e-39
0.88958281 0.044602841 0.08913295 4.9862025e-39
0.88958281 0.044602841 0.091632947 4.4387909e-39
0.89208281 0.044602841 0.08913295 4.8947271e-39
0.89208281 0.044602841 0.091632947 6.9302421e-39
0.88958281 0.042102844 0.094132952 6.8402114e-39
0.88958281 0.044602841 0.094132952 6.9291673e-39
0.89208281 0.042102844 0.094132952 7.5745549e-39
0.89208281 0.042102844 0.09663295 4.5353403e-39
0.89208281 0.044602841 0.094132952 7.9418927e-39
0.89208281 0.044602841 0.09663295 4.4427775e-39
0.88958281 0.047102842 0.08913295 4.8057741e-39
0.88958281 0.047102842 0.091632947 3.9774582e-39
0.88958281 0.049602844 0.091632947 3.0555033e-39
0.89208281 0.047102842 0.08913295 4.3473169e-39
0.89208281 0.047102842 0.091632947 5.7334953e-39
0.89208281 0.049602844 0.08913295 3.3306454e-39
0.89208281 0.049602844 0.091632947 2.322257e-39
0.88958281 0.047102842 0.094132952 5.8242462e-39
0.88958281 0.049602844 0.094132952 3.1505716e-39
0.89208281 0.047102842 0.094132952 6.9277351e-39
0.89208281 0.047102842 0.09663295 4.0779355e-39
0.89208281 0.049602844 0.094132952 3.0594718e-39
0.89208281 0.049602844 0.09663295 2.1418287e-39
0.89458281 0.042102844 0.094132952 4.2576772e-39
0.89458281 0.044602841 0.094132952 7.9418927e-39
0.89458281 0.044602841 0.09663295 2.9698125e-39
0.89708287 0.042102844 0.09663295 1.2202633e-39
0.89708287 0.044602841 0.09663295 2.6932256e-39
0.89458281 0.047102842 0.094132952 6.1941232e-39
0.89458281 0.047102842 0.09663295 3.0673933e-39
0.89458281 0.049602844 0.094132952 3.243856e-39
0.89458281 0.049602844 0.09663295 1.4082321e-39
0.89708287 0.047102842 0.09663295 3.6169741e-39
0.89708287 0.049602844 0.09663295 4.5222998e-39
0.89958286 0.039602842 0.09663295 1.0275904e-39
0.90708286 0.042102844 0.09663295 1.9502487e-39
0.90708286 0.052102841 0.066632949 4.0399435e-42
0.90458286 0.052102841 0.069132954 1.1933458e-41
0.90458286 0.052102841 0.071632951 1.3776165e-41
0.90708286 0.052102841 0.069132954 9.4265348e-42
0.88958281 0.052102841 0.084132947 1.6501942e-38
0.88958281 0.052102841 0.086632952 1.6133529e-38
0.89208281 0.052102841 0.084132947 7.0065147e-39
0.89208281 0.052102841 0.086632952 6.3622243e-39
0.88958281 0.052102841 0.091632947 1.5212299e-38
0.89208281 0.052102841 0.08913295 1.5397409e-38
0.89208281 0.052102841 0.091632947 1.4753839e-38
0.89208281 0.054602843 0.091632947 1.9080167e-38
0.88958281 0.052102841 0.094132952 1.4293585e-38
0.89208281 0.052102841 0.094132952 1.3923723e-38
0.89208281 0.052102841 0.09663295 1.2636231e-38
0.89208281 0.054602843 0.09663295 1.8342246e-38
0.89708287 0.054602843 0.091632947 1.9356396e-38
0.89458281 0.052102841 0.094132952 1.4291784e-38
0.89458281 0.052102841 0.09663295 1.2359294e-38
0.89458281 0.054602843 0.094132952 1.8711027e-38
0.89458281 0.054602843 0.09663295 1.7327734e-38
0.89708287 0.052102841 0.09663295 1.1621005e-38
0.89708287 0.054602843 0.09663295 1.6591604e-38
0.89458281 0.057102844 0.094132952 2.0646776e-38
0.89708287 0.057102844 0.09663295 2.0739331e-38
0.89708287 0.039602842 0.099132948 7.5387335e-40
0.89458281 0.044602841 0.099132948 4.0725629e-39
0.89708287 0.042102844 0.099132948 1.0850394e-40
0.89708287 0.044602841 0.099132948 1.396003e-39
0.89458281 0.047102842 0.099132948 3.6180461e-39
0.89458281 0.047102842 0.10163295 4.0783054e-39
0.89458281 0.049602844 0.099132948 2.3273073e-39
0.89458281 0.049602844 0.10163295 2.2343928e-39
0.89708287 0.047102842 0.099132948 3.8939184e-39
0.89708287 0.047102842 0.10163295 2.9741257e-39
0.89708287 0.049602844 0.099132948 2.3265913e-39
0.89708287 0.049602844 0.10163295 1.1302131e-39
0.89708287 0.047102842 0.10413295 3.2492734e-39
0.89708287 0.049602844 0.10413295 1.4053608e-39
0.89708287 0.047102842 0.11163295 1.7712511e-39
0.89708287 0.049602844 0.11163295 4.7941531e-39
0.89708287 0.049602844 0.11413295 4.9807725e-39
0.89958286 0.039602842 0.099132948 1.1219342e-39
0.89958286 0.039602842 0.10163295 1.5821865e-39
0.90208286 0.039602842 0.099132948 1.3059597e-39
0.90208286 0.039602842 0.10163295 1.5821865e-39
0.90458286 0.039602842 0.099132948 1.6736632e-39
0.90708286 0.039602842 0.10163295 1.5825424e-39
0.90708286 0.039602842 0.10413295 1.0315308e-39
0.89958286 0.042102844 0.099132948 4.7656479e-40
0.89958286 0.042102844 0.10163295 1.1215671e-39
0.89958286 0.044602841 0.10163295 2.3179565e-39
0.90208286 0.042102844 0.099132948 1.489272e-39
0.90208286 0.042102844 0.10163295 1.1215671e-39
0.90208286 0.044602841 0.099132948 1.5843571e-39
0.90208286 0.044602841 0.10163295 2.6849285e-39
0.89958286 0.044602841 0.10413295 2.5931014e-39
0.89958286 0.047102842 0.10163295 2.6986178e-39
0.89958286 0.049602844 0.10163295 6.7031252e-40
0.89958286 0.047102842 0.10413295 1.870655e-39
0.89958286 0.047102842 0.10663295 2.6939473e-39
0.89958286 0.049602844 0.10413295 3.5074346e-39
0.89958286 0.049602844 0.10663295 5.7344777e-40
0.90208286 0.047102842 0.10413295 2.4184366e-39
0.90208286 0.047102842 0.10663295 2.2340397e-39
0.90208286 0.049602844 0.10413295 7.5783762e-40
0.90208286 0.049602844 0.10663295 1.3109974e-39
0.90458286 0.042102844 0.099132948 1.396726e-39
0.90708286 0.042102844 0.099132948 1.6733129e-39
0.90708286 0.042102844 0.10163295 1.6722311e-39
0.90708286 0.044602841 0.10163295 2.0420926e-39
0.90458286 0.042102844 0.10413295 1.3059569e-39
0.90458286 0.042102844 0.10663295 8.4713957e-40
0.90458286 0.044602841 0.10413295 2.2253881e-39
0.90458286 0.044602841 0.10663295 3.6101274e-39
0.90708286 0.042102844 0.10413295 1.30631e-39
0.90708286 0.042102844 0.10663295 9.3826881e-40
0.90708286 0.044602841 0.10413295 2.2253909e-39
0.90708286 0.044602841 0.10663295 2.134626e-39
0.90458286 0.047102842 0.10413295 2.9708859e-39
0.90458286 0.047102842 0.10663295 2.6013831e-39
0.90708286 0.047102842 0.10413295 3.9767491e-39
0.90708286 0.047102842 0.10663295 2.8765252e-39
0.90708286 0.049602844 0.10663295 2.0467646e-39
0.89958286 0.047102842 0.10913295 2.5095504e-39
0.89958286 0.047102842 0.11163295 2.8757825e-39
0.89958286 0.049602844 0.10913295 7.5819355e-40
0.89958286 0.049602844 0.11163295 4.3386443e-39
0.90208286 0.049602844 0.11163295 3.4268025e-39
0.89958286 0.047102842 0.11413295 2.9668992e-39
0.89958286 0.049602844 0.11413295 5.2584159e-39
0.89958286 0.049602844 0.11663295 5.6268397e-39
0.90208286 0.049602844 0.11663295 5.1662147e-39
0.90708286 0.042102844 0.10913295 1.1230132e-39
0.90708286 0.044602841 0.10913295 1.1237293e-39
0.90708286 0.044602841 0.11413295 2.597402e-39
0.90708286 0.044602841 0.11663295 9.3968553e-40
0.90458286 0.047102842 0.10913295 3.2424183e-39
0.90458286 0.047102842 0.11163295 2.8732784e-39
0.90458286 0.049602844 0.10913295 3.2424183e-39
0.90458286 0.049602844 0.11163295 3.0576697e-39
0.90708286 0.047102842 0.10913295 3.1498695e-39
0.90708286 0.047102842 0.11163295 3.05802e-39
0.90708286 0.049602844 0.10913295 3.1498695e-39
0.90708286 0.049602844 0.11163295 3.05802e-39
0.90458286 0.047102842 0.11663295 3.4239187e-39
0.90458286 0.049602844 0.11413295 3.1505688e-39
0.90458286 0.049602844 0.11663295 3.1494926e-39
0.90708286 0.047102842 0.11413295 2.9654614e-39
0.90708286 0.047102842 0.11663295 3.5161115e-39
0.90708286 0.049602844 0.11413295 2.8732658e-39
0.90708286 0.049602844 0.11663295 3.5161115e-39
0.90208286 0.049602844 0.11913295 5.5353475e-39
0.89958286 0.049602844 0.12663294 5.6271802e-39
0.90458286 0.044602841 0.12163295 2.3186599e-39
0.90708286 0.044602841 0.11913295 2.1342728e-39
0.90708286 0.044602841 0.12163295 2.5034043e-39
0.90708286 0.044602841 0.12413295 3.8820382e-39
0.90708286 0.044602841 0.12663294 6.0025348e-39
0.90458286 0.047102842 0.11913295 3.3313643e-39
0.90458286 0.047102842 0.12163295 3.3324391e-39
0.90458286 0.049602844 0.11913295 5.350236e-39
0.90458286 0.049602844 0.12163295 5.4424288e-39
0.90708286 0.047102842 0.11913295 3.3324391e-39
0.90708286 0.047102842 0.12163295 3.2388043e-39
0.90708286 0.049602844 0.11913295 3.148408e-39
0.90708286 0.049602844 0.12163295 3.6072281e-39
0.90708286 0.047102842 0.12413295 3.8841681e-39
0.90708286 0.047102842 0.12663294 6.4645542e-39
0.90708286 0.049602844 0.12413295 5.8115841e-39
0.90708286 0.049602844 0.12663294 5.2605837e-39
0.89458281 0.052102841 0.099132948 1.180612e-38
0.89458281 0.052102841 0.10163295 1.2266374e-38
0.89458281 0.054602843 0.099132948 1.6959311e-38
0.89458281 0.054602843 0.10163295 1.6866746e-38
0.89708287 0.052102841 0.099132948 1.2173808e-38
0.89708287 0.052102841 0.10163295 1.2634433e-38
0.89708287 0.054602843 0.099132948 1.6499405e-38
0.89708287 0.054602843 0.10163295 1.705186e-38
0.89708287 0.052102841 0.10413295 1.3646418e-38
0.89708287 0.054602843 0.10413295 1.7880539e-38
0.89708287 0.057102844 0.099132948 2.1200306e-38
0.89708287 0.052102841 0.11163295 1.2722977e-38
0.89708287 0.054602843 0.11163295 1.4744447e-38
0.89708287 0.052102841 0.11413295 6.5480982e-39
0.89958286 0.052102841 0.10163295 1.3555298e-38
0.89958286 0.054602843 0.10163295 1.7052579e-38
0.89958286 0.052102841 0.10413295 1.4570191e-38
0.89958286 0.052102841 0.10663295 1.5486737e-38
0.89958286 0.054602843 0.10413295 2.0092892e-38
0.89958286 0.054602843 0.10663295 2.0830079e-38
0.90208286 0.052102841 0.10413295 1.5764396e-38
0.90208286 0.052102841 0.10663295 1.2354998e-38
0.90208286 0.054602843 0.10413295 2.0738606e-38
0.90208286 0.054602843 0.10663295 1.8428692e-38
0.90708286 0.052102841 0.10663295 5.07074e-39
0.89958286 0.052102841 0.10913295 1.263158e-38
0.89958286 0.052102841 0.11163295 5.9059686e-39
0.89958286 0.054602843 0.10913295 1.8245744e-38
0.89958286 0.054602843 0.11163295 7.6515114e-39
0.90208286 0.052102841 0.11163295 5.9059686e-39
0.89958286 0.052102841 0.11413295 6.5491547e-39
0.89958286 0.052102841 0.11663295 7.2867198e-39
0.89958286 0.054602843 0.11413295 7.9259571e-39
0.89958286 0.054602843 0.11663295 8.8497043e-39
0.90208286 0.052102841 0.11663295 7.1023229e-39
0.90208286 0.054602843 0.11663295 8.8479064e-39
0.90458286 0.052102841 0.10913295 1.2355271e-38
0.90458286 0.052102841 0.11163295 6.367276e-39
0.90458286 0.054602843 0.10913295 1.5389445e-38
0.90458286 0.054602843 0.11163295 7.9263102e-39
0.90708286 0.052102841 0.10913295 4.3386471e-39
0.90458286 0.052102841 0.11413295 6.5516729e-39
0.90458286 0.052102841 0.11663295 7.1945185e-39
0.90458286 0.054602843 0.11413295 9.0326536e-39
0.90458286 0.054602843 0.11663295 9.0326536e-39
0.90708286 0.052102841 0.11413295 7.1033823e-39
0.90708286 0.052102841 0.11663295 7.1952248e-39
0.90708286 0.054602843 0.11663295 9.0326536e-39
0.90458286 0.057102844 0.10913295 1.4374934e-38
0.90458286 0.057102844 0.11163295 7.3727833e-39
0.90708286 0.057102844 0.11163295 8.6638725e-39
0.90708286 0.057102844 0.11413295 8.5716754e-39
0.90708286 0.057102844 0.11663295 8.5716754e-39
0.90208286 0.052102841 0.11913295 7.1026732e-39
0.90208286 0.054602843 0.11913295 8.940458e-39
0.89958286 0.052102841 0.12663294 7.0101147e-39
0.90458286 0.052102841 0.11913295 7.2863442e-39
0.90458286 0.052102841 0.12163295 7.1023103e-39
0.90458286 0.054602843 0.11913295 8.8479036e-39
0.90458286 0.054602843 0.12163295 8.940458e-39
0.90708286 0.052102841 0.11913295 7.1030292e-39
0.90708286 0.052102841 0.12163295 6.9186323e-39
0.90708286 0.054602843 0.11913295 8.4812791e-39
0.90708286 0.054602843 0.12163295 8.2968864e-39
0.90708286 0.052102841 0.12413295 7.1023285e-39
0.90708286 0.052102841 0.12663294 6.5513226e-39
0.90708286 0.054602843 0.12413295 8.6638725e-39
