# .PCD v0.7 - Point Cloud Data file format
VERSION 0.7
FIELDS x y z rgb
SIZE 4 4 4 4
TYPE F F F F
COUNT 1 1 1 1
WIDTH 201
HEIGHT 1
VIEWPOINT 0 0 0 1 0 0 0
POINTS 201
DATA ascii
0.8435629 0.12835504 0.069664754 1.3724166e-38
0.8435629 0.13085504 0.069664754 1.2071124e-38
0.8460629 0.12835504 0.062164754 1.1423922e-38
0.8460629 0.12835504 0.064664751 1.3908197e-38
0.8485629 0.12835504 0.062164754 1.234375e-38
0.8460629 0.12835504 0.067164749 1.4184768e-38
0.8460629 0.13085504 0.062164754 1.1424304e-38
0.8460629 0.13085504 0.064664751 1.2991999e-38
0.8460629 0.13335504 0.062164754 1.188564e-38
0.8460629 0.13335504 0.064664751 1.2529563e-38
0.8485629 0.13085504 0.062164754 1.1516503e-38
0.8485629 0.13335504 0.062164754 1.2346263e-38
0.8485629 0.13335504 0.064664751 1.2712522e-38
0.8460629 0.13085504 0.067164749 1.2992352e-38
0.8460629 0.13085504 0.069664754 1.0133568e-38
0.8485629 0.13085504 0.067164749 1.2993082e-38
0.8485629 0.13085504 0.069664754 1.0225761e-38
0.8485629 0.13335504 0.067164749 1.1702301e-38
0.8485629 0.13335504 0.069664754 7.4616747e-39
0.8460629 0.13585505 0.062164754 1.1885645e-38
0.8460629 0.13585505 0.064664751 1.2346985e-38
0.8460629 0.13835505 0.062164754 1.4005066e-38
0.8460629 0.13835505 0.064664751 1.31771e-38
0.8485629 0.13585505 0.062164754 1.2253364e-38
0.8485629 0.13585505 0.064664751 1.1238824e-38
0.8485629 0.13835505 0.062164754 1.2161897e-38
0.8485629 0.13835505 0.064664751 9.487843e-39
0.8485629 0.13585505 0.067164749 9.9491546e-39
0.85106289 0.13335504 0.064664751 1.1977799e-38
0.85106289 0.13335504 0.067164749 7.3694763e-39
0.85106289 0.13335504 0.069664754 5.8018227e-39
0.85356289 0.13335504 0.069664754 5.6120098e-39
0.85106289 0.13585505 0.062164754 1.1973166e-38
0.85106289 0.13585505 0.064664751 9.4896058e-39
0.85106289 0.13835505 0.062164754 9.2112785e-39
0.85106289 0.13835505 0.064664751 8.1067092e-39
0.85356289 0.13585505 0.064664751 8.1070413e-39
0.85356289 0.13835505 0.064664751 9.304165e-39
0.85106289 0.13585505 0.067164749 8.1992397e-39
0.85106289 0.13585505 0.069664754 8.6609816e-39
0.85106289 0.13835505 0.067164749 8.9368258e-39
0.85356289 0.13585505 0.067164749 8.844277e-39
0.85356289 0.13835505 0.067164749 9.1219345e-39
0.8435629 0.14335504 0.062164754 1.225192e-38
0.8435629 0.14585504 0.062164754 1.2343762e-38
0.8435629 0.14835504 0.062164754 1.1885645e-38
0.8435629 0.14835504 0.064664751 1.2530306e-38
0.8435629 0.15085505 0.062164754 1.1335002e-38
0.8435629 0.15085505 0.064664751 1.2529225e-38
0.8435629 0.15335505 0.062164754 1.050524e-38
0.8460629 0.14085504 0.062164754 1.4464252e-38
0.8460629 0.14085504 0.064664751 1.3637002e-38
0.8460629 0.14335504 0.062164754 1.2896566e-38
0.8460629 0.14335504 0.064664751 1.1977841e-38
0.8485629 0.14085504 0.062164754 1.3912163e-38
0.8485629 0.14085504 0.064664751 8.9375433e-39
0.8485629 0.14335504 0.062164754 1.1148093e-38
0.8485629 0.14335504 0.064664751 7.7390001e-39
0.8460629 0.14585504 0.062164754 1.234521e-38
0.8460629 0.14585504 0.064664751 1.1607642e-38
0.8460629 0.14835504 0.062164754 1.2530306e-38
0.8460629 0.14835504 0.064664751 1.1517964e-38
0.8485629 0.14585504 0.062164754 1.142468e-38
0.8485629 0.14585504 0.064664751 7.4609895e-39
0.8485629 0.14835504 0.062164754 1.1241736e-38
0.8485629 0.14835504 0.064664751 6.9139464e-39
0.8485629 0.14835504 0.067164749 7.5575179e-39
0.85106289 0.14085504 0.062164754 9.1190507e-39
0.85106289 0.14085504 0.064664751 9.1190633e-39
0.85106289 0.14335504 0.062164754 7.9190753e-39
0.85106289 0.14335504 0.064664751 8.6584452e-39
0.85356289 0.14085504 0.064664751 9.5803917e-39
0.85356289 0.14335504 0.064664751 9.7640669e-39
0.85106289 0.14085504 0.067164749 9.6718685e-39
0.85106289 0.14335504 0.067164749 9.7644229e-39
0.85356289 0.14085504 0.067164749 8.7535107e-39
0.85356289 0.14335504 0.067164749 9.3045153e-39
0.85106289 0.14585504 0.062164754 7.6453821e-39
0.85106289 0.14585504 0.064664751 8.4740498e-39
0.85106289 0.14835504 0.062164754 6.6387888e-39
0.85106289 0.14835504 0.064664751 7.3734868e-39
0.85356289 0.14585504 0.064664751 8.657739e-39
0.85356289 0.14835504 0.064664751 7.6497191e-39
0.85356289 0.14585504 0.067164749 9.0269097e-39
0.85356289 0.14835504 0.067164749 5.2525893e-39
0.8460629 0.15085505 0.062164754 1.2439182e-38
0.8460629 0.15085505 0.064664751 1.1611948e-38
0.8460629 0.15335505 0.062164754 1.1886008e-38
0.8460629 0.15335505 0.064664751 1.1242805e-38
0.8485629 0.15085505 0.062164754 1.1517964e-38
0.8485629 0.15085505 0.064664751 6.7309872e-39
0.8485629 0.15335505 0.062164754 1.1610869e-38
0.8485629 0.15085505 0.067164749 7.3742211e-39
0.8485629 0.15335505 0.067164749 8.0195905e-39
0.8485629 0.15585504 0.064664751 1.2437056e-38
0.85106289 0.15085505 0.062164754 6.8217507e-39
0.85106289 0.15335505 0.062164754 1.0509191e-38
0.85356289 0.15085505 0.064664751 7.6497191e-39
0.85356289 0.15335505 0.064664751 8.1138937e-39
0.85356289 0.15085505 0.067164749 8.3872393e-39
0.85106289 0.15585504 0.062164754 1.2344857e-38
0.85106289 0.15585504 0.064664751 1.0225143e-38
0.85606289 0.13335504 0.069664754 5.7960395e-39
0.85856289 0.13335504 0.067164749 5.7960395e-39
0.85856289 0.13585505 0.064664751 8.7538807e-39
0.85856289 0.13835505 0.064664751 9.3988773e-39
0.85606289 0.13585505 0.069664754 8.0138101e-39
0.85606289 0.13835505 0.069664754 6.1727337e-39
0.85856289 0.13585505 0.067164749 7.9208732e-39
0.85856289 0.13585505 0.069664754 8.0206148e-39
0.85856289 0.13835505 0.067164749 6.0801878e-39
0.85856289 0.13835505 0.069664754 5.8954406e-39
0.86106288 0.13585505 0.064664751 7.7361288e-39
0.86106288 0.13835505 0.064664751 9.9491841e-39
0.86106288 0.13835505 0.067164749 8.4805336e-39
0.86106288 0.13835505 0.069664754 6.0805381e-39
0.85606289 0.14335504 0.064664751 1.0315809e-38
0.85856289 0.14085504 0.064664751 9.0300948e-39
0.85856289 0.14335504 0.064664751 9.1204758e-39
0.85606289 0.14085504 0.069664754 5.4351687e-39
0.85606289 0.14335504 0.069664754 7.9194285e-39
0.85856289 0.14085504 0.067164749 5.3426228e-39
0.85856289 0.14085504 0.069664754 5.435875e-39
0.85856289 0.14335504 0.067164749 6.5390107e-39
0.85856289 0.14335504 0.069664754 5.894384e-39
0.85606289 0.14585504 0.062164754 8.5662454e-39
0.85606289 0.14585504 0.064664751 1.0131793e-38
0.85606289 0.14835504 0.064664751 9.211982e-39
0.85856289 0.14585504 0.064664751 9.5772276e-39
0.85856289 0.14835504 0.064664751 7.1805014e-39
0.85606289 0.14585504 0.069664754 7.1861976e-39
0.85856289 0.14835504 0.067164749 4.9738627e-39
0.85856289 0.14835504 0.069664754 5.8954588e-39
0.86106288 0.14085504 0.064664751 5.2532956e-39
0.86106288 0.14335504 0.064664751 7.2755052e-39
0.86106288 0.14085504 0.067164749 5.7110493e-39
0.86106288 0.14085504 0.069664754 5.7113969e-39
0.86106288 0.14335504 0.067164749 6.7216364e-39
0.86106288 0.14335504 0.069664754 6.5368892e-39
0.86356288 0.14085504 0.067164749 5.7113969e-39
0.86356288 0.14335504 0.067164749 6.5390402e-39
0.86356288 0.14335504 0.069664754 7.1804537e-39
0.86106288 0.14585504 0.064664751 6.81922e-39
0.86106288 0.14835504 0.064664751 3.8686011e-39
0.86106288 0.14585504 0.067164749 6.4511311e-39
0.86106288 0.14835504 0.067164749 5.344785e-39
0.86106288 0.14835504 0.069664754 6.5321752e-39
0.86356288 0.14585504 0.067164749 7.0018134e-39
0.86356288 0.14585504 0.069664754 6.7209035e-39
0.86356288 0.14835504 0.067164749 5.529179e-39
0.86356288 0.14835504 0.069664754 5.9833385e-39
0.85606289 0.15085505 0.064664751 9.03012e-39
0.85606289 0.15335505 0.064664751 1.0219322e-38
0.85856289 0.15085505 0.064664751 8.4797895e-39
0.85856289 0.15335505 0.064664751 8.9375811e-39
0.85856289 0.15085505 0.067164749 8.3879694e-39
0.85856289 0.15335505 0.067164749 9.3985242e-39
0.85606289 0.15585504 0.062164754 1.0225493e-38
0.85856289 0.15585504 0.062164754 5.0563669e-39
0.86106288 0.15085505 0.064664751 8.9375461e-39
0.86106288 0.15335505 0.064664751 8.573102e-39
0.86106288 0.15085505 0.067164749 4.4250189e-39
0.86106288 0.15335505 0.067164749 7.9273192e-39
0.86356288 0.15085505 0.067164749 7.7422623e-39
0.86356288 0.15085505 0.069664754 4.9710208e-39
0.86356288 0.15335505 0.067164749 7.7454418e-39
0.86106288 0.15585504 0.062164754 2.7647773e-39
0.86106288 0.15585504 0.064664751 3.2218122e-39
0.86106288 0.15835504 0.062164754 1.0875847e-38
0.86356288 0.15585504 0.064664751 7.3540143e-40
0.86606288 0.14085504 0.064664751 5.8961469e-39
0.86606288 0.14335504 0.064664751 7.0900588e-39
0.86856288 0.14335504 0.062164754 5.7121283e-39
0.86606288 0.14585504 0.064664751 7.7354282e-39
0.86606288 0.14835504 0.064664751 5.3419319e-39
0.86856288 0.14585504 0.062164754 7.8276238e-39
0.86856288 0.14585504 0.064664751 6.9056647e-39
0.86856288 0.14835504 0.064664751 6.0758718e-39
0.86606288 0.14585504 0.067164749 7.0907748e-39
0.86606288 0.14835504 0.067164749 6.902736e-39
0.86606288 0.15085505 0.064664751 4.7001666e-39
0.86856288 0.15085505 0.064664751 5.9808469e-39
0.86606288 0.15085505 0.067164749 5.2465385e-39
0.86606288 0.15335505 0.067164749 3.5870172e-39
0.86606288 0.15585504 0.062164754 1.0101905e-39
0.86606288 0.15585504 0.064664751 2.6750676e-39
0.86856288 0.15585504 0.062164754 2.6750676e-39
0.86856288 0.15585504 0.064664751 1.2262013e-38
0.87106287 0.15335505 0.062164754 4.690827e-39
0.87106287 0.15585504 0.062164754 1.2169818e-38
0.8435629 0.12835504 0.072164752 1.0410511e-38
0.8435629 0.13085504 0.072164752 8.8428267e-39
0.8460629 0.12835504 0.072164752 9.6686791e-39
0.8460629 0.13085504 0.072164752 6.257801e-39
0.8485629 0.13085504 0.072164752 9.2077094e-39
0.8485629 0.13335504 0.072164752 7.6439332e-39
0.8485629 0.13335504 0.074664749 7.9273598e-39
0.85856289 0.13835505 0.072164752 5.8042988e-39
0.85856289 0.14085504 0.072164752 5.435875e-39
0.85856289 0.14335504 0.072164752 7.1836809e-39
0.85856289 0.14585504 0.072164752 7.5466859e-39
