# .PCD v0.7 - Point Cloud Data file format
VERSION 0.7
FIELDS x y z rgb
SIZE 4 4 4 4
TYPE F F F F
COUNT 1 1 1 1
WIDTH 196
HEIGHT 1
VIEWPOINT 0 0 0 1 0 0 0
POINTS 196
DATA ascii
0.84404808 0.1293672 0.068103522 1.3631965e-38
0.84654808 0.1293672 0.065603524 1.2991999e-38
0.84654808 0.1293672 0.068103522 1.326859e-38
0.84404808 0.1343672 0.063103527 1.179309e-38
0.84404808 0.1318672 0.068103522 1.2623939e-38
0.84654808 0.1318672 0.065603524 1.2807967e-38
0.84654808 0.1318672 0.068103522 1.2531025e-38
0.84654808 0.1343672 0.065603524 1.2437014e-38
0.84654808 0.1343672 0.068103522 1.1518608e-38
0.84404808 0.1368672 0.063103527 1.2529228e-38
0.84404808 0.13936719 0.063103527 1.4097627e-38
0.84654808 0.1368672 0.065603524 9.1201647e-39
0.84654808 0.1368672 0.068103522 8.1985363e-39
0.84654808 0.13936719 0.065603524 1.3176031e-38
0.84654808 0.13936719 0.068103522 8.5673188e-39
0.84904808 0.1293672 0.068103522 9.4910954e-39
0.84904808 0.1318672 0.063103527 1.1608348e-38
0.84904808 0.1343672 0.063103527 1.2161516e-38
0.84904808 0.1318672 0.068103522 8.1078022e-39
0.84904808 0.1343672 0.065603524 1.2528491e-38
0.84904808 0.1343672 0.068103522 7.1843802e-39
0.85154814 0.1318672 0.068103522 8.1077854e-39
0.85154814 0.1343672 0.065603524 1.2254029e-38
0.85154814 0.1343672 0.068103522 7.5535228e-39
0.84904808 0.1368672 0.063103527 1.2161516e-38
0.84904808 0.13936719 0.063103527 1.3543753e-38
0.85154814 0.1368672 0.063103527 1.133067e-38
0.85154814 0.13936719 0.063103527 9.2112631e-39
0.84904808 0.1368672 0.065603524 1.1606533e-38
0.84904808 0.13936719 0.065603524 9.5789694e-39
0.85154814 0.1368672 0.065603524 1.013353e-38
0.85154814 0.1368672 0.068103522 9.0290228e-39
0.85154814 0.13936719 0.065603524 8.7506563e-39
0.85154814 0.13936719 0.068103522 9.1212185e-39
0.85654813 0.1318672 0.068103522 5.4265451e-39
0.85654813 0.1343672 0.068103522 7.7364847e-39
0.85404813 0.1368672 0.065603524 8.1066966e-39
0.85404813 0.1368672 0.068103522 8.7538807e-39
0.85404813 0.13936719 0.065603524 9.0290228e-39
0.85404813 0.13936719 0.068103522 9.030092e-39
0.85654813 0.1368672 0.065603524 8.751378e-39
0.85654813 0.13936719 0.065603524 8.8442714e-39
0.85654813 0.13936719 0.068103522 5.900816e-39
0.84154809 0.1468672 0.063103527 1.1976755e-38
0.84154809 0.1493672 0.063103527 1.2068952e-38
0.84404808 0.14186721 0.060603522 1.2159339e-38
0.84404808 0.14186721 0.063103527 1.2804721e-38
0.84404808 0.1468672 0.060603522 1.1885289e-38
0.84404808 0.1468672 0.063103527 1.2438812e-38
0.84404808 0.1493672 0.060603522 1.1883859e-38
0.84404808 0.1493672 0.063103527 1.2346617e-38
0.84654808 0.1493672 0.065603524 6.7299054e-39
0.84654808 0.1493672 0.068103522 7.7412085e-39
0.84404808 0.1518672 0.060603522 1.0965872e-38
0.84404808 0.1518672 0.063103527 1.2529578e-38
0.84654808 0.1518672 0.065603524 9.0329885e-39
0.84654808 0.1518672 0.068103522 7.5593214e-39
0.84904808 0.14186721 0.063103527 1.2162225e-38
0.84904808 0.1443672 0.063103527 1.1148093e-38
0.85154814 0.14186721 0.063103527 9.1187129e-39
0.85154814 0.1443672 0.063103527 7.6435829e-39
0.84904808 0.14186721 0.065603524 7.4631222e-39
0.84904808 0.1443672 0.065603524 6.7270188e-39
0.85154814 0.14186721 0.065603524 9.0279662e-39
0.85154814 0.14186721 0.068103522 1.0040296e-38
0.85154814 0.1443672 0.065603524 7.8311985e-39
0.84904808 0.1468672 0.063103527 1.142468e-38
0.84904808 0.1493672 0.063103527 1.115061e-38
0.85154814 0.1468672 0.063103527 8.0130884e-39
0.85154814 0.1493672 0.063103527 6.3629278e-39
0.84904808 0.1468672 0.065603524 7.0036042e-39
0.84904808 0.1493672 0.065603524 6.5465932e-39
0.85154814 0.1468672 0.065603524 8.1060029e-39
0.85154814 0.1493672 0.065603524 7.2809408e-39
0.85654813 0.14186721 0.063103527 9.1187157e-39
0.85654813 0.1443672 0.063103527 8.5655434e-39
0.85404813 0.14186721 0.065603524 9.5796757e-39
0.85404813 0.14186721 0.068103522 9.3034349e-39
0.85404813 0.1443672 0.065603524 8.1985573e-39
0.85404813 0.1443672 0.068103522 9.3956305e-39
0.85654813 0.14186721 0.065603524 9.9481009e-39
0.85654813 0.14186721 0.068103522 6.7219601e-39
0.85654813 0.1443672 0.065603524 1.0132494e-38
0.85654813 0.1468672 0.063103527 8.8417701e-39
0.85654813 0.1493672 0.063103527 7.280938e-39
0.85404813 0.1468672 0.065603524 9.7619314e-39
0.85404813 0.1468672 0.068103522 7.2802051e-39
0.85404813 0.1493672 0.065603524 7.6497135e-39
0.85404813 0.1493672 0.068103522 5.989804e-39
0.85654813 0.1468672 0.065603524 9.3953194e-39
0.85654813 0.1493672 0.065603524 6.0794815e-39
0.85154814 0.1518672 0.063103527 8.9407929e-39
0.85154814 0.15436719 0.063103527 1.2437054e-38
0.84904808 0.1518672 0.065603524 8.7556912e-39
0.85154814 0.1518672 0.065603524 7.7440672e-39
0.85654813 0.1518672 0.063103527 7.4678208e-39
0.85654813 0.15436719 0.063103527 8.2043321e-39
0.85404813 0.1518672 0.065603524 7.466767e-39
0.85404813 0.15436719 0.065603524 8.2043321e-39
0.85654813 0.1518672 0.065603524 1.0219322e-38
0.85654813 0.15436719 0.065603524 5.2421833e-39
0.85654813 0.15686721 0.063103527 1.059357e-38
0.85904813 0.1343672 0.068103522 6.3452588e-39
0.86154813 0.1343672 0.065603524 5.8882337e-39
0.85904813 0.1368672 0.068103522 9.487843e-39
0.85904813 0.13936719 0.068103522 5.8979447e-39
0.86154813 0.1368672 0.065603524 7.6457325e-39
0.86154813 0.1368672 0.068103522 8.665278e-39
0.86154813 0.13936719 0.065603524 6.1741729e-39
0.86154813 0.13936719 0.068103522 6.2642483e-39
0.86404812 0.1368672 0.065603524 8.2057446e-39
0.86404812 0.13936719 0.065603524 5.806468e-39
0.86654812 0.13936719 0.065603524 6.0805381e-39
0.85904813 0.14186721 0.063103527 9.1197695e-39
0.85904813 0.1443672 0.063103527 9.1197695e-39
0.85904813 0.14186721 0.068103522 6.7226901e-39
0.85904813 0.1443672 0.068103522 7.4595251e-39
0.86154813 0.14186721 0.065603524 5.0681841e-39
0.86154813 0.14186721 0.068103522 5.4376868e-39
0.86154813 0.1443672 0.065603524 7.3680596e-39
0.86154813 0.1443672 0.068103522 7.5528348e-39
0.85904813 0.1468672 0.063103527 9.1194584e-39
0.85904813 0.1493672 0.063103527 5.7139192e-39
0.85904813 0.1468672 0.068103522 6.4504291e-39
0.85904813 0.1493672 0.068103522 4.3310058e-39
0.86154813 0.1468672 0.065603524 7.0932803e-39
0.86154813 0.1468672 0.068103522 7.0036042e-39
0.86154813 0.1493672 0.065603524 4.6969128e-39
0.86154813 0.1493672 0.068103522 4.3324337e-39
0.86404812 0.14186721 0.065603524 5.0657052e-39
0.86404812 0.14186721 0.068103522 5.1607272e-39
0.86404812 0.1443672 0.065603524 7.5531851e-39
0.86404812 0.1443672 0.068103522 6.906015e-39
0.86654812 0.14186721 0.065603524 5.8961469e-39
0.86654812 0.1443672 0.065603524 6.4468445e-39
0.86404812 0.1468672 0.065603524 7.3705903e-39
0.86404812 0.1468672 0.068103522 6.8137872e-39
0.86404812 0.1493672 0.065603524 4.8848816e-39
0.86404812 0.1493672 0.068103522 4.9713711e-39
0.86654812 0.1468672 0.065603524 6.8174165e-39
0.86654812 0.1493672 0.065603524 5.5266777e-39
0.85904813 0.1518672 0.063103527 8.7531548e-39
0.85904813 0.15436719 0.063103527 4.9641713e-39
0.86154813 0.15436719 0.063103527 2.9473833e-39
0.85904813 0.1518672 0.068103522 8.5720033e-39
0.86154813 0.1518672 0.065603524 8.6613263e-39
0.86154813 0.1518672 0.068103522 7.2834127e-39
0.86154813 0.15436719 0.065603524 8.7538807e-39
0.86154813 0.15436719 0.068103522 7.1015074e-39
0.85904813 0.15686721 0.063103527 1.4722392e-39
0.85904813 0.1593672 0.063103527 1.0783999e-38
0.86154813 0.15686721 0.063103527 5.5280664e-40
0.86154813 0.1593672 0.063103527 1.0602125e-38
0.86404812 0.1518672 0.065603524 7.3748895e-39
0.86404812 0.1518672 0.068103522 3.4966012e-39
0.86404812 0.15436719 0.065603524 7.3770153e-39
0.86404812 0.15436719 0.068103522 3.9665617e-39
0.86654812 0.1518672 0.065603524 4.239529e-39
0.86654812 0.15436719 0.065603524 7.3770181e-39
0.86404812 0.15686721 0.063103527 9.1835496e-40
0.86654812 0.15686721 0.065603524 2.3992023e-39
0.86904812 0.14186721 0.063103527 5.8961595e-39
0.86904812 0.1443672 0.063103527 6.7245034e-39
0.86904812 0.14186721 0.065603524 6.0805381e-39
0.86904812 0.1468672 0.065603524 7.2715605e-39
0.86904812 0.1493672 0.065603524 6.5339941e-39
0.86904812 0.1518672 0.065603524 5.8890016e-39
0.86904812 0.15436719 0.065603524 4.056958e-39
0.86904812 0.15686721 0.063103527 2.6750676e-39
0.87154812 0.15686721 0.063103527 1.1893587e-38
0.86904812 0.15686721 0.065603524 1.1986141e-38
0.87404811 0.15436719 0.065603524 1.0963063e-38
0.87404811 0.15686721 0.065603524 1.5941267e-38
0.84404808 0.1293672 0.07060352 9.7665907e-39
0.84404808 0.1293672 0.073103525 9.3002554e-39
0.84654808 0.1293672 0.07060352 9.5821924e-39
0.84404808 0.1318672 0.07060352 8.659883e-39
0.84404808 0.1318672 0.073103525 6.0734083e-39
0.84654808 0.1318672 0.07060352 8.6602361e-39
0.84904808 0.1293672 0.07060352 9.4839207e-39
0.84904808 0.1293672 0.073103525 6.7154707e-39
0.84904808 0.1318672 0.07060352 6.4414664e-39
0.84904808 0.1318672 0.073103525 5.9779168e-39
0.84904808 0.1343672 0.07060352 6.0777019e-39
0.85154814 0.1318672 0.07060352 5.5198155e-39
0.85154814 0.1343672 0.07060352 7.1847599e-39
0.85154814 0.1343672 0.073103525 7.6522205e-39
0.85404813 0.1318672 0.07060352 5.980428e-39
0.85404813 0.1343672 0.07060352 8.196035e-39
0.85404813 0.1368672 0.07060352 1.0040299e-38
0.85654813 0.13936719 0.07060352 6.54081e-39
0.85654813 0.14186721 0.07060352 6.262096e-39
0.85904813 0.13936719 0.07060352 6.2616742e-39
0.85904813 0.14186721 0.07060352 6.2602953e-39
0.85904813 0.1443672 0.07060352 6.907094e-39
0.85904813 0.1468672 0.07060352 6.3506608e-39
