# .PCD v0.7 - Point Cloud Data file format
VERSION 0.7
FIELDS x y z rgb
SIZE 4 4 4 4
TYPE F F F F
COUNT 1 1 1 1
WIDTH 190
HEIGHT 1
VIEWPOINT 0 0 0 1 0 0 0
POINTS 190
DATA ascii
0.84094071 0.12774749 0.071127452 1.4091869e-38
0.84094071 0.13024749 0.071127452 1.1977851e-38
0.84594071 0.12774749 0.063627452 1.206714e-38
0.84594071 0.12774749 0.066127449 1.372416e-38
0.84344071 0.12774749 0.068627447 1.4091869e-38
0.84594071 0.13024749 0.063627452 1.1054809e-38
0.84594071 0.13024749 0.066127449 1.2256589e-38
0.84594071 0.13274749 0.063627452 1.1515428e-38
0.84594071 0.13274749 0.066127449 1.2348784e-38
0.84344071 0.13024749 0.068627447 1.2993082e-38
0.84344071 0.13024749 0.071127452 1.0133566e-38
0.84594071 0.13024749 0.068627447 1.280797e-38
0.84594071 0.13274749 0.068627447 1.2070405e-38
0.84594071 0.1352475 0.063627452 1.2344466e-38
0.84594071 0.1377475 0.063627452 1.2529225e-38
0.84594071 0.1377475 0.066127449 9.4871297e-39
0.84844071 0.13024749 0.063627452 1.1425036e-38
0.84844071 0.13274749 0.063627452 1.1977851e-38
0.84844071 0.13274749 0.066127449 1.1794868e-38
0.8509407 0.13024749 0.066127449 1.3084201e-38
0.8509407 0.13274749 0.066127449 1.1977854e-38
0.84844071 0.13274749 0.068627447 7.5535228e-39
0.84844071 0.13274749 0.071127452 6.6251374e-39
0.8509407 0.13274749 0.068627447 6.3481973e-39
0.8509407 0.13274749 0.071127452 5.8882337e-39
0.84844071 0.1352475 0.063627452 1.2070405e-38
0.84844071 0.1377475 0.063627452 1.2438476e-38
0.84844071 0.1377475 0.066127449 8.8424764e-39
0.8509407 0.1352475 0.063627452 1.133067e-38
0.8509407 0.1352475 0.066127449 1.1794497e-38
0.8509407 0.1377475 0.063627452 9.1212185e-39
0.8509407 0.1377475 0.066127449 7.645029e-39
0.8509407 0.1352475 0.068627447 6.3542902e-39
0.84344071 0.14274749 0.06112745 1.2067887e-38
0.84344071 0.14524749 0.06112745 1.1975705e-38
0.84344071 0.14774749 0.06112745 1.1883856e-38
0.84594071 0.14024749 0.063627452 1.4372419e-38
0.84594071 0.14024749 0.066127449 8.5691195e-39
0.84594071 0.14274749 0.063627452 1.2620702e-38
0.84594071 0.14274749 0.066127449 7.7390001e-39
0.84344071 0.14774749 0.063627452 1.2066449e-38
0.84344071 0.14774749 0.066127449 1.1150244e-38
0.84594071 0.14524749 0.063627452 1.2253717e-38
0.84594071 0.14774749 0.063627452 1.2161166e-38
0.84844071 0.14024749 0.063627452 9.1201619e-39
0.84844071 0.14024749 0.066127449 9.1187157e-39
0.84844071 0.14274749 0.063627452 1.1886008e-38
0.8509407 0.14024749 0.066127449 8.4751484e-39
0.8509407 0.14274749 0.066127449 8.2914564e-39
0.8509407 0.14024749 0.068627447 8.6620186e-39
0.84844071 0.14524749 0.063627452 1.0871506e-38
0.84844071 0.14774749 0.063627452 1.1150594e-38
0.8509407 0.14524749 0.063627452 7.5538885e-39
0.8509407 0.14524749 0.066127449 8.4740498e-39
0.8509407 0.14774749 0.063627452 7.6460842e-39
0.8509407 0.14774749 0.066127449 7.006142e-39
0.84344071 0.1502475 0.06112745 1.1699825e-38
0.84344071 0.1527475 0.06112745 9.9513617e-39
0.84344071 0.1502475 0.063627452 1.0781481e-38
0.84344071 0.1502475 0.066127449 1.124244e-38
0.84594071 0.1502475 0.063627452 1.1977135e-38
0.84594071 0.1527475 0.063627452 1.2346266e-38
0.84844071 0.1502475 0.063627452 1.1150594e-38
0.84844071 0.1527475 0.063627452 1.1150963e-38
0.8509407 0.1502475 0.063627452 6.5462274e-39
0.8509407 0.1502475 0.066127449 7.4664195e-39
0.8509407 0.1527475 0.063627452 8.6645759e-39
0.8509407 0.1527475 0.066127449 8.2968808e-39
0.8559407 0.13024749 0.066127449 9.3903028e-39
0.8559407 0.13274749 0.066127449 6.2556514e-39
0.8534407 0.1352475 0.063627452 9.3977829e-39
0.8534407 0.1352475 0.066127449 7.9219466e-39
0.8534407 0.1377475 0.063627452 8.2885991e-39
0.8534407 0.1377475 0.066127449 8.7520758e-39
0.8559407 0.1352475 0.066127449 8.9357678e-39
0.8559407 0.1377475 0.066127449 9.1219345e-39
0.8559407 0.1352475 0.068627447 9.9491841e-39
0.8559407 0.1352475 0.071127452 8.2961423e-39
0.8559407 0.1377475 0.068627447 6.5415163e-39
0.8559407 0.1377475 0.071127452 6.1727337e-39
0.8584407 0.13274749 0.066127449 5.8885925e-39
0.8584407 0.1352475 0.066127449 7.7379281e-39
0.8584407 0.1377475 0.066127449 8.6609788e-39
0.86094069 0.1352475 0.066127449 6.4413991e-39
0.86094069 0.1377475 0.066127449 8.3872688e-39
0.8584407 0.1352475 0.068627447 8.6634955e-39
0.8584407 0.1377475 0.068627447 8.1131902e-39
0.8584407 0.1377475 0.071127452 5.8042988e-39
0.86094069 0.1377475 0.071127452 6.7226481e-39
0.86344069 0.1352475 0.063627452 5.5198155e-39
0.86344069 0.1377475 0.066127449 8.0216826e-39
0.86344069 0.1377475 0.068627447 5.5274218e-39
0.8534407 0.14024749 0.063627452 8.8428267e-39
0.8534407 0.14024749 0.066127449 9.487843e-39
0.8534407 0.14274749 0.063627452 8.7488388e-39
0.8534407 0.14274749 0.066127449 1.0131773e-38
0.8559407 0.14024749 0.066127449 8.7535107e-39
0.8559407 0.14274749 0.066127449 9.3048684e-39
0.8559407 0.14024749 0.068627447 5.4351687e-39
0.8559407 0.14024749 0.071127452 5.6191998e-39
0.8559407 0.14274749 0.068627447 6.1723834e-39
0.8534407 0.14524749 0.063627452 8.2914564e-39
0.8534407 0.14524749 0.066127449 9.7644495e-39
0.8534407 0.14774749 0.063627452 8.2914564e-39
0.8534407 0.14774749 0.066127449 9.3038301e-39
0.8559407 0.14524749 0.063627452 9.9470289e-39
0.8559407 0.14524749 0.066127449 8.7524135e-39
0.8559407 0.14774749 0.063627452 8.9350476e-39
0.8559407 0.14774749 0.066127449 7.1850864e-39
0.8584407 0.14024749 0.066127449 6.0762193e-39
0.8584407 0.14274749 0.066127449 6.5390107e-39
0.86094069 0.14024749 0.066127449 5.8954588e-39
0.86094069 0.14274749 0.066127449 5.6185384e-39
0.8584407 0.14024749 0.068627447 6.2606134e-39
0.8584407 0.14024749 0.071127452 5.251125e-39
0.8584407 0.14274749 0.068627447 6.2624337e-39
0.86094069 0.14024749 0.071127452 6.1694799e-39
0.86094069 0.14274749 0.071127452 6.352844e-39
0.8584407 0.14524749 0.066127449 9.1180319e-39
0.8584407 0.14774749 0.066127449 7.1819237e-39
0.86094069 0.14524749 0.063627452 8.3854863e-39
0.86094069 0.14524749 0.066127449 7.0043077e-39
0.86094069 0.14774749 0.066127449 5.5266833e-39
0.8584407 0.14524749 0.068627447 7.4627915e-39
0.8584407 0.14774749 0.068627447 6.356479e-39
0.86094069 0.14524749 0.071127452 7.2708571e-39
0.86094069 0.14774749 0.071127452 6.6254877e-39
0.86094069 0.15774749 0.06112745 1.103105e-39
0.8534407 0.1502475 0.063627452 7.7415588e-39
0.8534407 0.1502475 0.066127449 9.03012e-39
0.8534407 0.1527475 0.063627452 7.3735148e-39
0.8559407 0.1502475 0.063627452 8.5716502e-39
0.8559407 0.1502475 0.066127449 8.2028551e-39
0.8559407 0.1527475 0.063627452 7.4678208e-39
0.8559407 0.15524749 0.063627452 8.0209946e-39
0.8584407 0.1502475 0.066127449 5.344785e-39
0.8584407 0.1527475 0.066127449 9.0315396e-39
0.86094069 0.1502475 0.063627452 8.6613151e-39
0.86094069 0.1502475 0.066127449 8.6613151e-39
0.86094069 0.1527475 0.063627452 8.757496e-39
0.86094069 0.1527475 0.066127449 8.7538779e-39
0.8584407 0.1502475 0.068627447 5.2540397e-39
0.8584407 0.15524749 0.063627452 4.7844295e-39
0.8584407 0.15774749 0.063627452 1.0112667e-39
0.86094069 0.15524749 0.063627452 3.2253981e-39
0.86094069 0.15774749 0.063627452 0
0.86344069 0.14024749 0.066127449 5.435875e-39
0.86344069 0.14274749 0.066127449 5.2515384e-39
0.86594069 0.14024749 0.063627452 5.9891006e-39
0.86594069 0.14024749 0.066127449 5.8964944e-39
0.86594069 0.14274749 0.063627452 5.0681841e-39
0.86594069 0.14274749 0.066127449 6.4446865e-39
0.86344069 0.14024749 0.068627447 7.2733164e-39
0.86344069 0.14274749 0.068627447 5.8925918e-39
0.86344069 0.14524749 0.066127449 7.0014729e-39
0.86344069 0.14774749 0.066127449 6.5426275e-39
0.86594069 0.14524749 0.063627452 7.095451e-39
0.86594069 0.14524749 0.066127449 6.7216336e-39
0.86594069 0.14774749 0.063627452 6.9106715e-39
0.86594069 0.14774749 0.066127449 6.7209035e-39
0.86344069 0.14524749 0.068627447 7.5513872e-39
0.86344069 0.14774749 0.068627447 6.3510111e-39
0.86844069 0.14024749 0.063627452 8.3872393e-39
0.86844069 0.14274749 0.063627452 5.435875e-39
0.86844069 0.14524749 0.063627452 6.3524909e-39
0.86844069 0.14774749 0.063627452 6.7212412e-39
0.86344069 0.1502475 0.066127449 4.7941321e-39
0.86344069 0.1527475 0.066127449 7.4692179e-39
0.86594069 0.1502475 0.063627452 4.9778031e-39
0.86594069 0.1502475 0.066127449 5.0639045e-39
0.86594069 0.1527475 0.063627452 7.3748895e-39
0.86594069 0.1527475 0.066127449 3.588773e-39
0.86344069 0.1502475 0.068627447 5.8879226e-39
0.86344069 0.1527475 0.068627447 4.2284013e-39
0.86344069 0.15524749 0.063627452 1.0101905e-39
0.86344069 0.15774749 0.063627452 0
0.86594069 0.15524749 0.063627452 7.3540143e-40
0.86594069 0.15524749 0.066127449 4.7026834e-39
0.86594069 0.15774749 0.063627452 0
0.86844069 0.1502475 0.063627452 5.1561211e-39
0.86844069 0.1527475 0.063627452 3.8657326e-39
0.86844069 0.15524749 0.063627452 2.3062906e-39
0.84094071 0.12774749 0.07362745 1.0133215e-38
0.84094071 0.13024749 0.07362745 8.8424764e-39
0.84344071 0.12774749 0.07362745 9.5746941e-39
0.84344071 0.13024749 0.07362745 6.5318795e-39
0.84594071 0.13024749 0.07362745 9.3931713e-39
0.87344074 0.15524749 0.066127449 1.1425109e-38
0.87344074 0.15774749 0.063627452 1.2447116e-38
0.87344074 0.15774749 0.066127449 1.6219283e-38
