# .PCD v0.7 - Point Cloud Data file format
VERSION 0.7
FIELDS x y z rgb
SIZE 4 4 4 4
TYPE F F F F
COUNT 1 1 1 1
WIDTH 204
HEIGHT 1
VIEWPOINT 0 0 0 1 0 0 0
POINTS 204
DATA ascii
0.84958816 -0.15283968 0.067076594 1.4096192e-38
0.84958816 -0.15033968 0.067076594 1.4371697e-38
0.84958816 -0.14783968 0.067076594 1.5570241e-38
0.84958816 -0.14533968 0.064576589 1.4927741e-38
0.84958816 -0.14533968 0.067076594 1.5662436e-38
0.85208815 -0.15283968 0.064576589 1.4095462e-38
0.85208815 -0.15283968 0.067076594 1.5199663e-38
0.85208815 -0.15033968 0.064576589 1.3821751e-38
0.85208815 -0.15033968 0.067076594 1.5017423e-38
0.85458815 -0.15283968 0.067076594 1.4925946e-38
0.85458815 -0.15033968 0.067076594 1.4559313e-38
0.85208815 -0.15283968 0.069576591 1.5108886e-38
0.85208815 -0.15033968 0.069576591 1.4835545e-38
0.85458815 -0.15283968 0.069576591 1.4831564e-38
0.85458815 -0.15033968 0.069576591 1.2807595e-38
0.85208815 -0.14783968 0.064576589 1.5848268e-38
0.85208815 -0.14783968 0.067076594 1.5939019e-38
0.85208815 -0.14533968 0.064576589 1.5756072e-38
0.85208815 -0.14533968 0.067076594 1.621561e-38
0.85458815 -0.14783968 0.067076594 1.5665659e-38
0.85458815 -0.14533968 0.067076594 1.6033019e-38
0.85208815 -0.14783968 0.069576591 1.5019937e-38
0.85458815 -0.14783968 0.069576591 1.1793443e-38
0.85458815 -0.14533968 0.069576591 1.2257312e-38
0.84458816 -0.13533968 0.062076591 1.2716493e-38
0.84458816 -0.13283968 0.062076591 1.4096555e-38
0.84458816 -0.13033968 0.062076591 1.5387294e-38
0.84958816 -0.14283967 0.064576589 1.5389092e-38
0.84958816 -0.14283967 0.067076594 1.5848271e-38
0.84708816 -0.13533968 0.064576589 1.3544453e-38
0.84708816 -0.13533968 0.067076594 1.557059e-38
0.84958816 -0.13783967 0.064576589 1.5110337e-38
0.84958816 -0.13783967 0.067076594 1.5203249e-38
0.84958816 -0.13533968 0.064576589 1.5110337e-38
0.84958816 -0.13533968 0.067076594 1.5295082e-38
0.84958816 -0.13783967 0.069576591 1.4098706e-38
0.85208815 -0.14283967 0.064576589 1.621561e-38
0.85208815 -0.14283967 0.067076594 1.5665306e-38
0.85458815 -0.14283967 0.067076594 1.6400007e-38
0.85458815 -0.14033967 0.067076594 1.557276e-38
0.85208815 -0.13783967 0.064576589 1.5295449e-38
0.85208815 -0.13783967 0.067076594 1.4927391e-38
0.85208815 -0.13533968 0.064576589 1.557059e-38
0.85208815 -0.13533968 0.067076594 1.5572757e-38
0.85458815 -0.13783967 0.067076594 1.5294729e-38
0.85458815 -0.13533968 0.067076594 1.6123416e-38
0.85208815 -0.13783967 0.069576591 1.4098356e-38
0.85208815 -0.13533968 0.069576591 1.465153e-38
0.84708816 -0.13283968 0.064576589 1.2622876e-38
0.84708816 -0.13283968 0.067076594 1.4925573e-38
0.84708816 -0.13033968 0.064576589 1.2807267e-38
0.84708816 -0.13033968 0.067076594 1.4464955e-38
0.84958816 -0.13283968 0.064576589 1.5017776e-38
0.84958816 -0.13283968 0.067076594 1.4927388e-38
0.84958816 -0.13033968 0.064576589 1.4097262e-38
0.84958816 -0.13033968 0.067076594 1.3823561e-38
0.85208815 -0.13283968 0.064576589 1.5477678e-38
0.85208815 -0.13283968 0.067076594 1.5480565e-38
0.85208815 -0.13033968 0.064576589 1.3916116e-38
0.85208815 -0.13033968 0.067076594 1.4742275e-38
0.85458815 -0.13283968 0.067076594 1.6030852e-38
0.85458815 -0.13033968 0.067076594 1.4927022e-38
0.85208815 -0.13283968 0.069576591 1.5020304e-38
0.85208815 -0.13033968 0.069576591 1.4650082e-38
0.85458815 -0.13283968 0.069576591 1.4007609e-38
0.85458815 -0.13033968 0.069576591 1.4650431e-38
0.85208815 -0.12783967 0.064576589 1.2809037e-38
0.85708815 -0.15533967 0.064576589 2.0824299e-38
0.85708815 -0.15533967 0.067076594 2.0270421e-38
0.85958815 -0.15533967 0.064576589 2.0455889e-38
0.85708815 -0.15283968 0.064576589 1.5200382e-38
0.85708815 -0.15283968 0.067076594 1.5200382e-38
0.85708815 -0.15033968 0.067076594 1.3176379e-38
0.85958815 -0.15283968 0.064576589 1.5200738e-38
0.85708815 -0.15283968 0.069576591 1.2717544e-38
0.85708815 -0.15283968 0.072076589 9.5832658e-39
0.85708815 -0.15033968 0.069576591 1.1977506e-38
0.85708815 -0.15033968 0.072076589 9.3056251e-39
0.85958815 -0.15283968 0.069576591 1.2716841e-38
0.85958815 -0.15033968 0.069576591 1.2254107e-38
0.85708815 -0.14783968 0.067076594 1.1243512e-38
0.85708815 -0.14533968 0.064576589 1.6215243e-38
0.85708815 -0.14533968 0.067076594 1.2073642e-38
0.85958815 -0.14533968 0.064576589 1.4929187e-38
0.85708815 -0.14783968 0.069576591 1.2438126e-38
0.85708815 -0.14783968 0.072076589 1.363882e-38
0.85958815 -0.14783968 0.069576591 1.262248e-38
0.85958815 -0.14533968 0.069576591 1.2807617e-38
0.86208814 -0.15033968 0.067076594 1.17016e-38
0.86208814 -0.15033968 0.072076589 6.8174347e-39
0.86458814 -0.15033968 0.069576591 6.6334008e-39
0.86458814 -0.15033968 0.072076589 1.3640985e-38
0.86208814 -0.14783968 0.067076594 1.1427904e-38
0.86208814 -0.14533968 0.064576589 1.2443148e-38
0.86208814 -0.14533968 0.067076594 1.2073274e-38
0.86458814 -0.14533968 0.067076594 1.2901958e-38
0.86208814 -0.14783968 0.072076589 1.7136126e-38
0.86208814 -0.14533968 0.069576591 1.4276241e-38
0.86458814 -0.14783968 0.069576591 1.7229042e-38
0.86458814 -0.14783968 0.072076589 1.52976e-38
0.86458814 -0.14533968 0.069576591 1.1328521e-38
0.86458814 -0.14533968 0.072076589 1.0134645e-38
0.86708814 -0.15033968 0.069576591 1.3549141e-38
0.86708814 -0.14533968 0.067076594 9.304193e-39
0.86708814 -0.14783968 0.069576591 1.5849312e-38
0.86708814 -0.14533968 0.069576591 1.0501607e-38
0.86708814 -0.14533968 0.072076589 1.2344466e-38
0.86958814 -0.14783968 0.069576591 1.4372772e-38
0.86958814 -0.14533968 0.069576591 1.1516175e-38
0.86958814 -0.14533968 0.072076589 1.0961178e-38
0.87208813 -0.14783968 0.069576591 1.1976052e-38
0.87208813 -0.14533968 0.069576591 1.1332134e-38
0.85708815 -0.14283967 0.064576589 1.5940465e-38
0.85958815 -0.14283967 0.064576589 1.5019954e-38
0.85958815 -0.14033967 0.064576589 1.437494e-38
0.85708815 -0.13783967 0.067076594 1.428274e-38
0.85958815 -0.13783967 0.064576589 1.428274e-38
0.85958815 -0.13533968 0.064576589 1.4744078e-38
0.86208814 -0.14283967 0.064576589 1.2904125e-38
0.86208814 -0.14283967 0.067076594 1.2904125e-38
0.86208814 -0.14033967 0.064576589 1.3178195e-38
0.86208814 -0.14033967 0.067076594 1.3178192e-38
0.86458814 -0.14283967 0.067076594 1.3178545e-38
0.86458814 -0.14033967 0.067076594 1.3729946e-38
0.86208814 -0.14283967 0.069576591 1.1885655e-38
0.86208814 -0.14033967 0.069576591 1.2622876e-38
0.86458814 -0.14283967 0.069576591 1.0779679e-38
0.86458814 -0.14033967 0.069576591 1.1146683e-38
0.86208814 -0.13783967 0.064576589 1.2069699e-38
0.86208814 -0.13783967 0.067076594 1.1794541e-38
0.86208814 -0.13533968 0.064576589 1.2439558e-38
0.86208814 -0.13533968 0.067076594 1.1517594e-38
0.86458814 -0.13783967 0.067076594 1.2347715e-38
0.86458814 -0.13533968 0.067076594 1.2070768e-38
0.86208814 -0.13783967 0.069576591 1.2898015e-38
0.86458814 -0.13783967 0.069576591 1.0317301e-38
0.86458814 -0.13533968 0.069576591 1.2443186e-38
0.85708815 -0.13283968 0.064576589 1.5019937e-38
0.85708815 -0.13283968 0.067076594 1.5388716e-38
0.85708815 -0.13033968 0.064576589 1.5109616e-38
0.85958815 -0.13283968 0.064576589 1.4835545e-38
0.85958815 -0.13033968 0.064576589 1.4926672e-38
0.85708815 -0.13283968 0.069576591 1.1612353e-38
0.85708815 -0.13033968 0.069576591 1.3085633e-38
0.85708815 -0.12783967 0.064576589 1.4005063e-38
0.85958815 -0.12783967 0.064576589 1.4189454e-38
0.86208814 -0.13283968 0.064576589 1.4927744e-38
0.86208814 -0.13283968 0.067076594 1.4376016e-38
0.86208814 -0.13033968 0.064576589 1.4926672e-38
0.86208814 -0.13033968 0.067076594 1.4834839e-38
0.86458814 -0.13283968 0.067076594 1.2256629e-38
0.86458814 -0.13033968 0.067076594 1.3269664e-38
0.86458814 -0.13283968 0.069576591 1.0414882e-38
0.86458814 -0.13033968 0.069576591 9.5836385e-39
0.86708814 -0.14283967 0.067076594 1.0871876e-38
0.86708814 -0.14033967 0.067076594 1.133143e-38
0.86708814 -0.14283967 0.069576591 1.0594553e-38
0.86708814 -0.14033967 0.069576591 1.0871879e-38
0.86958814 -0.14283967 0.069576591 1.0779679e-38
0.86958814 -0.14283967 0.072076589 1.1513634e-38
0.86958814 -0.14033967 0.069576591 1.1238864e-38
0.86958814 -0.14033967 0.072076589 1.1332137e-38
0.86708814 -0.13783967 0.067076594 1.0778625e-38
0.86708814 -0.13533968 0.064576589 1.179491e-38
0.86708814 -0.13533968 0.067076594 1.1055214e-38
0.86708814 -0.13533968 0.069576591 1.3639874e-38
0.86958814 -0.13783967 0.069576591 8.3869128e-39
0.86958814 -0.13783967 0.072076589 1.1056273e-38
0.86958814 -0.13533968 0.069576591 8.847891e-39
0.86958814 -0.13533968 0.072076589 1.1148469e-38
0.87458819 -0.14283967 0.067076594 1.1240289e-38
0.87458819 -0.14033967 0.067076594 1.0226507e-38
0.87208813 -0.14283967 0.069576591 1.0870805e-38
0.87208813 -0.14033967 0.069576591 1.0502749e-38
0.87208813 -0.13783967 0.067076594 8.847891e-39
0.87458819 -0.13783967 0.067076594 8.8468372e-39
0.87458819 -0.13533968 0.067076594 1.3089201e-38
0.87208813 -0.13783967 0.069576591 9.3960649e-39
0.87208813 -0.13533968 0.069576591 1.2814059e-38
0.87458819 -0.13783967 0.072076589 1.2345916e-38
0.86708814 -0.13283968 0.064576589 1.1519804e-38
0.86708814 -0.13283968 0.067076594 1.0876207e-38
0.86708814 -0.13033968 0.064576589 1.3453693e-38
0.86708814 -0.13033968 0.067076594 9.1237352e-39
0.86958814 -0.13033968 0.064576589 1.2626447e-38
0.86708814 -0.13283968 0.069576591 1.2994507e-38
0.86708814 -0.13283968 0.072076589 1.143003e-38
0.86708814 -0.13033968 0.069576591 1.0222838e-38
0.86708814 -0.13033968 0.072076589 8.4737387e-39
0.86958814 -0.13283968 0.069576591 1.2903034e-38
0.86958814 -0.13033968 0.069576591 1.0499094e-38
0.86958814 -0.12783967 0.064576589 1.428128e-38
0.86958814 -0.12783967 0.067076594 1.3451875e-38
0.87458819 -0.13283968 0.067076594 1.1521875e-38
0.87208813 -0.13283968 0.069576591 1.1338929e-38
0.87208813 -0.12783967 0.064576589 1.3727008e-38
0.87708819 -0.14283967 0.069576591 1.142146e-38
0.87708819 -0.14033967 0.069576591 1.077896e-38
0.87708819 -0.13783967 0.069576591 1.1332853e-38
0.87708819 -0.13783967 0.072076589 1.2345207e-38
0.87708819 -0.13533968 0.069576591 1.1055174e-38
0.88208818 -0.14283967 0.067076594 1.1331784e-38
0.88208818 -0.14033967 0.067076594 1.1239588e-38
0.88208818 -0.13783967 0.067076594 1.0597087e-38
