# .PCD v0.7 - Point Cloud Data file format
VERSION 0.7
FIELDS x y z rgb
SIZE 4 4 4 4
TYPE F F F F
COUNT 1 1 1 1
WIDTH 199
HEIGHT 1
VIEWPOINT 0 0 0 1 0 0 0
POINTS 199
DATA ascii
0.84986049 -0.15251458 0.064751953 1.4370602e-38
0.84986049 -0.15001458 0.064751953 1.4094756e-38
0.84986049 -0.14751458 0.064751953 1.547769e-38
0.84486049 -0.14251459 0.062251955 1.3178901e-38
0.84486049 -0.14251459 0.064751953 1.4374937e-38
0.84486049 -0.14001459 0.062251955 1.3638074e-38
0.84486049 -0.14001459 0.064751953 1.4744078e-38
0.84486049 -0.13751458 0.062251955 1.2625377e-38
0.84486049 -0.13751458 0.064751953 1.3729551e-38
0.84986049 -0.14501458 0.064751953 1.4927741e-38
0.84986049 -0.14251459 0.064751953 1.5665673e-38
0.84986049 -0.14001459 0.064751953 1.5939022e-38
0.84986049 -0.13751458 0.064751953 1.5478044e-38
0.84486049 -0.13501458 0.062251955 1.2809409e-38
0.84486049 -0.13501458 0.064751953 1.3544453e-38
0.84486049 -0.13251458 0.062251955 1.373065e-38
0.84486049 -0.13251458 0.064751953 1.2532119e-38
0.84736049 -0.13501458 0.064751953 1.5568794e-38
0.84736049 -0.13251458 0.064751953 1.4650431e-38
0.84986049 -0.13501458 0.064751953 1.5477325e-38
0.84986049 -0.13251458 0.064751953 1.501777e-38
0.84986049 -0.13001458 0.064751953 1.3729215e-38
0.85236049 -0.15251458 0.064751953 1.4095462e-38
0.85486048 -0.15251458 0.064751953 1.4832306e-38
0.85236049 -0.15251458 0.067251951 1.5475877e-38
0.85236049 -0.15251458 0.069751956 1.5201088e-38
0.85486048 -0.15501457 0.067251951 2.0363337e-38
0.85486048 -0.15501457 0.069751956 2.0271488e-38
0.85486048 -0.15251458 0.067251951 1.5018142e-38
0.85486048 -0.15251458 0.069751956 1.4555352e-38
0.85236049 -0.15001458 0.064751953 1.4279502e-38
0.85236049 -0.14751458 0.064751953 1.6031568e-38
0.85486048 -0.15001458 0.064751953 1.5109618e-38
0.85486048 -0.14751458 0.064751953 1.6215246e-38
0.85236049 -0.15001458 0.067251951 1.5017067e-38
0.85236049 -0.15001458 0.069751956 1.4744432e-38
0.85236049 -0.14751458 0.067251951 1.6123413e-38
0.85236049 -0.14751458 0.069751956 1.5112855e-38
0.85486048 -0.15001458 0.067251951 1.5204688e-38
0.85486048 -0.15001458 0.069751956 1.3084201e-38
0.85486048 -0.14751458 0.067251951 1.4744078e-38
0.85486048 -0.14751458 0.069751956 1.1427554e-38
0.85736048 -0.15501457 0.064751953 2.0547363e-38
0.85736048 -0.15251458 0.064751953 1.5107819e-38
0.85986048 -0.15501457 0.064751953 2.036369e-38
0.85986048 -0.15251458 0.064751953 1.4924507e-38
0.85736048 -0.15251458 0.069751956 1.2440962e-38
0.85736048 -0.14751458 0.064751953 1.5112137e-38
0.85736048 -0.15001458 0.067251951 1.3176026e-38
0.85736048 -0.15001458 0.069751956 1.2621469e-38
0.85736048 -0.14751458 0.067251951 1.1519024e-38
0.85736048 -0.14751458 0.069751956 1.2621408e-38
0.85986048 -0.15001458 0.069751956 9.304193e-39
0.85986048 -0.14751458 0.069751956 1.6209842e-38
0.85236049 -0.14501458 0.064751953 1.5939372e-38
0.85486048 -0.14501458 0.064751953 1.6399277e-38
0.85486048 -0.14251459 0.064751953 1.5940468e-38
0.85236049 -0.14501458 0.067251951 1.6123413e-38
0.85236049 -0.14251459 0.067251951 1.6307808e-38
0.85486048 -0.14501458 0.067251951 1.5112502e-38
0.85486048 -0.14501458 0.069751956 1.2164393e-38
0.85486048 -0.14001459 0.064751953 1.5480199e-38
0.85486048 -0.13751458 0.064751953 1.501994e-38
0.85236049 -0.13751458 0.067251951 1.5109984e-38
0.85736048 -0.14501458 0.064751953 1.5022092e-38
0.85736048 -0.14251459 0.064751953 1.5848618e-38
0.85986048 -0.14501458 0.064751953 1.5021739e-38
0.85986048 -0.14251459 0.064751953 1.4744792e-38
0.85736048 -0.14501458 0.067251951 1.2441346e-38
0.85986048 -0.14501458 0.069751956 1.3266778e-38
0.85736048 -0.14001459 0.064751953 1.5387644e-38
0.85736048 -0.13751458 0.064751953 1.5480565e-38
0.85986048 -0.14001459 0.064751953 1.4651883e-38
0.85986048 -0.13751458 0.064751953 1.179526e-38
0.86236048 -0.15501457 0.064751953 2.0271475e-38
0.86236048 -0.15251458 0.064751953 1.4370586e-38
0.86236048 -0.15251458 0.067251951 1.2716472e-38
0.86236048 -0.15251458 0.069751956 7.2769681e-39
0.86236048 -0.15001458 0.069751956 1.4468931e-38
0.86236048 -0.14751458 0.069751956 1.7135771e-38
0.86486048 -0.15001458 0.069751956 1.4376403e-38
0.86486048 -0.14751458 0.069751956 1.6951771e-38
0.86736047 -0.15001458 0.069751956 1.3548788e-38
0.86736047 -0.14751458 0.069751956 1.5756426e-38
0.86986047 -0.14751458 0.069751956 1.1974629e-38
0.86236048 -0.14501458 0.064751953 1.1891772e-38
0.86236048 -0.14251459 0.064751953 1.271974e-38
0.86236048 -0.14501458 0.067251951 1.2993097e-38
0.86236048 -0.14501458 0.069751956 1.3997507e-38
0.86236048 -0.14251459 0.067251951 1.3546271e-38
0.86236048 -0.14251459 0.069751956 1.1516172e-38
0.86486048 -0.14501458 0.067251951 1.1607642e-38
0.86486048 -0.14501458 0.069751956 9.3038301e-39
0.86486048 -0.14251459 0.067251951 1.1792393e-38
0.86486048 -0.14251459 0.069751956 1.1055188e-38
0.86236048 -0.14001459 0.064751953 1.3086715e-38
0.86236048 -0.13751458 0.064751953 1.1888528e-38
0.86236048 -0.14001459 0.067251951 1.3638817e-38
0.86236048 -0.14001459 0.069751956 1.1886399e-38
0.86236048 -0.13751458 0.067251951 1.2623939e-38
0.86236048 -0.13751458 0.069751956 1.2808336e-38
0.86486048 -0.14001459 0.067251951 1.2069346e-38
0.86486048 -0.14001459 0.069751956 1.1239235e-38
0.86486048 -0.13751458 0.067251951 1.2715775e-38
0.86486048 -0.13751458 0.069751956 1.1055923e-38
0.86736047 -0.14501458 0.069751956 9.0304704e-39
0.86736047 -0.14251459 0.067251951 1.1053749e-38
0.86736047 -0.14251459 0.069751956 1.050524e-38
0.86986047 -0.14501458 0.069751956 1.105589e-38
0.86986047 -0.14251459 0.069751956 1.0503452e-38
0.86736047 -0.13751458 0.064751953 1.1978573e-38
0.86736047 -0.14001459 0.067251951 1.1699843e-38
0.86736047 -0.14001459 0.069751956 1.105627e-38
0.86736047 -0.13751458 0.067251951 1.0502761e-38
0.86736047 -0.13751458 0.069751956 8.9375685e-39
0.86986047 -0.14001459 0.069751956 1.0226156e-38
0.86986047 -0.13751458 0.069751956 8.3869128e-39
0.85236049 -0.13501458 0.064751953 1.5570945e-38
0.85236049 -0.13251458 0.064751953 1.5111056e-38
0.85486048 -0.13501458 0.064751953 1.5756423e-38
0.85486048 -0.13251458 0.064751953 1.6124119e-38
0.85236049 -0.13501458 0.067251951 1.5848624e-38
0.85486048 -0.13251458 0.067251951 1.4927741e-38
0.85486048 -0.13001458 0.064751953 1.4834827e-38
0.85486048 -0.13001458 0.067251951 1.5111053e-38
0.85736048 -0.13501458 0.064751953 1.5757153e-38
0.85736048 -0.13251458 0.064751953 1.4927741e-38
0.85986048 -0.13501458 0.064751953 1.4927741e-38
0.85986048 -0.13251458 0.064751953 1.4744429e-38
0.85736048 -0.13001458 0.064751953 1.4927022e-38
0.85986048 -0.13001458 0.064751953 1.4926672e-38
0.86236048 -0.13501458 0.064751953 1.0874377e-38
0.86236048 -0.13251458 0.062251955 1.4744432e-38
0.86236048 -0.13251458 0.064751953 1.4101243e-38
0.86236048 -0.13501458 0.067251951 1.197857e-38
0.86236048 -0.13251458 0.067251951 1.1888201e-38
0.86486048 -0.13501458 0.067251951 1.3176394e-38
0.86486048 -0.13501458 0.069751956 1.0687513e-38
0.86486048 -0.13251458 0.067251951 1.0779679e-38
0.86486048 -0.13251458 0.069751956 1.0783662e-38
0.86236048 -0.13001458 0.062251955 1.4189107e-38
0.86236048 -0.13001458 0.064751953 1.4465334e-38
0.86236048 -0.13001458 0.067251951 1.3175691e-38
0.86486048 -0.13001458 0.067251951 1.0135016e-38
0.86486048 -0.13001458 0.069751956 9.7669536e-39
0.86736047 -0.13501458 0.064751953 1.1610904e-38
0.86736047 -0.13251458 0.064751953 1.2071882e-38
0.86736047 -0.13501458 0.067251951 1.289803e-38
0.86736047 -0.13501458 0.069751956 1.3362943e-38
0.86736047 -0.13251458 0.067251951 1.0777531e-38
0.86736047 -0.13251458 0.069751956 1.2903034e-38
0.86986047 -0.13501458 0.069751956 1.3271817e-38
0.86986047 -0.13251458 0.069751956 1.3178545e-38
0.86736047 -0.13001458 0.064751953 1.3360441e-38
0.86986047 -0.13001458 0.064751953 1.2626092e-38
0.86736047 -0.13001458 0.067251951 1.2808689e-38
0.86736047 -0.13001458 0.069751956 1.0680939e-38
0.86986047 -0.13001458 0.067251951 1.2165835e-38
0.86986047 -0.13001458 0.069751956 1.0315737e-38
0.87236047 -0.15001458 0.069751956 1.4188766e-38
0.87236047 -0.14751458 0.069751956 1.1976431e-38
0.87236047 -0.14501458 0.069751956 1.1701263e-38
0.87236047 -0.14251459 0.069751956 1.1240642e-38
0.87486047 -0.14501458 0.069751956 1.1238124e-38
0.87486047 -0.14251459 0.067251951 1.0872225e-38
0.87486047 -0.14251459 0.069751956 1.0779679e-38
0.87236047 -0.14001459 0.069751956 1.0411257e-38
0.87236047 -0.13751458 0.067251951 8.6631452e-39
0.87236047 -0.13751458 0.069751956 8.8468372e-39
0.87486047 -0.14001459 0.067251951 1.0411607e-38
0.87486047 -0.14001459 0.069751956 1.1148822e-38
0.87486047 -0.13751458 0.067251951 9.4893382e-39
0.87486047 -0.13751458 0.069751956 1.1332853e-38
0.87736046 -0.14001459 0.067251951 1.1148822e-38
0.87736046 -0.13751458 0.069751956 1.2621058e-38
0.87236047 -0.13501458 0.067251951 1.3364731e-38
0.87236047 -0.13501458 0.069751956 1.2998452e-38
0.87236047 -0.13251458 0.069751956 1.1246377e-38
0.87486047 -0.13501458 0.067251951 1.3181401e-38
0.87486047 -0.13251458 0.067251951 1.1706269e-38
0.87236047 -0.13001458 0.064751953 1.2165838e-38
0.87236047 -0.12751459 0.064751953 1.3728459e-38
0.87236047 -0.13001458 0.067251951 1.1791606e-38
0.85736048 -0.15251458 0.072251953 9.5828959e-39
0.85736048 -0.15001458 0.072251953 9.3056251e-39
0.85736048 -0.14751458 0.072251953 1.6118375e-38
0.85986048 -0.15001458 0.072251953 6.4490081e-39
0.85986048 -0.14751458 0.072251953 1.7136846e-38
0.86486048 -0.15001458 0.072251953 1.3089962e-38
0.86486048 -0.14751458 0.072251953 1.5848971e-38
0.86486048 -0.14501458 0.072251953 1.0778572e-38
0.86986047 -0.14251459 0.072251953 1.1511834e-38
0.86986047 -0.13751458 0.072251953 1.1056626e-38
0.86736047 -0.13501458 0.072251953 1.3089204e-38
0.86736047 -0.13251458 0.072251953 1.1431124e-38
0.86736047 -0.13001458 0.072251953 8.1974993e-39
0.87236047 -0.13751458 0.074751951 1.1974629e-38
0.87486047 -0.14001459 0.072251953 1.2251199e-38
0.87486047 -0.13751458 0.072251953 1.225086e-38
