# .PCD v0.7 - Point Cloud Data file format
VERSION 0.7
FIELDS x y z rgb
SIZE 4 4 4 4
TYPE F F F F
COUNT 1 1 1 1
WIDTH 210
HEIGHT 1
VIEWPOINT 0 0 0 1 0 0 0
POINTS 210
DATA ascii
0.85180885 -0.15251458 0.065429807 1.3820317e-38
0.85180885 -0.15251458 0.067929804 1.4741562e-38
0.85180885 -0.15251458 0.070429802 1.4647196e-38
0.85180885 -0.15001458 0.065429807 1.4279855e-38
0.85180885 -0.15001458 0.067929804 1.5200732e-38
0.85180885 -0.14751458 0.065429807 1.5754988e-38
0.85180885 -0.14751458 0.067929804 1.6399274e-38
0.85180885 -0.15001458 0.070429802 1.2624645e-38
0.85180885 -0.14751458 0.070429802 1.1610854e-38
0.84430885 -0.13751458 0.062929809 1.2439205e-38
0.84430885 -0.13751458 0.067929804 1.5385482e-38
0.84680885 -0.13751458 0.065429807 1.382032e-38
0.84930885 -0.14501458 0.065429807 1.5570945e-38
0.84930885 -0.14251459 0.065429807 1.5204698e-38
0.85180885 -0.14501458 0.065429807 1.5662792e-38
0.85180885 -0.14501458 0.067929804 1.621489e-38
0.85180885 -0.14251459 0.067929804 1.5757156e-38
0.84930885 -0.14001459 0.065429807 1.557311e-38
0.84930885 -0.13751458 0.065429807 1.511069e-38
0.85180885 -0.13751458 0.065429807 1.4927741e-38
0.85180885 -0.13751458 0.067929804 1.5754991e-38
0.84430885 -0.13501458 0.062929809 1.271579e-38
0.84430885 -0.13251458 0.062929809 1.4004343e-38
0.84430885 -0.13501458 0.065429807 1.3544809e-38
0.84430885 -0.13501458 0.067929804 1.5385482e-38
0.84430885 -0.13251458 0.065429807 1.2715422e-38
0.84430885 -0.13251458 0.067929804 1.4925573e-38
0.84680885 -0.13501458 0.065429807 1.3543735e-38
0.84680885 -0.13501458 0.067929804 1.5295801e-38
0.84680885 -0.13251458 0.065429807 1.2254816e-38
0.84680885 -0.13251458 0.067929804 1.5111409e-38
0.84930885 -0.13501458 0.065429807 1.5477678e-38
0.84930885 -0.13501458 0.067929804 1.5572757e-38
0.84930885 -0.13251458 0.065429807 1.4741562e-38
0.85180885 -0.13501458 0.065429807 1.5388e-38
0.85180885 -0.13501458 0.067929804 1.6031217e-38
0.85180885 -0.13251458 0.065429807 1.5202546e-38
0.85180885 -0.13251458 0.067929804 1.5203234e-38
0.84930885 -0.13001458 0.065429807 1.4004713e-38
0.85180885 -0.13001458 0.067929804 1.4926669e-38
0.85430884 -0.15501457 0.065429807 2.0823948e-38
0.85430884 -0.15501457 0.067929804 2.0272937e-38
0.85430884 -0.15251458 0.065429807 1.4924507e-38
0.85430884 -0.15251458 0.067929804 1.5293287e-38
0.85680884 -0.15501457 0.065429807 2.0548082e-38
0.85680884 -0.15251458 0.065429807 1.4924507e-38
0.85680884 -0.15251458 0.067929804 1.4555e-38
0.85430884 -0.15251458 0.072929807 1.2623914e-38
0.85680884 -0.15251458 0.070429802 1.2716475e-38
0.85680884 -0.15251458 0.072929807 9.5836189e-39
0.85430884 -0.15001458 0.065429807 1.5293281e-38
0.85430884 -0.15001458 0.067929804 1.4835899e-38
0.85430884 -0.14751458 0.065429807 1.6215965e-38
0.85430884 -0.14751458 0.067929804 1.4836274e-38
0.85680884 -0.15001458 0.065429807 1.4834829e-38
0.85680884 -0.15001458 0.067929804 1.2992705e-38
0.85680884 -0.14751458 0.065429807 1.6033017e-38
0.85680884 -0.14751458 0.067929804 1.1703062e-38
0.85680884 -0.15001458 0.070429802 1.2345226e-38
0.85680884 -0.15001458 0.072929807 1.35477e-38
0.85680884 -0.14751458 0.070429802 1.2344466e-38
0.85680884 -0.14751458 0.072929807 1.6211999e-38
0.85930884 -0.15501457 0.065429807 2.0271137e-38
0.85930884 -0.15251458 0.065429807 1.5108183e-38
0.85930884 -0.15251458 0.067929804 1.4555352e-38
0.86180884 -0.15501457 0.065429807 2.0363318e-38
0.86180884 -0.15501457 0.067929804 1.8711356e-38
0.86180884 -0.15251458 0.065429807 1.4280204e-38
0.86180884 -0.15251458 0.067929804 1.2349122e-38
0.85930884 -0.15251458 0.070429802 9.672572e-39
0.86180884 -0.15251458 0.072929807 9.6754895e-39
0.85930884 -0.15001458 0.067929804 1.2347009e-38
0.85930884 -0.14751458 0.067929804 1.2438465e-38
0.86180884 -0.15001458 0.065429807 1.1978204e-38
0.86180884 -0.15001458 0.067929804 1.253103e-38
0.86180884 -0.14751458 0.065429807 1.1519024e-38
0.86180884 -0.14751458 0.067929804 1.2806538e-38
0.85930884 -0.15001458 0.070429802 9.6740545e-39
0.85930884 -0.14751458 0.070429802 1.5843218e-38
0.86180884 -0.15001458 0.072929807 7.0029008e-39
0.86180884 -0.14751458 0.072929807 1.6677666e-38
0.85430884 -0.14501458 0.065429807 1.6215965e-38
0.85430884 -0.14501458 0.067929804 1.5112855e-38
0.85430884 -0.14251459 0.065429807 1.5664959e-38
0.85430884 -0.14251459 0.067929804 1.4744792e-38
0.85680884 -0.14501458 0.065429807 1.5112502e-38
0.85680884 -0.14501458 0.067929804 1.244098e-38
0.85680884 -0.14251459 0.065429807 1.4744792e-38
0.85430884 -0.14001459 0.065429807 1.5479843e-38
0.85430884 -0.13751458 0.065429807 1.4742278e-38
0.85430884 -0.13751458 0.067929804 1.4374937e-38
0.85680884 -0.14001459 0.065429807 1.4927388e-38
0.85680884 -0.13751458 0.065429807 1.538765e-38
0.85930884 -0.14501458 0.065429807 1.5020304e-38
0.85930884 -0.14501458 0.067929804 1.2440627e-38
0.85930884 -0.14251459 0.065429807 1.4744432e-38
0.86180884 -0.14501458 0.065429807 1.2625741e-38
0.86180884 -0.14501458 0.067929804 1.2993097e-38
0.86180884 -0.14251459 0.065429807 1.3086718e-38
0.86180884 -0.14251459 0.067929804 1.3270407e-38
0.85930884 -0.14001459 0.065429807 1.4282021e-38
0.85930884 -0.13751458 0.065429807 1.4007227e-38
0.86180884 -0.14001459 0.065429807 1.3085996e-38
0.86180884 -0.14001459 0.067929804 1.2991648e-38
0.86180884 -0.13751458 0.065429807 1.2438481e-38
0.86180884 -0.13751458 0.067929804 1.225552e-38
0.86430883 -0.15251458 0.065429807 1.2440977e-38
0.86430883 -0.15251458 0.070429802 6.7266264e-39
0.86430883 -0.15001458 0.070429802 1.447038e-38
0.86430883 -0.14751458 0.070429802 1.1512575e-38
0.86680883 -0.15001458 0.070429802 1.327436e-38
0.86680883 -0.14751458 0.070429802 1.0043871e-38
0.86930883 -0.14751458 0.070429802 1.4188751e-38
0.87180883 -0.14751458 0.070429802 1.2068607e-38
0.86430883 -0.14501458 0.065429807 1.3177488e-38
0.86430883 -0.14501458 0.067929804 1.1699837e-38
0.86430883 -0.14251459 0.065429807 1.3270043e-38
0.86430883 -0.14251459 0.067929804 1.2160816e-38
0.86680883 -0.14501458 0.067929804 9.3048993e-39
0.86680883 -0.14251459 0.067929804 1.133143e-38
0.86430883 -0.14501458 0.070429802 1.1053374e-38
0.86430883 -0.14251459 0.070429802 1.0779326e-38
0.86680883 -0.14501458 0.070429802 8.3872688e-39
0.86680883 -0.14501458 0.072929807 1.1332853e-38
0.86680883 -0.14251459 0.070429802 1.0594553e-38
0.86430883 -0.14001459 0.065429807 1.3545902e-38
0.86430883 -0.14001459 0.067929804 1.2528525e-38
0.86430883 -0.13751458 0.065429807 1.2807264e-38
0.86430883 -0.13751458 0.067929804 1.2622507e-38
0.86680883 -0.14001459 0.067929804 1.133143e-38
0.86680883 -0.13751458 0.067929804 1.0778629e-38
0.86430883 -0.14001459 0.070429802 1.1239588e-38
0.86430883 -0.13751458 0.070429802 1.0502043e-38
0.86680883 -0.14001459 0.070429802 1.0964074e-38
0.86930883 -0.14501458 0.070429802 1.0963721e-38
0.86930883 -0.14251459 0.070429802 9.8620387e-39
0.87180883 -0.14501458 0.070429802 1.1240289e-38
0.87180883 -0.14251459 0.070429802 1.0779329e-38
0.87180883 -0.14251459 0.072929807 1.1513278e-38
0.86930883 -0.14001459 0.070429802 1.0410553e-38
0.86930883 -0.13751458 0.070429802 8.6634983e-39
0.87180883 -0.14001459 0.070429802 1.0869373e-38
0.87180883 -0.14001459 0.072929807 1.1055191e-38
0.87180883 -0.13751458 0.070429802 9.3960649e-39
0.87180883 -0.13751458 0.072929807 1.0964781e-38
0.86180884 -0.13251458 0.062929809 1.4744432e-38
0.86180884 -0.13001458 0.062929809 1.4372419e-38
0.85430884 -0.13501458 0.065429807 1.5664956e-38
0.85430884 -0.13501458 0.067929804 1.5020656e-38
0.85430884 -0.13251458 0.065429807 1.5847549e-38
0.85430884 -0.13251458 0.067929804 1.5204685e-38
0.85680884 -0.13501458 0.065429807 1.5479846e-38
0.85680884 -0.13251458 0.065429807 1.5017786e-38
0.85680884 -0.13001458 0.065429807 1.4927378e-38
0.85930884 -0.13501458 0.065429807 1.4837348e-38
0.85930884 -0.13501458 0.067929804 1.2532825e-38
0.85930884 -0.13251458 0.065429807 1.4835192e-38
0.85930884 -0.13251458 0.067929804 1.4284542e-38
0.86180884 -0.13501458 0.065429807 1.1516525e-38
0.86180884 -0.13501458 0.067929804 1.1978573e-38
0.86180884 -0.13251458 0.065429807 1.4191275e-38
0.86180884 -0.13251458 0.067929804 1.2257344e-38
0.85930884 -0.13001458 0.065429807 1.5109984e-38
0.86180884 -0.13001458 0.065429807 1.5293287e-38
0.86180884 -0.13001458 0.067929804 9.7673095e-39
0.86430883 -0.13501458 0.065429807 1.1977503e-38
0.86430883 -0.13501458 0.067929804 1.3083125e-38
0.86430883 -0.13251458 0.065429807 1.1795305e-38
0.86430883 -0.13251458 0.067929804 1.1054471e-38
0.86430883 -0.13501458 0.070429802 1.0963021e-38
0.86430883 -0.13251458 0.070429802 1.059963e-38
0.86680883 -0.13501458 0.070429802 8.5723817e-39
0.86680883 -0.13501458 0.072929807 1.0044677e-38
0.86680883 -0.13251458 0.070429802 1.271864e-38
0.86680883 -0.13251458 0.072929807 1.1705916e-38
0.86430883 -0.13001458 0.065429807 1.3176747e-38
0.86430883 -0.13001458 0.067929804 9.7676599e-39
0.86680883 -0.13001458 0.065429807 1.3361138e-38
0.86680883 -0.13001458 0.067929804 1.1889956e-38
0.86430883 -0.13001458 0.070429802 9.860224e-39
0.86680883 -0.13001458 0.070429802 1.0315754e-38
0.86680883 -0.13001458 0.072929807 8.5655616e-39
0.86930883 -0.13501458 0.070429802 1.336401e-38
0.86930883 -0.13251458 0.070429802 1.1431122e-38
0.87180883 -0.13501458 0.070429802 1.3181404e-38
0.87180883 -0.13501458 0.072929807 1.0687468e-38
0.87180883 -0.13251458 0.070429802 1.1705913e-38
0.86930883 -0.13001458 0.065429807 1.2165835e-38
0.86930883 -0.12751459 0.065429807 1.3914668e-38
0.86930883 -0.13001458 0.070429802 1.151608e-38
0.87430882 -0.14751458 0.067929804 1.188279e-38
0.87430882 -0.14501458 0.067929804 1.1054838e-38
0.87430882 -0.14251459 0.067929804 1.1149172e-38
0.87430882 -0.14501458 0.070429802 1.0867909e-38
0.87430882 -0.14251459 0.070429802 1.1421083e-38
0.87680882 -0.14501458 0.070429802 1.1420717e-38
0.87680882 -0.14251459 0.070429802 1.1145225e-38
0.87430882 -0.14001459 0.067929804 1.0503102e-38
0.87430882 -0.13751458 0.067929804 9.4896857e-39
0.87430882 -0.14001459 0.070429802 1.14229e-38
0.87430882 -0.13751458 0.070429802 1.1056626e-38
0.87430882 -0.13751458 0.072929807 1.2343415e-38
0.87680882 -0.14001459 0.070429802 1.1329616e-38
0.87680882 -0.13751458 0.070429802 1.1148093e-38
0.87930882 -0.14001459 0.067929804 1.0503803e-38
0.87930882 -0.13751458 0.067929804 1.1056976e-38
0.87430882 -0.13501458 0.067929804 1.2906612e-38
0.87430882 -0.13251458 0.067929804 1.1431825e-38
0.87430882 -0.13501458 0.070429802 1.0687115e-38
0.87680882 -0.13501458 0.070429802 1.105589e-38
