# .PCD v0.7 - Point Cloud Data file format
VERSION 0.7
FIELDS x y z rgb
SIZE 4 4 4 4
TYPE F F F F
COUNT 1 1 1 1
WIDTH 195
HEIGHT 1
VIEWPOINT 0 0 0 1 0 0 0
POINTS 195
DATA ascii
0.85294932 -0.15140074 0.064886361 1.4279502e-38
0.85044932 -0.15140074 0.067386359 1.4923069e-38
0.85294932 -0.15140074 0.069886357 1.4832662e-38
0.85044932 -0.14640075 0.064886361 1.5478397e-38
0.85294932 -0.14890075 0.064886361 1.5662436e-38
0.85294932 -0.14640075 0.064886361 1.6307808e-38
0.85044932 -0.14890075 0.067386359 1.621561e-38
0.85294932 -0.14890075 0.069886357 1.5204335e-38
0.85044932 -0.14390075 0.064886361 1.5112502e-38
0.85044932 -0.14140074 0.064886361 1.5939372e-38
0.85294932 -0.14390075 0.064886361 1.5940817e-38
0.85294932 -0.14140074 0.064886361 1.5755341e-38
0.84544927 -0.13890074 0.062386356 1.2530285e-38
0.84544927 -0.13890074 0.064886361 1.3544456e-38
0.84544927 -0.13640074 0.062386356 1.2439555e-38
0.84544927 -0.13640074 0.064886361 1.3451908e-38
0.84794933 -0.13890074 0.064886361 1.5295803e-38
0.84794933 -0.13640074 0.064886361 1.5385129e-38
0.84544927 -0.13390075 0.062386356 1.271614e-38
0.84544927 -0.13390075 0.064886361 1.3267876e-38
0.84544927 -0.13140075 0.062386356 1.4925943e-38
0.84544927 -0.13140075 0.064886361 1.2807267e-38
0.84794933 -0.13390075 0.064886361 1.5385129e-38
0.84794933 -0.13140075 0.064886361 1.4831583e-38
0.85044932 -0.13890074 0.064886361 1.5478394e-38
0.85044932 -0.13640074 0.064886361 1.5660987e-38
0.85294932 -0.13890074 0.064886361 1.557059e-38
0.85294932 -0.13640074 0.064886361 1.5755338e-38
0.85044932 -0.13390075 0.064886361 1.5568792e-38
0.85044932 -0.13140075 0.064886361 1.4464971e-38
0.85294932 -0.13390075 0.064886361 1.4926319e-38
0.85294932 -0.13140075 0.064886361 1.4926294e-38
0.85044932 -0.12890075 0.064886361 1.4462817e-38
0.85544932 -0.15140074 0.064886361 1.4652586e-38
0.85794932 -0.15140074 0.064886361 1.4744782e-38
0.85544932 -0.15140074 0.067386359 1.5109595e-38
0.85544932 -0.15140074 0.069886357 1.2069351e-38
0.85794932 -0.15140074 0.067386359 1.2624645e-38
0.85794932 -0.15140074 0.069886357 1.1978599e-38
0.86044931 -0.15140074 0.064886361 1.2991636e-38
0.86294931 -0.15140074 0.064886361 1.2992705e-38
0.86044931 -0.15140074 0.069886357 9.2130764e-39
0.86294931 -0.15390074 0.067386359 1.2808293e-38
0.86294931 -0.15390074 0.069886357 9.85911e-39
0.86294931 -0.15140074 0.067386359 1.2345916e-38
0.86294931 -0.15140074 0.069886357 9.5807673e-39
0.85544932 -0.14890075 0.064886361 1.6490758e-38
0.85544932 -0.14640075 0.064886361 1.6398202e-38
0.85794932 -0.14890075 0.064886361 1.5113206e-38
0.85794932 -0.14640075 0.064886361 1.5021386e-38
0.85544932 -0.14890075 0.067386359 1.502064e-38
0.85544932 -0.14890075 0.069886357 1.234558e-38
0.85544932 -0.14640075 0.067386359 1.4929187e-38
0.85544932 -0.14640075 0.069886357 1.1519024e-38
0.85794932 -0.14890075 0.067386359 1.1610854e-38
0.85794932 -0.14890075 0.069886357 1.234738e-38
0.85794932 -0.14640075 0.069886357 1.2806523e-38
0.85544932 -0.14390075 0.064886361 1.5847915e-38
0.85544932 -0.14140074 0.064886361 1.5940471e-38
0.86044931 -0.14890075 0.064886361 1.1793092e-38
0.86044931 -0.14640075 0.064886361 1.2072923e-38
0.86294931 -0.14890075 0.064886361 1.1978554e-38
0.86294931 -0.14640075 0.064886361 1.2257665e-38
0.86044931 -0.14890075 0.069886357 1.3822858e-38
0.86294931 -0.14890075 0.067386359 1.2438112e-38
0.86294931 -0.14890075 0.069886357 1.3913962e-38
0.86294931 -0.14640075 0.067386359 1.3358976e-38
0.86294931 -0.14640075 0.069886357 1.4090422e-38
0.86044931 -0.14390075 0.064886361 1.5019937e-38
0.86044931 -0.14140074 0.064886361 1.4742999e-38
0.86294931 -0.14390075 0.064886361 1.2534625e-38
0.86294931 -0.14140074 0.064886361 1.2810132e-38
0.86294931 -0.14390075 0.067386359 1.2809788e-38
0.86294931 -0.14140074 0.067386359 1.3730665e-38
0.86544931 -0.15140074 0.069886357 6.6337511e-39
0.86794931 -0.15140074 0.069886357 1.327436e-38
0.86544931 -0.14890075 0.069886357 1.4838439e-38
0.86544931 -0.14640075 0.067386359 1.4548879e-38
0.86544931 -0.14640075 0.069886357 1.1883448e-38
0.86794931 -0.14890075 0.069886357 1.5849675e-38
0.86794931 -0.14640075 0.069886357 1.004135e-38
0.86544931 -0.14390075 0.067386359 1.1239219e-38
0.86544931 -0.14390075 0.069886357 9.7644523e-39
0.86544931 -0.14140074 0.067386359 1.1702008e-38
0.86544931 -0.14140074 0.069886357 1.1423995e-38
0.86794931 -0.14390075 0.067386359 9.4892905e-39
0.86794931 -0.14390075 0.069886357 8.9382747e-39
0.86794931 -0.14140074 0.067386359 1.1423626e-38
0.86794931 -0.14140074 0.069886357 1.0688932e-38
0.8704493 -0.14890075 0.069886357 1.4465334e-38
0.8704493 -0.14640075 0.069886357 1.1976052e-38
0.8704493 -0.14390075 0.069886357 1.1148471e-38
0.8704493 -0.14140074 0.069886357 1.0778976e-38
0.8729493 -0.14390075 0.069886357 1.1422162e-38
0.8729493 -0.14140074 0.069886357 1.1146315e-38
0.85544932 -0.13890074 0.064886361 1.4741556e-38
0.85544932 -0.13640074 0.064886361 1.612341e-38
0.85794932 -0.13890074 0.064886361 1.3730297e-38
0.85794932 -0.13640074 0.064886361 1.4744076e-38
0.85544932 -0.13890074 0.067386359 1.4374934e-38
0.85544932 -0.13640074 0.067386359 1.4190179e-38
0.85794932 -0.13890074 0.067386359 1.2072567e-38
0.85794932 -0.13640074 0.067386359 1.2070768e-38
0.85544932 -0.13390075 0.064886361 1.575607e-38
0.85544932 -0.13140075 0.064886361 1.4742278e-38
0.85794932 -0.13390075 0.064886361 1.520577e-38
0.85794932 -0.13140075 0.064886361 1.4744792e-38
0.85544932 -0.13390075 0.067386359 1.5205054e-38
0.85794932 -0.13390075 0.067386359 1.2348434e-38
0.85794932 -0.13140075 0.067386359 1.4191988e-38
0.86044931 -0.13890074 0.064886361 1.4282021e-38
0.86044931 -0.13640074 0.064886361 1.4282737e-38
0.86294931 -0.13890074 0.064886361 1.1795979e-38
0.86294931 -0.13640074 0.064886361 1.1056626e-38
0.86294931 -0.13890074 0.067386359 1.2439926e-38
0.86294931 -0.13640074 0.067386359 1.1702714e-38
0.86294931 -0.13640074 0.069886357 1.2992001e-38
0.86044931 -0.13390075 0.064886361 1.271614e-38
0.86044931 -0.13140075 0.064886361 1.5111053e-38
0.86294931 -0.13390075 0.064886361 1.2715772e-38
0.86294931 -0.13140075 0.062386356 1.5203255e-38
0.86294931 -0.13140075 0.064886361 1.5203249e-38
0.86294931 -0.13390075 0.067386359 1.087621e-38
0.86294931 -0.13390075 0.069886357 1.2440642e-38
0.86294931 -0.13140075 0.067386359 1.1798525e-38
0.86294931 -0.13140075 0.069886357 1.0228307e-38
0.86294931 -0.12890075 0.062386356 1.4189457e-38
0.86294931 -0.12890075 0.064886361 1.4189457e-38
0.86294931 -0.12890075 0.069886357 1.2441346e-38
0.86544931 -0.13890074 0.064886361 1.271579e-38
0.86544931 -0.13640074 0.064886361 1.1792403e-38
0.86544931 -0.13890074 0.067386359 1.2255182e-38
0.86544931 -0.13890074 0.069886357 1.0963018e-38
0.86544931 -0.13640074 0.067386359 1.2439923e-38
0.86544931 -0.13640074 0.069886357 1.0503131e-38
0.86794931 -0.13890074 0.067386359 1.0226903e-38
0.86794931 -0.13890074 0.069886357 1.0135759e-38
0.86794931 -0.13640074 0.067386359 1.2897289e-38
0.86794931 -0.13640074 0.069886357 8.6645759e-39
0.86544931 -0.13390075 0.064886361 1.161303e-38
0.86544931 -0.13140075 0.064886361 1.3269311e-38
0.86544931 -0.13390075 0.067386359 1.207222e-38
0.86544931 -0.13390075 0.069886357 1.2168394e-38
0.86544931 -0.13140075 0.067386359 1.0504534e-38
0.86544931 -0.13140075 0.069886357 1.0232286e-38
0.86794931 -0.13390075 0.067386359 1.2438481e-38
0.86794931 -0.13390075 0.069886357 1.327181e-38
0.86794931 -0.13140075 0.067386359 9.3077929e-39
0.86794931 -0.13140075 0.069886357 1.0223584e-38
0.8704493 -0.13890074 0.067386359 8.2028873e-39
0.8704493 -0.13890074 0.069886357 1.0410901e-38
0.8704493 -0.13640074 0.067386359 8.9408055e-39
0.8704493 -0.13640074 0.069886357 1.0688232e-38
0.8729493 -0.13890074 0.069886357 1.0410553e-38
0.8729493 -0.13640074 0.069886357 1.0322318e-38
0.8704493 -0.13390075 0.067386359 1.3180695e-38
0.8704493 -0.13390075 0.069886357 1.1431122e-38
0.8704493 -0.13140075 0.069886357 8.4740918e-39
0.8729493 -0.13390075 0.069886357 1.3089204e-38
0.8729493 -0.13140075 0.069886357 8.289695e-39
0.86544931 -0.12890075 0.064886361 1.2900886e-38
0.86544931 -0.12890075 0.069886357 1.2073286e-38
0.86794931 -0.12890075 0.067386359 1.2443132e-38
0.86794931 -0.12890075 0.069886357 1.2066745e-38
0.8704493 -0.12890075 0.064886361 1.2074021e-38
0.8729493 -0.12890075 0.064886361 1.3084532e-38
0.8704493 -0.12890075 0.067386359 1.1614482e-38
0.8729493 -0.12890075 0.067386359 1.2071474e-38
0.8754493 -0.14640075 0.067386359 1.1239582e-38
0.8754493 -0.14390075 0.067386359 1.0871876e-38
0.8754493 -0.14390075 0.069886357 1.1239938e-38
0.8754493 -0.14140074 0.067386359 1.0780775e-38
0.8754493 -0.14140074 0.069886357 1.0596737e-38
0.8754493 -0.13890074 0.067386359 9.0312285e-39
0.8754493 -0.13890074 0.069886357 1.0873674e-38
0.8754493 -0.13640074 0.067386359 1.0321967e-38
0.8754493 -0.13640074 0.069886357 1.0966228e-38
0.8779493 -0.13890074 0.067386359 9.3967866e-39
0.8779493 -0.13890074 0.069886357 1.2528509e-38
0.8779493 -0.13640074 0.067386359 1.059533e-38
0.8754493 -0.13390075 0.067386359 1.2906612e-38
0.8779493 -0.12890075 0.064886361 1.1980358e-38
0.85294932 -0.15140074 0.072386354 1.2624645e-38
0.85794932 -0.15140074 0.072386354 9.3967474e-39
0.85794932 -0.14890075 0.072386354 1.3729943e-38
0.85794932 -0.14640075 0.072386354 1.621128e-38
0.86794931 -0.14640075 0.072386354 1.2250863e-38
0.86794931 -0.14390075 0.072386354 1.1239582e-38
0.86794931 -0.14140074 0.072386354 1.151615e-38
0.8704493 -0.14390075 0.072386354 1.1422515e-38
0.86544931 -0.13140075 0.072386354 1.3087068e-38
0.86794931 -0.13390075 0.072386354 1.2906256e-38
0.86794931 -0.13140075 0.072386354 1.1706269e-38
0.8704493 -0.13890074 0.072386354 1.0961904e-38
0.8704493 -0.13640074 0.072386354 1.1148822e-38
