# .PCD v0.7 - Point Cloud Data file format
VERSION 0.7
FIELDS x y z rgb
SIZE 4 4 4 4
TYPE F F F F
COUNT 1 1 1 1
WIDTH 212
HEIGHT 1
VIEWPOINT 0 0 0 1 0 0 0
POINTS 212
DATA ascii
0.85083467 -0.14751458 0.066340864 1.5112132e-38
0.84333467 -0.13751458 0.066340864 1.382032e-38
0.84583467 -0.14001459 0.063840866 1.3545507e-38
0.84583467 -0.14001459 0.066340864 1.5571315e-38
0.84583467 -0.13751458 0.063840866 1.3729201e-38
0.84583467 -0.13751458 0.066340864 1.5477325e-38
0.85083467 -0.14501458 0.066340864 1.5479846e-38
0.85083467 -0.14251459 0.066340864 1.5480193e-38
0.84833467 -0.13751458 0.063840866 1.5019586e-38
0.84833467 -0.13751458 0.066340864 1.5663508e-38
0.85083467 -0.13751458 0.066340864 1.5203605e-38
0.84833467 -0.14001459 0.068840861 1.5570959e-38
0.84833467 -0.13751458 0.068840861 1.5202536e-38
0.84333467 -0.13501458 0.066340864 1.3451539e-38
0.84583467 -0.13501458 0.063840866 1.3452255e-38
0.84583467 -0.13501458 0.066340864 1.5477325e-38
0.84583467 -0.13251458 0.063840866 1.3821045e-38
0.84583467 -0.13251458 0.066340864 1.4833378e-38
0.84833467 -0.13501458 0.063840866 1.5385129e-38
0.84833467 -0.13251458 0.063840866 1.5017786e-38
0.84833467 -0.13251458 0.066340864 1.538583e-38
0.85083467 -0.13251458 0.066340864 1.5111059e-38
0.84833467 -0.13251458 0.068840861 1.6214164e-38
0.84833467 -0.13001458 0.063840866 1.4096558e-38
0.85083467 -0.13001458 0.066340864 1.3732791e-38
0.85333467 -0.15251458 0.063840866 1.363593e-38
0.85333467 -0.15251458 0.066340864 1.4924154e-38
0.85583466 -0.15501457 0.063840866 1.9998135e-38
0.85583466 -0.15251458 0.063840866 1.4647914e-38
0.85583466 -0.15251458 0.066340864 1.4650063e-38
0.85583466 -0.15251458 0.068840861 1.4095813e-38
0.85583466 -0.15251458 0.071340866 1.2348782e-38
0.85333467 -0.15001458 0.063840866 1.3821401e-38
0.85333467 -0.15001458 0.066340864 1.4743347e-38
0.85333467 -0.14751458 0.063840866 1.5480193e-38
0.85333467 -0.14751458 0.066340864 1.6033014e-38
0.85583466 -0.15001458 0.066340864 1.4744426e-38
0.85583466 -0.14751458 0.066340864 1.5112855e-38
0.85583466 -0.15001458 0.068840861 1.2623205e-38
0.85583466 -0.15001458 0.071340866 1.2253014e-38
0.85583466 -0.14751458 0.068840861 1.197856e-38
0.85583466 -0.14751458 0.071340866 1.2897269e-38
0.85833466 -0.15251458 0.066340864 1.5200732e-38
0.86083466 -0.15501457 0.063840866 1.9997762e-38
0.86083466 -0.15251458 0.063840866 1.4835192e-38
0.86083466 -0.15251458 0.066340864 1.2346659e-38
0.85833466 -0.15251458 0.068840861 1.2439881e-38
0.86083466 -0.15251458 0.071340866 9.2148336e-39
0.85833466 -0.15001458 0.066340864 1.3084549e-38
0.85833466 -0.14751458 0.066340864 1.1611217e-38
0.85833466 -0.15001458 0.068840861 1.1977168e-38
0.85833466 -0.15001458 0.071340866 1.3913596e-38
0.85833466 -0.14751458 0.068840861 1.2529213e-38
0.85833466 -0.14751458 0.071340866 1.5934688e-38
0.86083466 -0.15001458 0.071340866 9.5814876e-39
0.86083466 -0.14751458 0.071340866 1.630312e-38
0.85333467 -0.14501458 0.063840866 1.5480193e-38
0.85333467 -0.14501458 0.066340864 1.5940817e-38
0.85333467 -0.14251459 0.066340864 1.5664603e-38
0.85583466 -0.14501458 0.066340864 1.4929187e-38
0.85583466 -0.14251459 0.066340864 1.4652233e-38
0.85333467 -0.14001459 0.063840866 1.5753905e-38
0.85333467 -0.14001459 0.066340864 1.5571315e-38
0.85333467 -0.13751458 0.063840866 1.5202533e-38
0.85333467 -0.13751458 0.066340864 1.4927025e-38
0.85583466 -0.14001459 0.063840866 1.5479846e-38
0.85583466 -0.13751458 0.063840866 1.5939022e-38
0.85583466 -0.13751458 0.066340864 1.4283821e-38
0.85833466 -0.14501458 0.066340864 1.5112855e-38
0.85833466 -0.14251459 0.066340864 1.4927738e-38
0.86083466 -0.14501458 0.063840866 1.5019937e-38
0.86083466 -0.14501458 0.066340864 1.3358248e-38
0.86083466 -0.14251459 0.063840866 1.4651877e-38
0.86083466 -0.14251459 0.066340864 1.2903771e-38
0.85833466 -0.14501458 0.068840861 1.299127e-38
0.86083466 -0.14501458 0.071340866 1.4458484e-38
0.85833466 -0.13751458 0.066340864 1.4006508e-38
0.86083466 -0.14001459 0.063840866 1.4558963e-38
0.86083466 -0.14001459 0.066340864 1.2716493e-38
0.86083466 -0.13751458 0.063840866 1.428274e-38
0.86083466 -0.13751458 0.066340864 1.1887456e-38
0.86333466 -0.15501457 0.063840866 2.0454434e-38
0.86333466 -0.15501457 0.066340864 1.9080125e-38
0.86333466 -0.15251458 0.063840866 1.4738664e-38
0.86333466 -0.15251458 0.066340864 1.2532064e-38
0.86583465 -0.15501457 0.063840866 1.8893563e-38
0.86333466 -0.15501457 0.068840861 1.9169448e-38
0.86333466 -0.15251458 0.068840861 9.4885464e-39
0.86333466 -0.15251458 0.071340866 6.1738506e-39
0.86583465 -0.15251458 0.068840861 9.0326382e-39
0.86333466 -0.15001458 0.071340866 1.4471099e-38
0.86333466 -0.14751458 0.071340866 1.7412376e-38
0.86583465 -0.15001458 0.068840861 1.4285281e-38
0.86583465 -0.15001458 0.071340866 1.3274713e-38
0.86583465 -0.14751458 0.068840861 1.7043967e-38
0.86583465 -0.14751458 0.071340866 1.5481991e-38
0.87083465 -0.14751458 0.071340866 1.4282374e-38
0.86333466 -0.14501458 0.063840866 1.2625741e-38
0.86333466 -0.14501458 0.066340864 1.2809059e-38
0.86333466 -0.14251459 0.063840866 1.3086718e-38
0.86333466 -0.14251459 0.066340864 1.3362593e-38
0.86333466 -0.14501458 0.068840861 1.4274816e-38
0.86333466 -0.14501458 0.071340866 1.1236701e-38
0.86333466 -0.14251459 0.068840861 1.1883508e-38
0.86583465 -0.14501458 0.068840861 9.7644495e-39
0.86583465 -0.14501458 0.071340866 9.3048993e-39
0.86583465 -0.14251459 0.068840861 1.1055188e-38
0.86583465 -0.14251459 0.071340866 1.0780029e-38
0.86333466 -0.14001459 0.063840866 1.3178911e-38
0.86333466 -0.14001459 0.066340864 1.4007232e-38
0.86333466 -0.13751458 0.063840866 1.1794557e-38
0.86333466 -0.13751458 0.066340864 1.2438128e-38
0.86583465 -0.13751458 0.066340864 1.3083845e-38
0.86333466 -0.14001459 0.068840861 1.2161522e-38
0.86333466 -0.13751458 0.068840861 1.2346632e-38
0.86583465 -0.14001459 0.068840861 1.142433e-38
0.86583465 -0.14001459 0.071340866 1.0871523e-38
0.86583465 -0.13751458 0.068840861 1.068643e-38
0.86833465 -0.14501458 0.068840861 9.4882213e-39
0.86833465 -0.14501458 0.071340866 1.1699119e-38
0.86833465 -0.14251459 0.068840861 1.1148466e-38
0.87083465 -0.14501458 0.071340866 1.142433e-38
0.87083465 -0.14251459 0.071340866 1.1239938e-38
0.86833465 -0.14001459 0.068840861 1.0042117e-38
0.86833465 -0.13751458 0.068840861 8.570944e-39
0.87083465 -0.14001459 0.071340866 1.0410548e-38
0.87083465 -0.13751458 0.068840861 8.9400866e-39
0.87083465 -0.13751458 0.071340866 1.0780425e-38
0.85333467 -0.13501458 0.063840866 1.5202533e-38
0.85333467 -0.13501458 0.066340864 1.5572757e-38
0.85333467 -0.13251458 0.063840866 1.511035e-38
0.85333467 -0.13251458 0.066340864 1.5480918e-38
0.85583466 -0.13501458 0.063840866 1.5572038e-38
0.85583466 -0.13251458 0.063840866 1.5295079e-38
0.85583466 -0.13251458 0.066340864 1.502066e-38
0.85333467 -0.13251458 0.068840861 1.5019233e-38
0.85583466 -0.13001458 0.063840866 1.4834827e-38
0.85333467 -0.13001458 0.068840861 1.5568792e-38
0.85833466 -0.13501458 0.066340864 1.492954e-38
0.85833466 -0.13251458 0.066340864 1.4745148e-38
0.86083466 -0.13501458 0.063840866 1.4651883e-38
0.86083466 -0.13501458 0.066340864 1.1149891e-38
0.86083466 -0.13251458 0.063840866 1.5020293e-38
0.86083466 -0.13251458 0.066340864 1.4191988e-38
0.85833466 -0.13001458 0.066340864 1.4927022e-38
0.86083466 -0.13001458 0.063840866 1.5111056e-38
0.86083466 -0.13001458 0.066340864 1.5110337e-38
0.86333466 -0.13501458 0.063840866 1.1149541e-38
0.86333466 -0.13501458 0.066340864 1.1978573e-38
0.86333466 -0.13251458 0.066340864 1.2164434e-38
0.86583465 -0.13501458 0.066340864 1.2530321e-38
0.86583465 -0.13251458 0.066340864 1.0871159e-38
0.86333466 -0.13501458 0.068840861 1.3084198e-38
0.86333466 -0.13501458 0.071340866 1.1055214e-38
0.86333466 -0.13251458 0.068840861 1.0594213e-38
0.86333466 -0.13251458 0.071340866 1.0507433e-38
0.86583465 -0.13501458 0.068840861 1.1055214e-38
0.86583465 -0.13501458 0.071340866 8.847891e-39
0.86583465 -0.13251458 0.068840861 1.0875491e-38
0.86583465 -0.13251458 0.071340866 1.3179251e-38
0.86333466 -0.13001458 0.063840866 1.4557163e-38
0.86333466 -0.13001458 0.066340864 1.3268592e-38
0.86583465 -0.13001458 0.063840866 1.3176397e-38
0.86583465 -0.13001458 0.066340864 1.2532823e-38
0.86583465 -0.12751459 0.063840866 1.4557529e-38
0.86333466 -0.13001458 0.068840861 9.7669536e-39
0.86333466 -0.13001458 0.071340866 9.6761901e-39
0.86583465 -0.13001458 0.068840861 9.4918087e-39
0.86583465 -0.13001458 0.071340866 1.0132451e-38
0.86833465 -0.13501458 0.068840861 1.2627934e-38
0.86833465 -0.13501458 0.071340866 1.345763e-38
0.86833465 -0.13251458 0.068840861 1.0783662e-38
0.86833465 -0.13251458 0.071340866 1.1247437e-38
0.87083465 -0.13501458 0.071340866 1.3181048e-38
0.87083465 -0.13251458 0.071340866 1.1428971e-38
0.87083465 -0.13001458 0.063840866 1.280976e-38
0.87083465 -0.12751459 0.063840866 1.3913944e-38
0.86833465 -0.13001458 0.068840861 9.675837e-39
0.86833465 -0.13001458 0.071340866 8.1971462e-39
0.87083465 -0.13001458 0.071340866 8.1978511e-39
0.87333465 -0.14501458 0.068840861 1.1239923e-38
0.87333465 -0.14251459 0.068840861 1.1055188e-38
0.87333465 -0.14251459 0.071340866 1.1145575e-38
0.87583464 -0.14501458 0.068840861 1.0871159e-38
0.87583464 -0.14251459 0.068840861 1.0871173e-38
0.87333465 -0.14001459 0.068840861 1.0500245e-38
0.87333465 -0.14001459 0.071340866 1.1237064e-38
0.87333465 -0.13751458 0.068840861 9.5804548e-39
0.87333465 -0.13751458 0.071340866 1.0687115e-38
0.87583464 -0.14001459 0.068840861 1.0502749e-38
0.87583464 -0.13751458 0.068840861 9.5804548e-39
0.88083464 -0.14251459 0.066340864 1.0870805e-38
0.87833464 -0.14501458 0.068840861 1.160655e-38
0.87833464 -0.14251459 0.068840861 1.1240289e-38
0.87833464 -0.13751458 0.066340864 1.0137576e-38
0.88083464 -0.14001459 0.066340864 1.1239588e-38
0.88083464 -0.13751458 0.066340864 1.1056273e-38
0.87833464 -0.14001459 0.068840861 1.1240289e-38
0.87833464 -0.13751458 0.068840861 1.0597087e-38
0.88333464 -0.14251459 0.068840861 1.2527087e-38
0.88333464 -0.14001459 0.068840861 1.2527087e-38
0.87333465 -0.13251458 0.063840866 9.674758e-39
0.87333465 -0.13501458 0.068840861 1.2814762e-38
0.87333465 -0.13251458 0.068840861 1.1431124e-38
0.87333465 -0.12751459 0.063840866 1.2807226e-38
0.87583464 -0.12751459 0.063840866 1.2439179e-38
0.87833464 -0.13501458 0.066340864 1.2906609e-38
0.87833464 -0.13251458 0.066340864 1.1339282e-38
0.87833464 -0.13501458 0.068840861 1.0503803e-38
0.86083466 -0.15001458 0.073840864 1.3182867e-38
0.86083466 -0.14751458 0.073840864 1.5849325e-38
0.86583465 -0.13251458 0.073840864 1.1339632e-38
