# .PCD v0.7 - Point Cloud Data file format
VERSION 0.7
FIELDS x y z rgb
SIZE 4 4 4 4
TYPE F F F F
COUNT 1 1 1 1
WIDTH 176
HEIGHT 1
VIEWPOINT 0 0 0 1 0 0 0
POINTS 176
DATA ascii
0.85404813 -0.15373218 0.065603524 2.0547363e-38
0.85404813 -0.15373218 0.068103522 2.027149e-38
0.85654813 -0.15373218 0.065603524 2.0456236e-38
0.85654813 -0.15373218 0.068103522 1.4830141e-38
0.85654813 -0.15373218 0.07060352 1.2808646e-38
0.85904813 -0.15373218 0.063103527 2.0364745e-38
0.85904813 -0.15373218 0.068103522 1.4830864e-38
0.85904813 -0.15373218 0.07060352 9.675446e-39
0.86404812 -0.15623219 0.068103522 1.8803555e-38
0.86404812 -0.15373218 0.065603524 1.2531358e-38
0.86404812 -0.15373218 0.068103522 9.3996004e-39
0.84654808 -0.13373218 0.065603524 1.2347012e-38
0.84654808 -0.13373218 0.068103522 1.5203249e-38
0.85154814 -0.15123218 0.068103522 1.4836271e-38
0.85154814 -0.14873219 0.065603524 1.5295096e-38
0.85154814 -0.14873219 0.068103522 1.5112858e-38
0.84904808 -0.14623219 0.065603524 1.5203252e-38
0.84904808 -0.14373219 0.065603524 1.5294381e-38
0.85154814 -0.14623219 0.065603524 1.5479846e-38
0.85154814 -0.14623219 0.068103522 1.6031215e-38
0.85404813 -0.15123218 0.065603524 1.3637005e-38
0.85404813 -0.15123218 0.068103522 1.4744429e-38
0.85404813 -0.14873219 0.065603524 1.5112137e-38
0.85404813 -0.14873219 0.068103522 1.5112853e-38
0.85654813 -0.15123218 0.068103522 1.3084179e-38
0.85654813 -0.14873219 0.065603524 1.5848624e-38
0.85654813 -0.14873219 0.068103522 1.1885996e-38
0.85404813 -0.15123218 0.07060352 1.4464955e-38
0.85404813 -0.14873219 0.07060352 1.1703046e-38
0.85654813 -0.15123218 0.07060352 1.2346266e-38
0.85654813 -0.14873219 0.07060352 1.2161516e-38
0.85404813 -0.14623219 0.065603524 1.5755341e-38
0.85404813 -0.14623219 0.068103522 1.4835896e-38
0.85404813 -0.14373219 0.065603524 1.5662792e-38
0.85404813 -0.14373219 0.068103522 1.5019584e-38
0.85654813 -0.14623219 0.065603524 1.4835896e-38
0.85654813 -0.14623219 0.068103522 1.1334988e-38
0.85654813 -0.14373219 0.065603524 1.6308162e-38
0.85654813 -0.14623219 0.07060352 1.2620702e-38
0.84904808 -0.14123219 0.065603524 1.640037e-38
0.85154814 -0.13873218 0.068103522 1.4925946e-38
0.84904808 -0.13623218 0.065603524 1.5293287e-38
0.84904808 -0.13373218 0.065603524 1.4834829e-38
0.85154814 -0.13623218 0.065603524 1.547875e-38
0.85154814 -0.13623218 0.068103522 1.5662792e-38
0.85154814 -0.13373218 0.065603524 1.5570227e-38
0.85154814 -0.13373218 0.068103522 1.6031202e-38
0.85404813 -0.14123219 0.065603524 1.5756423e-38
0.85404813 -0.14123219 0.068103522 1.4927388e-38
0.85404813 -0.13873218 0.065603524 1.5477675e-38
0.85404813 -0.13873218 0.068103522 1.446677e-38
0.85654813 -0.14123219 0.065603524 1.5571688e-38
0.85404813 -0.13623218 0.065603524 1.5295082e-38
0.85404813 -0.13373218 0.065603524 1.5293281e-38
0.85654813 -0.13623218 0.065603524 1.5480196e-38
0.85654813 -0.13373218 0.065603524 1.5663508e-38
0.84654808 -0.13123219 0.065603524 1.2623238e-38
0.84654808 -0.13123219 0.068103522 1.4834473e-38
0.84904808 -0.13123219 0.065603524 1.4281656e-38
0.84904808 -0.12873219 0.065603524 1.4006511e-38
0.85154814 -0.13123219 0.065603524 1.4924857e-38
0.85404813 -0.13123219 0.065603524 1.4742984e-38
0.85654813 -0.13123219 0.065603524 1.520253e-38
0.85904813 -0.15123218 0.063103527 1.4652586e-38
0.85904813 -0.14373219 0.063103527 1.5020293e-38
0.85904813 -0.15123218 0.068103522 1.2530324e-38
0.85904813 -0.14873219 0.068103522 1.2345933e-38
0.86154813 -0.15123218 0.065603524 1.3268943e-38
0.86154813 -0.14873219 0.065603524 1.2162954e-38
0.85904813 -0.15123218 0.07060352 9.0293886e-39
0.85904813 -0.15123218 0.073103525 6.8170816e-39
0.85904813 -0.14873219 0.07060352 1.363917e-38
0.86154813 -0.15123218 0.07060352 6.8170508e-39
0.86154813 -0.14873219 0.07060352 1.4469287e-38
0.85904813 -0.14623219 0.068103522 1.216439e-38
0.86154813 -0.14623219 0.065603524 1.2073642e-38
0.86154813 -0.14623219 0.068103522 1.4182267e-38
0.86154813 -0.14373219 0.065603524 1.2532825e-38
0.86154813 -0.14373219 0.068103522 1.280835e-38
0.85904813 -0.14623219 0.07060352 1.4641796e-38
0.86654812 -0.14873219 0.068103522 1.4192722e-38
0.86404812 -0.15123218 0.07060352 7.2769738e-39
0.86404812 -0.14873219 0.07060352 1.4561485e-38
0.86654812 -0.14873219 0.07060352 1.336511e-38
0.86404812 -0.14373219 0.065603524 1.3361884e-38
0.86404812 -0.14373219 0.068103522 1.1422897e-38
0.86654812 -0.14623219 0.068103522 1.1327114e-38
0.86654812 -0.14373219 0.068103522 9.6715336e-39
0.86404812 -0.14623219 0.07060352 1.1511859e-38
0.86654812 -0.14623219 0.07060352 1.0042449e-38
0.86654812 -0.14373219 0.07060352 9.1197891e-39
0.85904813 -0.13623218 0.063103527 1.4835192e-38
0.85904813 -0.13373218 0.063103527 1.5296154e-38
0.86154813 -0.13373218 0.063103527 1.4927025e-38
0.86154813 -0.14123219 0.065603524 1.3637374e-38
0.86154813 -0.13873218 0.065603524 1.2162245e-38
0.86154813 -0.13623218 0.065603524 1.1700544e-38
0.86154813 -0.13373218 0.065603524 1.262287e-38
0.86404812 -0.14123219 0.065603524 1.4190924e-38
0.86404812 -0.14123219 0.068103522 1.1793485e-38
0.86404812 -0.13873218 0.065603524 1.2623238e-38
0.86404812 -0.13873218 0.068103522 1.2346659e-38
0.86654812 -0.14123219 0.068103522 1.1145964e-38
0.86654812 -0.13873218 0.068103522 1.1145964e-38
0.86404812 -0.13623218 0.065603524 1.1794191e-38
0.86404812 -0.13623218 0.068103522 1.3083478e-38
0.86404812 -0.13373218 0.065603524 1.1335021e-38
0.86404812 -0.13373218 0.068103522 1.2622157e-38
0.86654812 -0.13623218 0.065603524 1.1885308e-38
0.86654812 -0.13623218 0.068103522 1.1238879e-38
0.86654812 -0.13373218 0.065603524 1.1333248e-38
0.86654812 -0.13373218 0.068103522 1.2351346e-38
0.86654812 -0.13373218 0.07060352 1.327145e-38
0.86654812 -0.13373218 0.073103525 1.1337125e-38
0.86904812 -0.14873219 0.07060352 1.4557161e-38
0.86904812 -0.14623219 0.068103522 9.5796883e-39
0.86904812 -0.14373219 0.068103522 1.059385e-38
0.87154812 -0.14623219 0.068103522 1.188349e-38
0.87154812 -0.14373219 0.068103522 1.0869373e-38
0.86904812 -0.14623219 0.07060352 1.2436661e-38
0.86904812 -0.14373219 0.07060352 1.1146668e-38
0.87154812 -0.14623219 0.073103525 1.0960814e-38
0.87154812 -0.14373219 0.073103525 1.1235956e-38
0.87404811 -0.14623219 0.07060352 1.0777145e-38
0.87404811 -0.14373219 0.07060352 1.1145569e-38
0.86904812 -0.14123219 0.068103522 1.0961572e-38
0.86904812 -0.13873218 0.068103522 1.0409847e-38
0.87154812 -0.14123219 0.068103522 1.0869376e-38
0.87154812 -0.13873218 0.068103522 9.6719316e-39
0.86904812 -0.14123219 0.07060352 1.1238516e-38
0.86904812 -0.13873218 0.07060352 1.0226507e-38
0.87154812 -0.14123219 0.073103525 1.0686411e-38
0.87154812 -0.13873218 0.073103525 1.1239938e-38
0.86904812 -0.13623218 0.068103522 1.0502043e-38
0.86904812 -0.13373218 0.068103522 1.2626504e-38
0.87154812 -0.13623218 0.068103522 1.077792e-38
0.87154812 -0.13373218 0.065603524 1.0783662e-38
0.87154812 -0.13373218 0.068103522 1.2997005e-38
0.86904812 -0.13623218 0.07060352 1.0134354e-38
0.86904812 -0.13373218 0.07060352 1.2906959e-38
0.87404811 -0.13873218 0.068103522 9.5818813e-39
0.87404811 -0.14123219 0.07060352 1.0870805e-38
0.87404811 -0.14123219 0.073103525 1.1881718e-38
0.87404811 -0.13873218 0.07060352 1.1423601e-38
0.87404811 -0.13873218 0.073103525 1.225086e-38
0.87654811 -0.14123219 0.07060352 1.1054838e-38
0.87654811 -0.13873218 0.07060352 1.0873674e-38
0.87404811 -0.13623218 0.068103522 1.0780425e-38
0.87404811 -0.13623218 0.07060352 1.123957e-38
0.87404811 -0.13373218 0.07060352 1.1053379e-38
0.87654811 -0.13623218 0.07060352 1.0781478e-38
0.85904813 -0.13123219 0.063103527 1.5111404e-38
0.86154813 -0.13123219 0.063103527 1.4925593e-38
0.86154813 -0.12873219 0.063103527 1.4097262e-38
0.86154813 -0.13123219 0.065603524 1.5110337e-38
0.86154813 -0.12873219 0.065603524 1.4465334e-38
0.86404812 -0.13123219 0.065603524 1.3084577e-38
0.86404812 -0.13123219 0.068103522 9.5825623e-39
0.86654812 -0.13123219 0.065603524 1.3176394e-38
0.86654812 -0.13123219 0.068103522 9.5825595e-39
0.86654812 -0.12873219 0.065603524 1.2993788e-38
0.86654812 -0.12873219 0.068103522 1.2348428e-38
0.86654812 -0.13123219 0.07060352 1.0314679e-38
0.86654812 -0.13123219 0.073103525 8.4733659e-39
0.86654812 -0.12873219 0.07060352 1.1512517e-38
0.86904812 -0.13123219 0.068103522 9.5832658e-39
0.86904812 -0.12873219 0.065603524 1.2440977e-38
0.86904812 -0.12873219 0.068103522 1.1981431e-38
0.87154812 -0.13123219 0.065603524 9.4921646e-39
0.87154812 -0.12873219 0.065603524 1.1888157e-38
0.87154812 -0.12873219 0.068103522 1.1513924e-38
0.86904812 -0.13123219 0.07060352 8.1049492e-39
0.87154812 -0.12623219 0.065603524 2.2394498e-38
0.87154812 -0.12623219 0.068103522 2.258142e-38
0.87404811 -0.12873219 0.065603524 1.3451147e-38
0.87904811 -0.13873218 0.068103522 1.1149172e-38
