# .PCD v0.7 - Point Cloud Data file format
VERSION 0.7
FIELDS x y z rgb
SIZE 4 4 4 4
TYPE F F F F
COUNT 1 1 1 1
WIDTH 190
HEIGHT 1
VIEWPOINT 0 0 0 1 0 0 0
POINTS 190
DATA ascii
0.80404812 0.068767816 0.068103522 1.2436295e-38
0.80404812 0.071267813 0.068103522 1.2161872e-38
0.80654812 0.073767811 0.068103522 1.2806873e-38
0.81154811 0.068767816 0.068103522 1.3174216e-38
0.81154811 0.071267813 0.065603524 1.2346617e-38
0.81154811 0.071267813 0.068103522 1.299127e-38
0.80904812 0.073767811 0.068103522 1.2899069e-38
0.81154811 0.073767811 0.065603524 1.262321e-38
0.81154811 0.073767811 0.068103522 1.1793092e-38
0.81154811 0.076267816 0.065603524 1.3268224e-38
0.81404811 0.071267813 0.063103527 1.2434844e-38
0.81404811 0.071267813 0.065603524 1.3723785e-38
0.81404811 0.071267813 0.068103522 1.3173863e-38
0.81654811 0.071267813 0.065603524 1.3175675e-38
0.81654811 0.071267813 0.068103522 9.952379e-39
0.81404811 0.073767811 0.063103527 1.2806523e-38
0.81404811 0.076267816 0.063103527 1.2898365e-38
0.81654811 0.073767811 0.063103527 1.1885645e-38
0.81654811 0.076267816 0.063103527 1.2531375e-38
0.81404811 0.073767811 0.065603524 1.2897637e-38
0.81404811 0.073767811 0.068103522 1.179309e-38
0.81404811 0.076267816 0.065603524 1.2801486e-38
0.81404811 0.076267816 0.068103522 1.2068913e-38
0.81654811 0.073767811 0.065603524 1.1792739e-38
0.81654811 0.073767811 0.068103522 8.2899934e-39
0.81654811 0.076267816 0.065603524 1.151684e-38
0.81654811 0.076267816 0.068103522 7.0036042e-39
0.81154811 0.078767814 0.065603524 1.3912498e-38
0.81404811 0.078767814 0.063103527 1.3636652e-38
0.81404811 0.081267811 0.063103527 1.428128e-38
0.81654811 0.078767814 0.063103527 1.3451539e-38
0.81654811 0.081267811 0.063103527 1.4097259e-38
0.81404811 0.078767814 0.065603524 1.0961178e-38
0.81404811 0.078767814 0.068103522 8.4758519e-39
0.81404811 0.081267811 0.065603524 1.0500909e-38
0.81654811 0.078767814 0.065603524 8.7520786e-39
0.81654811 0.078767814 0.068103522 7.9262682e-39
0.81654811 0.081267811 0.065603524 8.2911019e-39
0.81654811 0.081267811 0.068103522 8.2028551e-39
0.81404811 0.083767816 0.063103527 1.1610851e-38
0.81654811 0.083767816 0.063103527 1.4098709e-38
0.81654811 0.086267814 0.063103527 1.1702693e-38
0.81404811 0.083767816 0.065603524 5.9883453e-39
0.81654811 0.083767816 0.065603524 7.3684407e-39
0.81654811 0.083767816 0.068103522 8.664199e-39
0.81654811 0.088767812 0.063103527 1.1702693e-38
0.81904811 0.073767811 0.063103527 1.3082381e-38
0.81904811 0.076267816 0.063103527 1.3170266e-38
0.8215481 0.073767811 0.063103527 1.2992705e-38
0.8215481 0.076267816 0.063103527 1.1701585e-38
0.81904811 0.073767811 0.065603524 1.2992352e-38
0.81904811 0.073767811 0.068103522 9.2123211e-39
0.81904811 0.076267816 0.065603524 1.1701232e-38
0.81904811 0.076267816 0.068103522 5.6203377e-39
0.8215481 0.073767811 0.065603524 7.6453401e-39
0.8215481 0.076267816 0.065603524 6.7270216e-39
0.8240481 0.073767811 0.063103527 7.7375357e-39
0.8240481 0.076267816 0.063103527 6.3575258e-39
0.8265481 0.076267816 0.063103527 7.368763e-39
0.8240481 0.073767811 0.065603524 7.9197788e-39
0.8240481 0.076267816 0.065603524 5.6181727e-39
0.8265481 0.073767811 0.068103522 8.012385e-39
0.8265481 0.076267816 0.065603524 9.027218e-39
0.8265481 0.076267816 0.068103522 1.0873266e-38
0.8290481 0.076267816 0.063103527 9.3949117e-39
0.83154809 0.076267816 0.063103527 8.291441e-39
0.8290481 0.076267816 0.065603524 1.0781424e-38
0.83154809 0.076267816 0.065603524 1.1609007e-38
0.81904811 0.078767814 0.063103527 1.2985516e-38
0.81904811 0.081267811 0.063103527 1.0131776e-38
0.8215481 0.078767814 0.063103527 1.096402e-38
0.8215481 0.081267811 0.063103527 8.5673188e-39
0.81904811 0.078767814 0.065603524 1.068672e-38
0.81904811 0.078767814 0.068103522 7.5564487e-39
0.81904811 0.081267811 0.065603524 8.5662622e-39
0.81904811 0.081267811 0.068103522 8.386889e-39
0.8215481 0.078767814 0.065603524 7.372391e-39
0.8215481 0.081267811 0.065603524 8.2028579e-39
0.81904811 0.083767816 0.063103527 8.7517101e-39
0.81904811 0.086267814 0.063103527 6.9996232e-39
0.8215481 0.083767816 0.063103527 8.1978511e-39
0.8215481 0.086267814 0.063103527 7.0925377e-39
0.81904811 0.083767816 0.065603524 8.47301e-39
0.81904811 0.083767816 0.068103522 9.3070348e-39
0.81904811 0.086267814 0.065603524 6.5426107e-39
0.8215481 0.083767816 0.065603524 8.3869128e-39
0.8215481 0.086267814 0.065603524 8.479086e-39
0.8240481 0.078767814 0.063103527 7.2798422e-39
0.8265481 0.078767814 0.063103527 7.6486443e-39
0.8240481 0.078767814 0.065603524 8.1996503e-39
0.8240481 0.078767814 0.068103522 8.4740498e-39
0.8240481 0.081267811 0.065603524 8.7531548e-39
0.8265481 0.078767814 0.065603524 8.5665985e-39
0.8265481 0.078767814 0.068103522 9.3981361e-39
0.8265481 0.081267811 0.065603524 6.2606134e-39
0.8240481 0.083767816 0.065603524 9.3059979e-39
0.8240481 0.086267814 0.065603524 8.4801805e-39
0.8265481 0.083767816 0.065603524 6.9092646e-39
0.8265481 0.083767816 0.068103522 6.8159578e-39
0.8265481 0.086267814 0.065603524 8.2000034e-39
0.81904811 0.088767812 0.063103527 6.9996232e-39
0.81904811 0.091267817 0.063103527 8.9343035e-39
0.8215481 0.088767812 0.063103527 6.9081478e-39
0.8215481 0.091267817 0.063103527 7.5542389e-39
0.8215481 0.088767812 0.065603524 8.198902e-39
0.8215481 0.093767814 0.063103527 7.0043918e-39
0.8240481 0.088767812 0.063103527 7.5574885e-39
0.8240481 0.091267817 0.063103527 8.2921711e-39
0.8265481 0.088767812 0.063103527 7.2812898e-39
0.8265481 0.091267817 0.063103527 8.1081385e-39
0.8240481 0.088767812 0.065603524 7.374193e-39
0.8265481 0.088767812 0.065603524 4.5092664e-39
0.8265481 0.091267817 0.065603524 2.6722089e-39
0.8240481 0.093767814 0.063103527 8.5641126e-39
0.8240481 0.096267812 0.063103527 3.3165245e-39
0.8265481 0.093767814 0.063103527 9.022944e-39
0.8265481 0.096267812 0.063103527 5.7982507e-39
0.8240481 0.093767814 0.065603524 4.6072031e-39
0.8240481 0.096267812 0.065603524 1.8413889e-39
0.8265481 0.093767814 0.065603524 9.3088103e-39
0.8265481 0.096267812 0.065603524 3.4075991e-39
0.8290481 0.078767814 0.063103527 8.8417379e-39
0.8290481 0.081267811 0.063103527 5.8918309e-39
0.83154809 0.078767814 0.063103527 8.9361013e-39
0.8290481 0.078767814 0.065603524 9.4906848e-39
0.8290481 0.081267811 0.065603524 5.0595843e-39
0.83154809 0.078767814 0.065603524 1.0134237e-38
0.83154809 0.081267811 0.065603524 5.4287045e-39
0.8290481 0.083767816 0.063103527 6.9096178e-39
0.8290481 0.083767816 0.065603524 6.3560656e-39
0.8290481 0.086267814 0.065603524 7.9233941e-39
0.83154809 0.083767816 0.065603524 6.3560684e-39
0.83154809 0.086267814 0.065603524 8.1066966e-39
0.83404809 0.078767814 0.063103527 1.1057988e-38
0.83654809 0.078767814 0.063103527 1.0959348e-38
0.83654809 0.081267811 0.063103527 8.657697e-39
0.83404809 0.078767814 0.065603524 1.0408345e-38
0.83404809 0.081267811 0.065603524 8.8417379e-39
0.83654809 0.078767814 0.065603524 9.1139709e-39
0.83654809 0.081267811 0.065603524 8.3825422e-39
0.83654809 0.083767816 0.063103527 8.3811101e-39
0.83654809 0.086267814 0.063103527 7.3734475e-39
0.83404809 0.083767816 0.065603524 8.8424441e-39
0.83654809 0.083767816 0.065603524 8.6569935e-39
0.83654809 0.086267814 0.065603524 7.4659963e-39
0.8290481 0.088767812 0.063103527 3.8678528e-39
0.8290481 0.091267817 0.063103527 8.3872393e-39
0.8290481 0.088767812 0.065603524 4.1444355e-39
0.8290481 0.091267817 0.065603524 2.6707796e-39
0.83154809 0.088767812 0.065603524 3.4097908e-39
0.83154809 0.091267817 0.065603524 2.7636745e-39
0.8290481 0.093767814 0.063103527 8.3875925e-39
0.8290481 0.096267812 0.063103527 3.4083166e-39
0.83154809 0.093767814 0.063103527 9.3080914e-39
0.83154809 0.096267812 0.063103527 3.4997934e-39
0.83404809 0.088767812 0.063103527 4.3281401e-39
0.83404809 0.091267817 0.063103527 2.4863925e-39
0.83654809 0.088767812 0.063103527 8.4776035e-39
0.83404809 0.093767814 0.063103527 8.1110098e-39
0.83654809 0.093767814 0.063103527 8.1103245e-39
0.83654809 0.096267812 0.063103527 1.0109247e-39
0.8290481 0.098767817 0.063103527 2.0247333e-39
0.83904809 0.078767814 0.063103527 9.6624728e-39
0.83904809 0.081267811 0.063103527 8.3804066e-39
0.84154809 0.081267811 0.063103527 9.6621225e-39
0.83904809 0.083767816 0.063103527 8.5665733e-39
0.83904809 0.086267814 0.063103527 8.1095454e-39
0.83904809 0.088767812 0.063103527 7.284119e-39
0.83904809 0.091267817 0.063103527 8.3854064e-39
0.84154809 0.088767812 0.063103527 7.4663592e-39
0.80404812 0.068767816 0.073103525 1.326533e-38
0.80404812 0.071267813 0.073103525 1.3175675e-38
0.80654812 0.068767816 0.07060352 1.3908547e-38
0.80654812 0.071267813 0.07060352 1.3451522e-38
0.80404812 0.068767816 0.075603522 1.3537251e-38
0.80404812 0.071267813 0.075603522 9.582177e-39
0.80654812 0.071267813 0.075603522 7.9194285e-39
0.80904812 0.068767816 0.07060352 1.3724869e-38
0.80904812 0.068767816 0.073103525 1.3445055e-38
0.80904812 0.071267813 0.07060352 1.3176028e-38
0.80904812 0.071267813 0.073103525 1.004135e-38
0.81154811 0.073767811 0.07060352 8.105242e-39
0.81404811 0.071267813 0.073103525 9.6707727e-39
0.81654811 0.071267813 0.07060352 9.4863814e-39
0.81404811 0.073767811 0.073103525 7.6424688e-39
0.81654811 0.073767811 0.07060352 7.4598754e-39
0.81654811 0.076267816 0.07060352 5.4359478e-39
0.81904811 0.071267813 0.07060352 4.3241688e-39
0.81904811 0.073767811 0.07060352 8.2889397e-39
0.81904811 0.076267816 0.07060352 9.0272236e-39
