# .PCD v0.7 - Point Cloud Data file format
VERSION 0.7
FIELDS x y z rgb
SIZE 4 4 4 4
TYPE F F F F
COUNT 1 1 1 1
WIDTH 152
HEIGHT 1
VIEWPOINT 0 0 0 1 0 0 0
POINTS 152
DATA ascii
0.81288576 0.073863596 0.061111089 1.289799e-38
0.81538576 0.071363598 0.061111089 1.2251534e-38
0.81538576 0.073863596 0.061111089 1.262321e-38
0.81288576 0.071363598 0.06361109 1.1976405e-38
0.81288576 0.071363598 0.066111088 1.3908547e-38
0.81288576 0.073863596 0.06361109 1.2530659e-38
0.81288576 0.073863596 0.066111088 1.2713957e-38
0.81538576 0.071363598 0.066111088 1.3632674e-38
0.81538576 0.073863596 0.066111088 1.280652e-38
0.81288576 0.076363593 0.061111089 1.2531381e-38
0.81538576 0.076363593 0.061111089 1.2899084e-38
0.81538576 0.078863598 0.061111089 1.3543737e-38
0.81288576 0.076363593 0.06361109 1.2806888e-38
0.81288576 0.076363593 0.066111088 1.2434859e-38
0.81288576 0.078863598 0.06361109 1.3635936e-38
0.81288576 0.078863598 0.066111088 1.0409787e-38
0.81538576 0.076363593 0.066111088 1.2711806e-38
0.81538576 0.078863598 0.066111088 1.0869708e-38
0.81538576 0.081363596 0.061111089 1.4189107e-38
0.81538576 0.083863594 0.061111089 1.1977132e-38
0.81288576 0.081363596 0.06361109 1.4465334e-38
0.81538576 0.081363596 0.066111088 1.0499855e-38
0.81788576 0.071363598 0.06361109 1.3175654e-38
0.81788576 0.071363598 0.066111088 1.289944e-38
0.81788576 0.073863596 0.06361109 1.2806873e-38
0.81788576 0.073863596 0.066111088 1.1793092e-38
0.82038575 0.073863596 0.066111088 7.7371854e-39
0.82288575 0.073863596 0.066111088 9.4878136e-39
0.82538575 0.073863596 0.066111088 8.8413876e-39
0.81788576 0.076363593 0.06361109 1.3077712e-38
0.81788576 0.076363593 0.066111088 1.1517191e-38
0.81788576 0.078863598 0.06361109 1.0408004e-38
0.81788576 0.078863598 0.066111088 8.659883e-39
0.82038575 0.076363593 0.066111088 6.4511339e-39
0.82038575 0.078863598 0.066111088 7.0965033e-39
0.82038575 0.083863594 0.061111089 5.7114277e-39
0.81788576 0.081363596 0.06361109 9.9473848e-39
0.81788576 0.081363596 0.066111088 8.4751484e-39
0.81788576 0.083863594 0.06361109 7.1815103e-39
0.82038575 0.081363596 0.06361109 8.2911019e-39
0.82038575 0.081363596 0.066111088 8.386889e-39
0.82038575 0.083863594 0.06361109 8.47301e-39
0.82038575 0.083863594 0.066111088 8.6634983e-39
0.82288575 0.076363593 0.066111088 5.435945e-39
0.82288575 0.078863598 0.066111088 8.9382747e-39
0.82538575 0.076363593 0.066111088 8.752066e-39
0.82538575 0.078863598 0.066111088 7.6490003e-39
0.82288575 0.081363596 0.066111088 8.7535247e-39
0.82288575 0.083863594 0.066111088 9.3985466e-39
0.82538575 0.081363596 0.066111088 8.386889e-39
0.82538575 0.083863594 0.066111088 9.306351e-39
0.82788575 0.076363593 0.06361109 7.5527941e-39
0.82788575 0.076363593 0.066111088 1.0781424e-38
0.82788575 0.078863598 0.06361109 7.6486443e-39
0.82788575 0.078863598 0.066111088 8.5665985e-39
0.8303858 0.076363593 0.06361109 8.1988922e-39
0.8303858 0.076363593 0.066111088 1.0873972e-38
0.8303858 0.078863598 0.06361109 8.3822045e-39
0.8303858 0.078863598 0.066111088 9.4906848e-39
0.82788575 0.081363596 0.06361109 8.4794364e-39
0.82788575 0.081363596 0.066111088 5.8918281e-39
0.82788575 0.083863594 0.06361109 9.5811372e-39
0.82788575 0.083863594 0.066111088 6.817069e-39
0.8303858 0.081363596 0.06361109 5.8918309e-39
0.8303858 0.081363596 0.066111088 4.9691879e-39
0.8303858 0.083863594 0.06361109 7.2758597e-39
0.8303858 0.083863594 0.066111088 6.4472075e-39
0.8328858 0.076363593 0.06361109 7.8279909e-39
0.8328858 0.078863598 0.06361109 9.8594477e-39
0.8353858 0.076363593 0.06361109 8.288246e-39
0.8353858 0.078863598 0.06361109 1.0873619e-38
0.8328858 0.081363596 0.06361109 5.706753e-39
0.8328858 0.083863594 0.06361109 6.3564188e-39
0.8353858 0.081363596 0.06361109 8.565151e-39
0.8353858 0.083863594 0.06361109 8.565151e-39
0.8378858 0.078863598 0.06361109 1.0041356e-38
0.8378858 0.078863598 0.066111088 9.2047372e-39
0.84038579 0.078863598 0.06361109 9.1114724e-39
0.8378858 0.081363596 0.06361109 8.6587661e-39
0.8378858 0.081363596 0.066111088 8.3796863e-39
0.8378858 0.083863594 0.06361109 7.1883444e-39
0.8378858 0.083863594 0.066111088 8.6566432e-39
0.84038579 0.081363596 0.06361109 8.1956664e-39
0.84038579 0.083863594 0.06361109 8.3811101e-39
0.84038579 0.083863594 0.066111088 7.7299659e-39
0.84288579 0.081363596 0.06361109 9.2915603e-39
0.84538579 0.081363596 0.06361109 1.2426547e-38
0.81538576 0.086363599 0.061111089 1.1794163e-38
0.82038575 0.086363599 0.061111089 6.9989015e-39
0.82038575 0.088863596 0.061111089 6.6297588e-39
0.81788576 0.086363599 0.06361109 5.529179e-39
0.82038575 0.086363599 0.06361109 6.7248678e-39
0.82038575 0.086363599 0.066111088 8.570944e-39
0.82038575 0.088863596 0.06361109 6.4497116e-39
0.82038575 0.088863596 0.066111088 7.7415196e-39
0.82038575 0.091363594 0.061111089 8.4747532e-39
0.82038575 0.093863599 0.061111089 8.2943795e-39
0.82288575 0.086363599 0.066111088 8.8486099e-39
0.82288575 0.088863596 0.06361109 6.5404751e-39
0.82538575 0.086363599 0.066111088 8.2968808e-39
0.82538575 0.088863596 0.066111088 6.9139464e-39
0.82538575 0.091363594 0.061111089 7.4656432e-39
0.82538575 0.093863599 0.061111089 9.0225741e-39
0.82288575 0.091363594 0.06361109 7.4620432e-39
0.82288575 0.093863599 0.06361109 7.0040386e-39
0.82538575 0.091363594 0.066111088 8.386889e-39
0.82538575 0.093863599 0.066111088 8.5701733e-39
0.82538575 0.096363597 0.061111089 5.7986039e-39
0.82788575 0.086363599 0.066111088 8.2000034e-39
0.82788575 0.088863596 0.066111088 3.5012283e-39
0.8303858 0.086363599 0.066111088 7.9215963e-39
0.8303858 0.088863596 0.066111088 4.3281401e-39
0.8303858 0.091363594 0.061111089 8.1106595e-39
0.8303858 0.093863599 0.061111089 8.2950255e-39
0.82788575 0.091363594 0.06361109 8.0202645e-39
0.82788575 0.091363594 0.066111088 3.0402824e-39
0.82788575 0.093863599 0.06361109 7.8369242e-39
0.82788575 0.093863599 0.066111088 9.2166119e-39
0.8303858 0.091363594 0.06361109 7.9277157e-39
0.8303858 0.091363594 0.066111088 2.8551708e-39
0.8303858 0.093863599 0.06361109 9.3084572e-39
0.8328858 0.088863596 0.06361109 3.7767516e-39
0.8353858 0.086363599 0.06361109 7.5520907e-39
0.8353858 0.088863596 0.06361109 8.4765231e-39
0.8328858 0.091363594 0.06361109 2.6707796e-39
0.8328858 0.093863599 0.06361109 8.1103217e-39
0.8353858 0.093863599 0.06361109 8.1103217e-39
0.8303858 0.096363597 0.061111089 4.4228118e-39
0.82788575 0.096363597 0.06361109 3.7799634e-39
0.8303858 0.096363597 0.06361109 3.5005108e-39
0.8328858 0.096363597 0.06361109 3.956101e-39
0.8378858 0.086363599 0.06361109 7.3694973e-39
0.8378858 0.086363599 0.066111088 7.6468044e-39
0.8378858 0.088863596 0.06361109 8.4765231e-39
0.84038579 0.086363599 0.06361109 8.0166463e-39
0.84038579 0.088863596 0.06361109 7.4663592e-39
0.8378858 0.091363594 0.06361109 8.5687187e-39
0.84288579 0.086363599 0.06361109 7.5581919e-39
0.84288579 0.088863596 0.06361109 7.7433007e-39
0.80538577 0.0688636 0.068611085 1.2436298e-38
0.80538577 0.0688636 0.07111109 1.3817431e-38
0.80538577 0.0688636 0.073611088 1.3358248e-38
0.80538577 0.071363598 0.068611085 1.2162225e-38
0.80538577 0.071363598 0.07111109 1.3451522e-38
0.80538577 0.071363598 0.073611088 1.3175675e-38
0.81288576 0.071363598 0.068611085 1.3358248e-38
0.81288576 0.073863596 0.068611085 1.1699825e-38
0.81538576 0.071363598 0.068611085 1.0318297e-38
0.81538576 0.073863596 0.068611085 8.1977978e-39
0.81538576 0.073863596 0.07111109 7.3676798e-39
0.81288576 0.076363593 0.068611085 1.1517554e-38
0.81538576 0.076363593 0.068611085 7.1833278e-39
