# .PCD v0.7 - Point Cloud Data file format
VERSION 0.7
FIELDS x y z rgb
SIZE 4 4 4 4
TYPE F F F F
COUNT 1 1 1 1
WIDTH 212
HEIGHT 1
VIEWPOINT 0 0 0 1 0 0 0
POINTS 212
DATA ascii
0.88858944 -0.16861981 0.065878026 7.0961796e-39
0.88858944 -0.16611981 0.065878026 7.556799e-39
0.88858944 -0.16861981 0.068378024 8.2943697e-39
0.88858944 -0.16611981 0.068378024 8.0174227e-39
0.88858944 -0.16361982 0.065878026 7.6490003e-39
0.88858944 -0.16111982 0.065878026 7.5575179e-39
0.88858944 -0.15861982 0.065878026 7.5575179e-39
0.88858944 -0.15611982 0.065878026 7.6497191e-39
0.88858944 -0.16361982 0.068378024 7.4642531e-39
0.88858944 -0.16111982 0.068378024 7.556799e-39
0.88858944 -0.15861982 0.068378024 7.464602e-39
0.88858944 -0.15611982 0.068378024 7.280938e-39
0.88858944 -0.15361981 0.065878026 7.6497191e-39
0.88858944 -0.15361981 0.068378024 7.5568145e-39
0.88858944 -0.15111981 0.068378024 7.5568145e-39
0.89858943 -0.17861982 0.065878026 1.9354243e-38
0.89858943 -0.17611982 0.065878026 1.6954994e-38
0.89608943 -0.17611982 0.068378024 1.649437e-38
0.89108944 -0.17111982 0.065878026 5.5292141e-39
0.89358944 -0.17111982 0.065878026 5.8980022e-39
0.89108944 -0.16861981 0.065878026 8.2021685e-39
0.89108944 -0.16611981 0.065878026 8.1099714e-39
0.89608943 -0.17361982 0.065878026 6.4497116e-39
0.89608943 -0.17111982 0.065878026 6.4504571e-39
0.89858943 -0.17361982 0.065878026 6.4490081e-39
0.89608943 -0.16611981 0.065878026 8.1099714e-39
0.89358944 -0.17111982 0.068378024 6.9110765e-39
0.89358944 -0.17111982 0.070878029 7.0954706e-39
0.89108944 -0.16861981 0.070878029 8.8432177e-39
0.89108944 -0.16611981 0.070878029 8.5684258e-39
0.89358944 -0.16861981 0.068378024 8.6609816e-39
0.89358944 -0.16861981 0.070878029 8.7531744e-39
0.89358944 -0.16611981 0.068378024 8.7531772e-39
0.89358944 -0.16611981 0.070878029 9.03012e-39
0.89608943 -0.17361982 0.068378024 6.5401248e-39
0.89608943 -0.17111982 0.068378024 6.6355714e-39
0.89858943 -0.17361982 0.070878029 6.8141949e-39
0.89858943 -0.17111982 0.070878029 6.8195857e-39
0.89608943 -0.17361982 0.073378026 7.3684407e-39
0.89608943 -0.17111982 0.073378026 6.727037e-39
0.89858943 -0.17361982 0.073378026 7.3669287e-39
0.89858943 -0.17111982 0.073378026 6.4515109e-39
0.89858943 -0.17111982 0.075878024 6.7273873e-39
0.89608943 -0.16861981 0.068378024 8.5684258e-39
0.89608943 -0.16611981 0.068378024 8.847891e-39
0.89858943 -0.16861981 0.070878029 9.2163134e-39
0.89858943 -0.16611981 0.070878029 9.4932604e-39
0.89608943 -0.16861981 0.073378026 9.2159659e-39
0.89608943 -0.16611981 0.073378026 9.4925541e-39
0.89858943 -0.16861981 0.073378026 8.6627921e-39
0.89858943 -0.16861981 0.075878024 7.9238201e-39
0.89858943 -0.16611981 0.073378026 7.3720533e-39
0.90108943 -0.17861982 0.065878026 1.9907031e-38
0.90108943 -0.17611982 0.065878026 1.6587285e-38
0.90358943 -0.17861982 0.065878026 1.97194e-38
0.90358943 -0.17611982 0.065878026 1.7045739e-38
0.90108943 -0.17611982 0.068378024 1.6860645e-38
0.90108943 -0.17361982 0.068378024 7.0914839e-39
0.90108943 -0.17361982 0.070878029 7.366647e-39
0.90108943 -0.17111982 0.073378026 8.111028e-39
0.90108943 -0.17111982 0.075878024 6.2634678e-39
0.90358943 -0.17361982 0.073378026 6.729174e-39
0.90358943 -0.17111982 0.073378026 8.1103217e-39
0.90108943 -0.16861981 0.070878029 8.6631452e-39
0.90108943 -0.16611981 0.070878029 9.9524169e-39
0.90108943 -0.16861981 0.073378026 8.201465e-39
0.90108943 -0.16861981 0.075878024 5.3430305e-39
0.90108943 -0.16611981 0.073378026 7.4639e-39
0.90108943 -0.16611981 0.075878024 7.2791388e-39
0.90358943 -0.16861981 0.073378026 7.2805905e-39
0.90358943 -0.16611981 0.073378026 7.1865746e-39
0.90858948 -0.16861981 0.070878029 7.0947419e-39
0.90858948 -0.16611981 0.070878029 6.8174165e-39
0.90608943 -0.16861981 0.073378026 5.9876811e-39
0.90608943 -0.16611981 0.073378026 6.9099807e-39
0.89108944 -0.16361982 0.065878026 7.5571676e-39
0.89108944 -0.16111982 0.065878026 7.2816429e-39
0.89108944 -0.15861982 0.065878026 7.2812898e-39
0.89108944 -0.15611982 0.065878026 7.556799e-39
0.89608943 -0.16361982 0.065878026 7.9237655e-39
0.89108944 -0.16361982 0.070878029 8.4755113e-39
0.89108944 -0.16111982 0.070878029 7.923062e-39
0.89358944 -0.16361982 0.068378024 7.9230564e-39
0.89358944 -0.16361982 0.070878029 8.6609788e-39
0.89358944 -0.16111982 0.068378024 7.556799e-39
0.89358944 -0.16111982 0.070878029 7.74084e-39
0.89108944 -0.15861982 0.070878029 7.923062e-39
0.89358944 -0.15861982 0.068378024 7.556799e-39
0.89358944 -0.15861982 0.070878029 7.4642531e-39
0.89358944 -0.15611982 0.068378024 7.5564459e-39
0.89358944 -0.15611982 0.070878029 7.3731337e-39
0.89608943 -0.16361982 0.068378024 9.1208681e-39
0.89608943 -0.16111982 0.068378024 7.9252298e-39
0.89858943 -0.16361982 0.070878029 1.0227929e-38
0.89858943 -0.16111982 0.070878029 9.2163134e-39
0.89858943 -0.16361982 0.073378026 6.3575006e-39
0.89858943 -0.16111982 0.073378026 6.0809459e-39
0.89608943 -0.15861982 0.068378024 7.3731337e-39
0.89608943 -0.15611982 0.068378024 7.3731337e-39
0.89858943 -0.15861982 0.070878029 8.5720286e-39
0.89858943 -0.15611982 0.070878029 8.5720286e-39
0.89608943 -0.15611982 0.073378026 8.4798329e-39
0.89858943 -0.15861982 0.073378026 7.4620979e-39
0.89858943 -0.15611982 0.073378026 7.0936755e-39
0.89108944 -0.15361981 0.065878026 7.5571648e-39
0.89108944 -0.15111981 0.065878026 7.5571494e-39
0.89358944 -0.15361981 0.065878026 7.3720533e-39
0.89358944 -0.15111981 0.065878026 7.3738371e-39
0.89108944 -0.14861982 0.065878026 8.1103217e-39
0.89358944 -0.14861982 0.065878026 8.6638725e-39
0.89608943 -0.15361981 0.065878026 7.5564459e-39
0.89608943 -0.15111981 0.065878026 8.2921963e-39
0.89858943 -0.15361981 0.065878026 7.2809408e-39
0.89608943 -0.14861982 0.065878026 9.6747804e-39
0.89358944 -0.15361981 0.068378024 7.3731337e-39
0.89358944 -0.15361981 0.070878029 7.3731365e-39
0.89358944 -0.15111981 0.068378024 7.7415434e-39
0.89358944 -0.15111981 0.070878029 8.2025216e-39
0.89608943 -0.15361981 0.068378024 7.5564487e-39
0.89608943 -0.15111981 0.068378024 8.4765861e-39
0.89858943 -0.15361981 0.070878029 9.0319291e-39
0.89858943 -0.15111981 0.070878029 9.3088649e-39
0.89608943 -0.15361981 0.073378026 9.2163134e-39
0.89858943 -0.15361981 0.073378026 7.6489947e-39
0.89858943 -0.15111981 0.073378026 9.6783579e-39
0.90608943 -0.15861982 0.065878026 8.6638459e-39
0.90608943 -0.15611982 0.065878026 8.7560415e-39
0.90108943 -0.16361982 0.068378024 1.0504153e-38
0.90108943 -0.16361982 0.070878029 9.0336892e-39
0.90108943 -0.16111982 0.070878029 6.1738604e-39
0.90358943 -0.16361982 0.070878029 6.1745484e-39
0.90358943 -0.16111982 0.070878029 6.8177851e-39
0.90358943 -0.16361982 0.073378026 6.5397745e-39
0.90358943 -0.16111982 0.073378026 5.8976519e-39
0.90108943 -0.15861982 0.068378024 8.3890835e-39
0.90108943 -0.15861982 0.070878029 7.7372246e-39
0.90108943 -0.15611982 0.068378024 8.9404524e-39
0.90108943 -0.15611982 0.070878029 7.0021763e-39
0.90358943 -0.15861982 0.068378024 8.3876317e-39
0.90358943 -0.15861982 0.070878029 7.7375778e-39
0.90358943 -0.15611982 0.068378024 8.4798273e-39
0.90358943 -0.15611982 0.070878029 7.0961894e-39
0.90358943 -0.15861982 0.073378026 6.9117856e-39
0.90358943 -0.15611982 0.073378026 6.3586118e-39
0.90358943 -0.15611982 0.075878024 5.8983693e-39
0.90608943 -0.16361982 0.070878029 6.1738506e-39
0.90608943 -0.16111982 0.070878029 7.0039938e-39
0.90858948 -0.16361982 0.070878029 6.5408282e-39
0.90858948 -0.16111982 0.070878029 6.911445e-39
0.90608943 -0.16361982 0.073378026 7.0028952e-39
0.90608943 -0.16111982 0.073378026 7.8344635e-39
0.90608943 -0.15861982 0.068378024 7.7382812e-39
0.90608943 -0.15861982 0.070878029 7.4635048e-39
0.90608943 -0.15611982 0.068378024 7.552832e-39
0.90608943 -0.15611982 0.070878029 6.8174319e-39
0.90858948 -0.15861982 0.070878029 7.1883907e-39
0.90858948 -0.15611982 0.070878029 6.8188809e-39
0.90608943 -0.15861982 0.073378026 7.5564291e-39
0.90608943 -0.15611982 0.073378026 7.3673715e-39
0.90358943 -0.15361981 0.065878026 9.1252024e-39
0.90608943 -0.15361981 0.065878026 9.1252024e-39
0.90608943 -0.15111981 0.065878026 9.8627674e-39
0.90108943 -0.15361981 0.068378024 8.4812791e-39
0.90108943 -0.15361981 0.070878029 8.8497015e-39
0.90108943 -0.15111981 0.068378024 9.2170196e-39
0.90108943 -0.15111981 0.070878029 1.0230823e-38
0.90358943 -0.15361981 0.068378024 9.4010634e-39
0.90358943 -0.15361981 0.070878029 9.0319291e-39
0.90358943 -0.15111981 0.070878029 9.9524197e-39
0.90608943 -0.15361981 0.068378024 9.032648e-39
0.90608943 -0.15361981 0.070878029 8.0199436e-39
0.90608943 -0.15111981 0.068378024 9.5861721e-39
0.90608943 -0.15111981 0.070878029 9.1248086e-39
0.90858948 -0.15361981 0.070878029 8.2947326e-39
0.90858948 -0.15111981 0.070878029 8.3793178e-39
0.90608943 -0.15361981 0.073378026 7.095451e-39
0.91108948 -0.16611981 0.073378026 5.6192475e-39
0.91108948 -0.16361982 0.070878029 6.8192326e-39
0.91108948 -0.16111982 0.070878029 8.0177758e-39
0.91358948 -0.16361982 0.068378024 6.6348413e-39
0.91358948 -0.16361982 0.070878029 6.8199361e-39
0.91358948 -0.16111982 0.068378024 8.1099714e-39
0.91358948 -0.16111982 0.070878029 7.3731098e-39
0.91108948 -0.16361982 0.073378026 6.5404779e-39
0.91108948 -0.16361982 0.075878024 6.9081254e-39
0.91108948 -0.16111982 0.073378026 7.5574885e-39
0.91358948 -0.16361982 0.073378026 6.5419268e-39
0.91108948 -0.15861982 0.068378024 7.3694973e-39
0.91108948 -0.15861982 0.070878029 7.5564291e-39
0.91108948 -0.15611982 0.068378024 7.1890941e-39
0.91358948 -0.15861982 0.068378024 7.5553501e-39
0.91358948 -0.15611982 0.068378024 5.9891034e-39
0.91108948 -0.15861982 0.073378026 6.5458897e-39
0.91108948 -0.15611982 0.073378026 5.8083247e-39
0.91108948 -0.15611982 0.075878024 5.2598326e-39
0.91358948 -0.15611982 0.073378026 4.0645194e-39
0.91608948 -0.16361982 0.070878029 6.8199389e-39
0.91608948 -0.16111982 0.070878029 7.4653083e-39
0.91608948 -0.15861982 0.070878029 6.3614985e-39
0.91858947 -0.15861982 0.068378024 5.6239334e-39
0.91858947 -0.15611982 0.068378024 3.9679896e-39
0.91358948 -0.15361981 0.065878026 9.032648e-39
0.91108948 -0.15361981 0.068378024 8.3872786e-39
0.91108948 -0.15361981 0.070878029 7.0036042e-39
0.91108948 -0.15111981 0.068378024 9.678711e-39
0.91358948 -0.15361981 0.068378024 7.8359125e-39
0.91108948 -0.15361981 0.073378026 5.9004783e-39
0.91108948 -0.15361981 0.075878024 1.1345104e-38
0.91108948 -0.15111981 0.073378026 6.8164202e-39
0.91358948 -0.15361981 0.073378026 1.1255779e-38
0.91608948 -0.15361981 0.068378024 6.5422772e-39
0.91858947 -0.15361981 0.068378024 4.7977503e-39
