# .PCD v0.7 - Point Cloud Data file format
VERSION 0.7
FIELDS x y z rgb
SIZE 4 4 4 4
TYPE F F F F
COUNT 1 1 1 1
WIDTH 273
HEIGHT 1
VIEWPOINT 0 0 0 1 0 0 0
POINTS 273
DATA ascii
0.89875287 -0.17896435 0.064482592 1.9631538e-38
0.89875287 -0.17646435 0.064482592 1.713794e-38
0.90125287 -0.17896435 0.064482592 1.9907034e-38
0.90125287 -0.17646435 0.064482592 1.6678777e-38
0.89875287 -0.17896435 0.06698259 1.963082e-38
0.89875287 -0.17646435 0.06698259 1.7045026e-38
0.88375288 -0.16646434 0.064482592 7.2816022e-39
0.88625288 -0.16896434 0.064482592 6.6337539e-39
0.88625288 -0.16646434 0.064482592 7.5575179e-39
0.89125288 -0.17146435 0.064482592 7.3734868e-39
0.89125288 -0.16896434 0.064482592 8.2021685e-39
0.89125288 -0.16646434 0.064482592 8.2021685e-39
0.88375288 -0.16646434 0.06698259 7.741549e-39
0.88625288 -0.16646434 0.06698259 8.5684258e-39
0.88625288 -0.16646434 0.069482595 8.5680783e-39
0.89125288 -0.17146435 0.06698259 8.0181527e-39
0.88875288 -0.16896434 0.06698259 8.4762302e-39
0.88875288 -0.16646434 0.06698259 8.1103245e-39
0.89125288 -0.16896434 0.06698259 8.2943697e-39
0.89125288 -0.16896434 0.069482595 8.5680783e-39
0.89125288 -0.16646434 0.06698259 8.0174227e-39
0.89125288 -0.16646434 0.069482595 8.5680783e-39
0.88875288 -0.16646434 0.071982592 8.6609816e-39
0.89125288 -0.16896434 0.071982592 8.8453701e-39
0.89125288 -0.16646434 0.071982592 8.8450197e-39
0.88375288 -0.16396435 0.064482592 7.1890913e-39
0.88375288 -0.16146435 0.064482592 6.6359175e-39
0.88625288 -0.16396435 0.064482592 7.6490101e-39
0.88625288 -0.16146435 0.064482592 7.0968985e-39
0.88625288 -0.15896435 0.064482592 7.1890941e-39
0.88625288 -0.15646435 0.064482592 6.913596e-39
0.89125288 -0.16396435 0.064482592 7.926306e-39
0.89125288 -0.16146435 0.064482592 7.6497135e-39
0.89125288 -0.15646435 0.064482592 7.3731337e-39
0.88375288 -0.16396435 0.06698259 7.9263102e-39
0.88375288 -0.16146435 0.06698259 7.3731365e-39
0.88625288 -0.16396435 0.06698259 7.8341104e-39
0.88625288 -0.16396435 0.069482595 7.925227e-39
0.88625288 -0.16146435 0.06698259 7.5571648e-39
0.88625288 -0.16146435 0.069482595 7.5564459e-39
0.88375288 -0.15646435 0.06698259 6.7292048e-39
0.88625288 -0.15896435 0.06698259 7.0064951e-39
0.88625288 -0.15896435 0.069482595 7.3727595e-39
0.88625288 -0.15646435 0.06698259 7.3745714e-39
0.88625288 -0.15646435 0.069482595 7.3731337e-39
0.88875288 -0.16396435 0.06698259 8.0174227e-39
0.88875288 -0.16146435 0.06698259 7.4649551e-39
0.89125288 -0.16396435 0.06698259 7.741549e-39
0.89125288 -0.16396435 0.069482595 8.2918459e-39
0.89125288 -0.16146435 0.06698259 7.464602e-39
0.89125288 -0.16146435 0.069482595 7.464602e-39
0.89125288 -0.16396435 0.071982592 9.0294166e-39
0.89125288 -0.16146435 0.071982592 7.6497191e-39
0.88875288 -0.15896435 0.06698259 7.3734868e-39
0.88875288 -0.15646435 0.06698259 7.3745714e-39
0.89125288 -0.15896435 0.069482595 7.464602e-39
0.89125288 -0.15646435 0.06698259 7.5564459e-39
0.89125288 -0.15646435 0.069482595 7.4642503e-39
0.88875288 -0.15646435 0.071982592 8.0141871e-39
0.89125288 -0.15896435 0.071982592 7.4642531e-39
0.89125288 -0.15646435 0.071982592 7.2809408e-39
0.88625288 -0.15396434 0.064482592 6.4536941e-39
0.88625288 -0.15146434 0.064482592 5.0725729e-39
0.89125288 -0.15396434 0.064482592 7.5571676e-39
0.89125288 -0.15146434 0.064482592 7.2812898e-39
0.89125288 -0.14896435 0.064482592 8.2947172e-39
0.88375288 -0.15396434 0.06698259 5.9945306e-39
0.88625288 -0.15396434 0.06698259 7.1905431e-39
0.88625288 -0.15396434 0.069482595 7.5568173e-39
0.88625288 -0.15146434 0.06698259 7.0057931e-39
0.88625288 -0.15146434 0.069482595 7.5568173e-39
0.88625288 -0.15396434 0.07448259 7.464602e-39
0.88625288 -0.15146434 0.07448259 7.6489947e-39
0.88625288 -0.14896435 0.07448259 7.9255802e-39
0.88875288 -0.15396434 0.06698259 7.6497191e-39
0.88875288 -0.15146434 0.06698259 7.3731337e-39
0.89125288 -0.15396434 0.06698259 7.7411959e-39
0.89125288 -0.15396434 0.069482595 7.3717029e-39
0.89125288 -0.15146434 0.06698259 7.188741e-39
0.89125288 -0.15146434 0.069482595 7.5560956e-39
0.88875288 -0.15396434 0.071982592 8.0149059e-39
0.88875288 -0.15146434 0.071982592 8.0149059e-39
0.89125288 -0.15396434 0.071982592 7.3727833e-39
0.89125288 -0.15396434 0.07448259 9.0330011e-39
0.89125288 -0.15146434 0.071982592 7.7415645e-39
0.89125288 -0.15146434 0.07448259 9.3099481e-39
0.89125288 -0.14896435 0.06698259 8.5716754e-39
0.88875288 -0.14896435 0.071982592 8.2000006e-39
0.89125288 -0.14896435 0.071982592 8.9400866e-39
0.89125288 -0.14896435 0.07448259 9.8616884e-39
0.89375287 -0.17396435 0.064482592 4.7923749e-39
0.89375287 -0.17146435 0.064482592 6.2660756e-39
0.89875287 -0.17396435 0.064482592 7.0882581e-39
0.89375287 -0.17146435 0.06698259 8.5705964e-39
0.89375287 -0.17146435 0.069482595 8.2940138e-39
0.89625287 -0.17396435 0.06698259 6.5368892e-39
0.89625287 -0.17396435 0.069482595 6.9056647e-39
0.89625287 -0.17146435 0.06698259 6.7266838e-39
0.89625287 -0.17146435 0.069482595 6.7266866e-39
0.89375287 -0.17146435 0.071982592 8.847891e-39
0.89625287 -0.17146435 0.071982592 8.9397335e-39
0.89375287 -0.16896434 0.06698259 8.6609816e-39
0.89375287 -0.16896434 0.069482595 8.4758771e-39
0.89375287 -0.16646434 0.06698259 8.5684258e-39
0.89375287 -0.16646434 0.069482595 8.8453729e-39
0.89625287 -0.16896434 0.069482595 9.5829351e-39
0.89625287 -0.16646434 0.069482595 1.0412679e-38
0.89375287 -0.16896434 0.071982592 9.3985438e-39
0.89375287 -0.16646434 0.071982592 1.0136109e-38
0.89625287 -0.16896434 0.071982592 9.3988942e-39
0.89625287 -0.16646434 0.071982592 9.5836441e-39
0.89875287 -0.17396435 0.06698259 7.0900728e-39
0.90125287 -0.17396435 0.069482595 6.8195857e-39
0.89875287 -0.17396435 0.071982592 7.3680848e-39
0.89875287 -0.17146435 0.071982592 8.9400866e-39
0.90125287 -0.17396435 0.071982592 6.1742135e-39
0.90125287 -0.17146435 0.071982592 9.3985438e-39
0.90125287 -0.17146435 0.07448259 7.09653e-39
0.89875287 -0.16896434 0.071982592 9.4910898e-39
0.89875287 -0.16646434 0.071982592 9.6758398e-39
0.90125287 -0.16896434 0.071982592 8.2028873e-39
0.90125287 -0.16896434 0.07448259 8.2021867e-39
0.90125287 -0.16646434 0.071982592 7.0043441e-39
0.90125287 -0.16646434 0.07448259 7.4639028e-39
0.89375287 -0.16396435 0.06698259 8.4758771e-39
0.89375287 -0.16396435 0.069482595 8.8450197e-39
0.89375287 -0.16146435 0.06698259 7.4649551e-39
0.89375287 -0.16146435 0.069482595 7.741549e-39
0.89625287 -0.16396435 0.069482595 1.0227929e-38
0.89625287 -0.16146435 0.069482595 9.2166693e-39
0.89375287 -0.16396435 0.071982592 1.0505593e-38
0.89375287 -0.16146435 0.071982592 9.1251967e-39
0.89625287 -0.16396435 0.071982592 9.6761901e-39
0.89625287 -0.16146435 0.071982592 8.8478882e-39
0.89375287 -0.15896435 0.06698259 7.4642503e-39
0.89375287 -0.15896435 0.069482595 7.3731337e-39
0.89375287 -0.15646435 0.06698259 7.4642503e-39
0.89375287 -0.15646435 0.069482595 7.280938e-39
0.89625287 -0.15896435 0.069482595 7.556799e-39
0.89625287 -0.15646435 0.069482595 7.5564459e-39
0.89375287 -0.15896435 0.071982592 8.8486099e-39
0.89375287 -0.15646435 0.071982592 8.4816322e-39
0.89375287 -0.15646435 0.07448259 8.3872786e-39
0.89625287 -0.15896435 0.071982592 8.1128427e-39
0.89625287 -0.15646435 0.071982592 8.2050383e-39
0.89625287 -0.15646435 0.07448259 7.0036042e-39
0.90125287 -0.16396435 0.069482595 9.21737e-39
0.89875287 -0.16396435 0.071982592 9.5843476e-39
0.89875287 -0.16146435 0.071982592 8.9415117e-39
0.90125287 -0.16396435 0.071982592 6.4511339e-39
0.90125287 -0.16146435 0.071982592 6.083464e-39
0.90125287 -0.15896435 0.069482595 8.3869283e-39
0.90125287 -0.15646435 0.069482595 8.3869283e-39
0.89875287 -0.15896435 0.071982592 8.4805336e-39
0.89875287 -0.15646435 0.071982592 6.8195829e-39
0.90125287 -0.15896435 0.071982592 6.8195829e-39
0.90125287 -0.15646435 0.071982592 7.9198362e-39
0.90125287 -0.15646435 0.07448259 6.9103731e-39
0.90375286 -0.17396435 0.071982592 7.0046818e-39
0.90375286 -0.17146435 0.071982592 8.0188324e-39
0.90375286 -0.16896434 0.071982592 7.8337601e-39
0.90375286 -0.16896434 0.07448259 5.8036401e-39
0.90375286 -0.16646434 0.071982592 7.2805905e-39
0.90375286 -0.16646434 0.07448259 6.8174319e-39
0.90625286 -0.16896434 0.071982592 5.9883845e-39
0.90625286 -0.16646434 0.071982592 7.0021763e-39
0.91125292 -0.16896434 0.069482595 6.9092828e-39
0.91125292 -0.16646434 0.069482595 7.0021763e-39
0.90875286 -0.16896434 0.071982592 6.9092772e-39
0.90875286 -0.16646434 0.071982592 6.7266684e-39
0.90375286 -0.16396435 0.069482595 6.541882e-39
0.90375286 -0.16396435 0.071982592 6.3586118e-39
0.90375286 -0.16146435 0.071982592 6.176031e-39
0.90375286 -0.16146435 0.07448259 7.8341104e-39
0.90625286 -0.16396435 0.071982592 6.5415583e-39
0.90625286 -0.16146435 0.071982592 6.176031e-39
0.90625286 -0.16146435 0.07448259 7.0039518e-39
0.90375286 -0.15896435 0.069482595 6.6355714e-39
0.90375286 -0.15646435 0.069482595 7.0039938e-39
0.90625286 -0.15646435 0.06698259 8.8479036e-39
0.90625286 -0.15646435 0.069482595 7.0043497e-39
0.90375286 -0.15896435 0.071982592 6.8210473e-39
0.90375286 -0.15896435 0.07448259 8.1056554e-39
0.90375286 -0.15646435 0.071982592 6.4526249e-39
0.90375286 -0.15646435 0.07448259 6.9092828e-39
0.90625286 -0.15896435 0.071982592 6.5465904e-39
0.90625286 -0.15896435 0.07448259 6.3643655e-39
0.90625286 -0.15646435 0.071982592 5.901221e-39
0.90625286 -0.15646435 0.07448259 5.350215e-39
0.90875286 -0.16396435 0.069482595 6.5422772e-39
0.91125292 -0.16396435 0.069482595 7.0021763e-39
0.90875286 -0.16396435 0.071982592 7.0028952e-39
0.90875286 -0.16146435 0.071982592 8.2028873e-39
0.91125292 -0.16396435 0.07448259 7.0000281e-39
0.90875286 -0.15896435 0.069482595 6.819625e-39
0.90875286 -0.15646435 0.069482595 6.7274293e-39
0.91125292 -0.15896435 0.069482595 7.4631769e-39
0.91125292 -0.15646435 0.069482595 6.6337694e-39
0.90875286 -0.15896435 0.071982592 7.829779e-39
0.90875286 -0.15646435 0.071982592 7.0943944e-39
0.91125292 -0.15646435 0.07448259 6.0002745e-39
0.90125287 -0.15646435 0.076982588 7.0943944e-39
0.90375286 -0.15646435 0.076982588 5.2573159e-39
0.90875286 -0.16146435 0.076982588 6.9989589e-39
0.89375287 -0.15396434 0.064482592 7.6482912e-39
0.89375287 -0.15146434 0.064482592 7.2809408e-39
0.89375287 -0.14646435 0.064482592 8.8464294e-39
0.89375287 -0.15396434 0.06698259 7.5564459e-39
0.89375287 -0.15396434 0.069482595 7.2809408e-39
0.89375287 -0.15146434 0.06698259 7.0968985e-39
0.89375287 -0.15146434 0.069482595 6.913596e-39
0.89625287 -0.15396434 0.06698259 7.4642503e-39
0.89625287 -0.15396434 0.069482595 7.1887438e-39
0.89625287 -0.15146434 0.06698259 8.1996503e-39
0.89625287 -0.15146434 0.069482595 7.7418994e-39
0.89375287 -0.15396434 0.071982592 8.6638725e-39
0.89375287 -0.15396434 0.07448259 7.3727595e-39
0.89375287 -0.15146434 0.071982592 8.940458e-39
0.89375287 -0.15146434 0.07448259 9.3088677e-39
0.89625287 -0.15396434 0.071982592 8.8482567e-39
0.89625287 -0.15396434 0.07448259 7.1890941e-39
0.89625287 -0.15146434 0.071982592 9.217398e-39
0.89625287 -0.15146434 0.07448259 9.032648e-39
0.89875287 -0.15396434 0.06698259 7.3731365e-39
0.90125287 -0.15396434 0.069482595 9.0319291e-39
0.90125287 -0.15146434 0.069482595 1.032408e-38
0.89875287 -0.15396434 0.071982592 7.2798576e-39
0.89875287 -0.15146434 0.071982592 9.8620387e-39
0.90125287 -0.15396434 0.071982592 7.5564459e-39
0.90125287 -0.15396434 0.07448259 8.2025342e-39
0.90125287 -0.15146434 0.07448259 9.1262533e-39
0.90875286 -0.15396434 0.064482592 8.8497015e-39
0.90375286 -0.15396434 0.069482595 9.3081615e-39
0.90375286 -0.15146434 0.069482595 9.4939624e-39
0.90625286 -0.15396434 0.069482595 9.0319347e-39
0.90625286 -0.15146434 0.069482595 1.0043894e-38
0.90375286 -0.15396434 0.071982592 6.7277642e-39
0.90375286 -0.15396434 0.07448259 5.9894691e-39
0.90375286 -0.15146434 0.071982592 9.0340605e-39
0.90625286 -0.15396434 0.071982592 6.2678763e-39
0.90625286 -0.15396434 0.07448259 4.3338939e-39
0.90875286 -0.15396434 0.06698259 8.8479036e-39
0.90875286 -0.15396434 0.069482595 7.6508122e-39
0.90875286 -0.15146434 0.06698259 9.678711e-39
0.90875286 -0.15146434 0.069482595 9.1244555e-39
0.91125292 -0.15396434 0.06698259 8.8479036e-39
0.91125292 -0.15396434 0.069482595 6.3586118e-39
0.91125292 -0.15146434 0.069482595 8.6526775e-39
0.90875286 -0.15396434 0.071982592 5.345899e-39
0.91125292 -0.15396434 0.07448259 1.199299e-38
0.89375287 -0.15396434 0.076982588 6.5433716e-39
0.89375287 -0.15146434 0.076982588 8.2950886e-39
0.89625287 -0.15396434 0.079482593 6.3593152e-39
0.89625287 -0.15146434 0.076982588 8.3872842e-39
0.90375286 -0.15396434 0.076982588 4.2431317e-39
0.91375291 -0.16646434 0.071982592 5.3419347e-39
0.91625291 -0.16146435 0.069482595 7.5578416e-39
0.91375291 -0.16396435 0.071982592 6.6326735e-39
0.91375291 -0.16396435 0.07448259 6.8156439e-39
0.91375291 -0.16146435 0.071982592 7.3731098e-39
0.91625291 -0.15896435 0.069482595 6.9132331e-39
0.91625291 -0.15646435 0.069482595 4.7030365e-39
0.91375291 -0.15896435 0.071982592 6.5458897e-39
0.91375291 -0.15646435 0.071982592 5.9909181e-39
0.91375291 -0.15646435 0.07448259 6.18467e-39
0.91625291 -0.15646435 0.071982592 6.459459e-39
0.91375291 -0.15396434 0.06698259 7.8355593e-39
0.91375291 -0.15396434 0.069482595 6.3575314e-39
0.91625291 -0.15396434 0.06698259 9.3091998e-39
0.91625291 -0.15396434 0.069482595 5.3484003e-39
0.91375291 -0.15396434 0.071982592 5.3484003e-39
0.91375291 -0.15396434 0.07448259 1.1532017e-38
0.91625291 -0.15396434 0.071982592 1.1990837e-38
