# .PCD v0.7 - Point Cloud Data file format
VERSION 0.7
FIELDS x y z rgb
SIZE 4 4 4 4
TYPE F F F F
COUNT 1 1 1 1
WIDTH 264
HEIGHT 1
VIEWPOINT 0 0 0 1 0 0 0
POINTS 264
DATA ascii
0.88333464 -0.16751458 0.063840866 6.1749016e-39
0.88583463 -0.16751458 0.066340864 6.9110765e-39
0.88583463 -0.16751458 0.068840861 8.5684314e-39
0.89083469 -0.17251459 0.066340864 6.082748e-39
0.88833469 -0.17001458 0.066340864 6.7273873e-39
0.88833469 -0.16751458 0.066340864 7.0961796e-39
0.89083469 -0.17001458 0.066340864 7.925227e-39
0.89083469 -0.16751458 0.066340864 8.2021685e-39
0.88833469 -0.17001458 0.068840861 8.202537e-39
0.88833469 -0.16751458 0.068840861 8.2025216e-39
0.89083469 -0.17001458 0.068840861 8.8446694e-39
0.89083469 -0.17001458 0.071340866 8.2936606e-39
0.89083469 -0.16751458 0.068840861 8.7528241e-39
0.89083469 -0.16751458 0.071340866 8.7531744e-39
0.88333464 -0.16501458 0.063840866 7.1890535e-39
0.88333464 -0.16251458 0.063840866 6.8174319e-39
0.88583463 -0.16501458 0.066340864 7.5564459e-39
0.88583463 -0.16251458 0.066340864 7.4639e-39
0.88583463 -0.16501458 0.068840861 8.6606285e-39
0.88583463 -0.16251458 0.068840861 7.5564459e-39
0.88333464 -0.16001458 0.063840866 6.8185137e-39
0.88333464 -0.15751459 0.063840866 6.8188641e-39
0.88583463 -0.16001458 0.066340864 7.2812898e-39
0.88583463 -0.15751459 0.066340864 7.188741e-39
0.88333464 -0.15751459 0.068840861 7.556799e-39
0.88333464 -0.15751459 0.071340866 7.188741e-39
0.88583463 -0.16001458 0.068840861 7.2802051e-39
0.88583463 -0.15751459 0.068840861 7.5575179e-39
0.88833469 -0.16501458 0.066340864 7.74084e-39
0.88833469 -0.16251458 0.066340864 7.4642531e-39
0.89083469 -0.16501458 0.066340864 8.1096225e-39
0.89083469 -0.16251458 0.066340864 7.4642531e-39
0.88833469 -0.16501458 0.068840861 8.1096183e-39
0.88833469 -0.16251458 0.068840861 7.4642503e-39
0.88833469 -0.16251458 0.071340866 7.9230564e-39
0.89083469 -0.16501458 0.068840861 8.4762302e-39
0.89083469 -0.16251458 0.068840861 7.9230564e-39
0.89083469 -0.16251458 0.071340866 8.6609816e-39
0.88833469 -0.16001458 0.066340864 7.2802108e-39
0.88833469 -0.15751459 0.066340864 7.2802108e-39
0.89083469 -0.16001458 0.066340864 7.556799e-39
0.89083469 -0.15751459 0.066340864 7.5571648e-39
0.88833469 -0.16001458 0.068840861 7.3731098e-39
0.88833469 -0.16001458 0.071340866 7.464602e-39
0.88833469 -0.15751459 0.068840861 7.464602e-39
0.88833469 -0.15751459 0.071340866 7.280938e-39
0.89083469 -0.16001458 0.068840861 7.5571522e-39
0.89083469 -0.16001458 0.071340866 7.5575179e-39
0.89083469 -0.15751459 0.068840861 7.0965454e-39
0.89083469 -0.15751459 0.071340866 7.3731337e-39
0.88333464 -0.15751459 0.073840864 7.2798576e-39
0.88333464 -0.15751459 0.076340862 7.188741e-39
0.89833468 -0.17751458 0.066340864 1.7047544e-38
0.90083468 -0.17751458 0.066340864 1.7045036e-38
0.89333469 -0.17501459 0.066340864 5.7110746e-39
0.89333469 -0.17251459 0.066340864 5.9891216e-39
0.89583468 -0.17501459 0.066340864 1.6494736e-38
0.89583468 -0.17251459 0.066340864 6.8163627e-39
0.89333469 -0.17501459 0.068840861 7.3655666e-39
0.89333469 -0.17251459 0.068840861 7.0007568e-39
0.89583468 -0.17501459 0.068840861 6.9060402e-39
0.89583468 -0.17501459 0.071340866 7.1804537e-39
0.89583468 -0.17251459 0.068840861 6.7266866e-39
0.89583468 -0.17251459 0.071340866 6.7266838e-39
0.89333469 -0.17001458 0.068840861 8.752471e-39
0.89333469 -0.16751458 0.068840861 8.5684314e-39
0.89583468 -0.17001458 0.071340866 8.8471847e-39
0.89583468 -0.16751458 0.071340866 9.5822316e-39
0.89833468 -0.17501459 0.066340864 6.6294379e-39
0.89833468 -0.17501459 0.068840861 7.5495992e-39
0.89833468 -0.17501459 0.071340866 7.3673295e-39
0.89833468 -0.17251459 0.068840861 6.8192326e-39
0.89833468 -0.17251459 0.071340866 7.3698897e-39
0.90083468 -0.17501459 0.068840861 7.2737269e-39
0.90083468 -0.17251459 0.068840861 6.9117828e-39
0.90083468 -0.17251459 0.071340866 6.0823682e-39
0.89833468 -0.17001458 0.068840861 8.847891e-39
0.89833468 -0.17001458 0.071340866 8.9400866e-39
0.89833468 -0.16751458 0.068840861 9.9517176e-39
0.89833468 -0.16751458 0.071340866 9.5829351e-39
0.90083468 -0.17001458 0.071340866 8.6634983e-39
0.90083468 -0.16751458 0.071340866 7.1869431e-39
0.89583468 -0.17001458 0.073840864 9.3059979e-39
0.89583468 -0.16751458 0.073840864 9.2156099e-39
0.89833468 -0.17501459 0.073840864 7.2754519e-39
0.89833468 -0.17251459 0.073840864 6.817069e-39
0.89833468 -0.17251459 0.076340862 7.09653e-39
0.90083468 -0.17251459 0.073840864 7.0975991e-39
0.89833468 -0.17001458 0.073840864 8.7556912e-39
0.89833468 -0.17001458 0.076340862 8.1103217e-39
0.89833468 -0.16751458 0.073840864 7.2805877e-39
0.89833468 -0.16751458 0.076340862 7.7415645e-39
0.90083468 -0.17001458 0.073840864 8.2039467e-39
0.90083468 -0.17001458 0.076340862 6.539333e-39
0.90083468 -0.16751458 0.073840864 7.3727833e-39
0.90083468 -0.16751458 0.076340862 7.0947475e-39
0.89583468 -0.16501458 0.066340864 8.1103245e-39
0.89583468 -0.16251458 0.066340864 7.5571522e-39
0.89333469 -0.16501458 0.068840861 8.5684314e-39
0.89333469 -0.16251458 0.068840861 8.1996503e-39
0.89583468 -0.16501458 0.068840861 9.3981935e-39
0.89583468 -0.16501458 0.071340866 1.0229014e-38
0.89583468 -0.16251458 0.068840861 8.5684314e-39
0.89583468 -0.16251458 0.071340866 1.0502356e-38
0.89333469 -0.16001458 0.068840861 7.3724064e-39
0.89333469 -0.15751459 0.068840861 7.280938e-39
0.89583468 -0.16001458 0.068840861 7.556799e-39
0.89583468 -0.16001458 0.071340866 9.5829351e-39
0.89583468 -0.15751459 0.068840861 7.280938e-39
0.89583468 -0.15751459 0.071340866 8.3894366e-39
0.89833468 -0.16501458 0.068840861 1.0411607e-38
0.89833468 -0.16501458 0.071340866 9.9524169e-39
0.89833468 -0.16251458 0.068840861 1.0044264e-38
0.89833468 -0.16251458 0.071340866 9.5839945e-39
0.90083468 -0.16501458 0.068840861 1.013466e-38
0.90083468 -0.16501458 0.071340866 6.3575006e-39
0.90083468 -0.16251458 0.068840861 9.0326382e-39
0.90083468 -0.16251458 0.071340866 6.5415583e-39
0.89833468 -0.16001458 0.068840861 8.9400866e-39
0.89833468 -0.16001458 0.071340866 8.6638459e-39
0.89833468 -0.15751459 0.068840861 8.3894366e-39
0.89833468 -0.15751459 0.071340866 8.4801833e-39
0.90083468 -0.16001458 0.068840861 8.7556912e-39
0.90083468 -0.16001458 0.071340866 6.9099807e-39
0.90083468 -0.15751459 0.068840861 8.2968808e-39
0.90083468 -0.15751459 0.071340866 7.8301419e-39
0.89583468 -0.16001458 0.073840864 8.7563946e-39
0.89583468 -0.15751459 0.073840864 8.2979402e-39
0.89833468 -0.16501458 0.073840864 7.6482394e-39
0.89833468 -0.16251458 0.073840864 5.9912684e-39
0.90083468 -0.16501458 0.073840864 7.4631545e-39
0.90083468 -0.16501458 0.076340862 7.095451e-39
0.89833468 -0.16001458 0.073840864 6.1760184e-39
0.89833468 -0.15751459 0.073840864 7.6453821e-39
0.90833467 -0.16751458 0.071340866 7.0014729e-39
0.91083467 -0.16751458 0.071340866 7.0028952e-39
0.90333468 -0.17001458 0.073840864 6.2639078e-39
0.90333468 -0.16751458 0.073840864 7.2805905e-39
0.90583467 -0.17001458 0.073840864 5.8962043e-39
0.90583467 -0.16751458 0.073840864 7.2791388e-39
0.91083467 -0.16751458 0.073840864 5.0650045e-39
0.90333468 -0.16501458 0.066340864 1.0136812e-38
0.90333468 -0.16501458 0.068840861 6.5419086e-39
0.90333468 -0.16251458 0.068840861 8.9407929e-39
0.90583467 -0.16501458 0.071340866 6.5415583e-39
0.90583467 -0.16251458 0.071340866 6.1756779e-39
0.90333468 -0.16001458 0.066340864 8.3894366e-39
0.90333468 -0.16001458 0.068840861 8.0202939e-39
0.90333468 -0.15751459 0.068840861 8.5723789e-39
0.90583467 -0.16001458 0.071340866 7.4638831e-39
0.90583467 -0.15751459 0.071340866 6.9107262e-39
0.90833467 -0.16501458 0.071340866 7.095451e-39
0.90833467 -0.16251458 0.071340866 7.0043441e-39
0.91083467 -0.16501458 0.071340866 6.5419086e-39
0.91083467 -0.16251458 0.071340866 6.6351917e-39
0.90833467 -0.16001458 0.071340866 8.2943641e-39
0.90833467 -0.15751459 0.068840861 6.4522451e-39
0.90833467 -0.15751459 0.071340866 7.0025449e-39
0.91083467 -0.16001458 0.071340866 8.2950731e-39
0.91083467 -0.15751459 0.071340866 7.1833306e-39
0.90333468 -0.16501458 0.073840864 6.9117856e-39
0.90333468 -0.16251458 0.073840864 6.4501068e-39
0.90583467 -0.16501458 0.073840864 7.0021819e-39
0.90583467 -0.16251458 0.073840864 6.7281174e-39
0.90333468 -0.16001458 0.073840864 6.9107262e-39
0.90333468 -0.15751459 0.073840864 7.2805611e-39
0.90583467 -0.16001458 0.073840864 7.4638831e-39
0.90583467 -0.15751459 0.073840864 7.3666681e-39
0.90833467 -0.16251458 0.073840864 7.0039546e-39
0.91083467 -0.16501458 0.073840864 6.3557433e-39
0.91083467 -0.16251458 0.073840864 6.4515137e-39
0.90833467 -0.16001458 0.073840864 7.5574885e-39
0.90833467 -0.15751459 0.073840864 6.083464e-39
0.91083467 -0.16001458 0.073840864 8.0156066e-39
0.91083467 -0.15751459 0.073840864 6.1763687e-39
0.91333467 -0.16501458 0.071340866 6.5419086e-39
0.91333467 -0.16251458 0.071340866 7.6468072e-39
0.91333467 -0.16001458 0.071340866 8.0155898e-39
0.91333467 -0.15751459 0.071340866 5.8068757e-39
0.88333464 -0.15501457 0.063840866 6.4500787e-39
0.88333464 -0.15251458 0.063840866 6.7245174e-39
0.88583463 -0.15501457 0.066340864 7.0043497e-39
0.88583463 -0.15251458 0.066340864 6.5458897e-39
0.88333464 -0.15501457 0.068840861 7.556799e-39
0.88333464 -0.15501457 0.071340866 7.280938e-39
0.88333464 -0.15251458 0.068840861 7.7422679e-39
0.88333464 -0.15251458 0.071340866 7.6493478e-39
0.88583463 -0.15501457 0.068840861 7.741549e-39
0.88583463 -0.15251458 0.068840861 7.5571676e-39
0.88583463 -0.15001458 0.068840861 7.5571648e-39
0.88833469 -0.15501457 0.066340864 7.0961796e-39
0.88833469 -0.15251458 0.066340864 7.3749245e-39
0.89083469 -0.15501457 0.066340864 7.6497191e-39
0.89083469 -0.15251458 0.066340864 7.6489947e-39
0.88833469 -0.15501457 0.068840861 7.3731337e-39
0.88833469 -0.15501457 0.071340866 7.280938e-39
0.88833469 -0.15251458 0.068840861 7.5575179e-39
0.88833469 -0.15251458 0.071340866 7.4642531e-39
0.89083469 -0.15501457 0.068840861 7.280938e-39
0.89083469 -0.15501457 0.071340866 7.3731337e-39
0.89083469 -0.15251458 0.068840861 7.556799e-39
0.89083469 -0.15251458 0.071340866 7.1887438e-39
0.89083469 -0.15001458 0.066340864 7.557871e-39
0.88833469 -0.15001458 0.068840861 7.5575179e-39
0.88833469 -0.15001458 0.071340866 8.1996503e-39
0.89083469 -0.15001458 0.068840861 8.2921963e-39
0.89083469 -0.15001458 0.071340866 7.7418994e-39
0.88333464 -0.15501457 0.073840864 7.4642503e-39
0.88333464 -0.15501457 0.076340862 7.3731337e-39
0.88333464 -0.15251458 0.073840864 7.556799e-39
0.88333464 -0.15251458 0.076340862 7.3731337e-39
0.88333464 -0.15001458 0.073840864 7.4649551e-39
0.88333464 -0.15001458 0.076340862 7.5564459e-39
0.88583463 -0.15001458 0.078840867 9.7705718e-39
0.88833469 -0.15251458 0.073840864 8.7575058e-39
0.89083469 -0.15501457 0.073840864 9.032648e-39
0.89083469 -0.15251458 0.073840864 8.5738433e-39
0.89083469 -0.15001458 0.073840864 9.0330011e-39
0.89333469 -0.15251458 0.066340864 7.280938e-39
0.89583468 -0.15251458 0.066340864 7.7375932e-39
0.89333469 -0.15501457 0.068840861 7.280938e-39
0.89333469 -0.15251458 0.068840861 7.4642503e-39
0.89583468 -0.15501457 0.068840861 7.2805905e-39
0.89583468 -0.15501457 0.071340866 8.4816322e-39
0.89583468 -0.15251458 0.068840861 7.6490129e-39
0.89583468 -0.15251458 0.071340866 8.8482567e-39
0.89333469 -0.15001458 0.066340864 7.6490101e-39
0.89583468 -0.15001458 0.066340864 8.2000034e-39
0.89333469 -0.15001458 0.068840861 8.2007041e-39
0.89583468 -0.15001458 0.068840861 8.4765861e-39
0.89833468 -0.15501457 0.066340864 8.1060296e-39
0.89833468 -0.15251458 0.066340864 7.9216369e-39
0.89833468 -0.15501457 0.068840861 8.9393832e-39
0.89833468 -0.15501457 0.071340866 9.0326536e-39
0.89833468 -0.15251458 0.068840861 8.9397391e-39
0.89833468 -0.15251458 0.071340866 9.034806e-39
0.90083468 -0.15501457 0.068840861 8.9404524e-39
0.90083468 -0.15501457 0.071340866 7.3724064e-39
0.90083468 -0.15251458 0.068840861 9.309595e-39
0.89583468 -0.15501457 0.073840864 8.3901372e-39
0.89583468 -0.15251458 0.073840864 9.0344655e-39
0.89333469 -0.15001458 0.073840864 1.0139349e-38
0.89833468 -0.15501457 0.073840864 6.6355714e-39
0.89833468 -0.15251458 0.073840864 8.8479064e-39
0.90583467 -0.15251458 0.066340864 9.1252024e-39
0.90333468 -0.15501457 0.068840861 9.0326536e-39
0.90333468 -0.15251458 0.068840861 9.2170449e-39
0.90583467 -0.15501457 0.071340866 6.6359203e-39
0.91083467 -0.15501457 0.066340864 9.1248492e-39
0.91083467 -0.15251458 0.066340864 9.6776278e-39
0.90833467 -0.15501457 0.068840861 7.3731337e-39
0.90833467 -0.15501457 0.071340866 6.267526e-39
0.90833467 -0.15251458 0.068840861 9.0319291e-39
0.90833467 -0.15251458 0.071340866 8.2961423e-39
0.91083467 -0.15501457 0.068840861 7.8348531e-39
0.91083467 -0.15501457 0.071340866 6.6326735e-39
0.91083467 -0.15251458 0.068840861 8.7592687e-39
0.90333468 -0.15501457 0.073840864 6.0834822e-39
0.90333468 -0.15251458 0.073840864 8.0195905e-39
0.90583467 -0.15501457 0.073840864 6.0820179e-39
0.91083467 -0.15501457 0.073840864 4.3353274e-39
0.91083467 -0.15251458 0.073840864 5.3491038e-39
0.91333467 -0.15501457 0.071340866 4.6101318e-39
0.91333467 -0.15501457 0.073840864 6.0924702e-39
