# .PCD v0.7 - Point Cloud Data file format
VERSION 0.7
FIELDS x y z rgb
SIZE 4 4 4 4
TYPE F F F F
COUNT 1 1 1 1
WIDTH 240
HEIGHT 1
VIEWPOINT 0 0 0 1 0 0 0
POINTS 240
DATA ascii
0.89485842 -0.17529674 0.064623766 5.2511852e-39
0.89485842 -0.17279674 0.064623766 5.8980022e-39
0.89485842 -0.17529674 0.067123763 7.0893371e-39
0.89485842 -0.17279674 0.067123763 6.7266838e-39
0.88485843 -0.16779675 0.064623766 6.4522115e-39
0.88485843 -0.16529675 0.064623766 7.0975809e-39
0.88485843 -0.16779675 0.067123763 7.2802108e-39
0.88485843 -0.16529675 0.067123763 7.741549e-39
0.88485843 -0.16279675 0.067123763 7.925227e-39
0.88485843 -0.16029674 0.067123763 7.5575179e-39
0.88485843 -0.15529674 0.067123763 7.6490003e-39
0.88485843 -0.15279675 0.067123763 7.7419148e-39
0.88735843 -0.16779675 0.064623766 7.0043497e-39
0.88985842 -0.17029674 0.064623766 7.7422679e-39
0.88985842 -0.16779675 0.064623766 8.1096183e-39
0.88735843 -0.16529675 0.064623766 7.5571648e-39
0.88735843 -0.16279675 0.064623766 7.5568145e-39
0.88985842 -0.16529675 0.064623766 7.9252298e-39
0.89485842 -0.17029674 0.064623766 8.2025342e-39
0.88735843 -0.17029674 0.067123763 7.5575179e-39
0.88735843 -0.16779675 0.067123763 8.2021685e-39
0.88735843 -0.16779675 0.069623768 8.6606285e-39
0.88985842 -0.17029674 0.067123763 8.2018153e-39
0.88985842 -0.17029674 0.069623768 8.7528241e-39
0.88985842 -0.16779675 0.067123763 8.2943641e-39
0.88985842 -0.16779675 0.069623768 8.2943641e-39
0.88735843 -0.16779675 0.072123766 8.9357706e-39
0.88735843 -0.16529675 0.067123763 8.2021685e-39
0.88735843 -0.16529675 0.069623768 8.2918459e-39
0.88735843 -0.16279675 0.067123763 7.74084e-39
0.88735843 -0.16279675 0.069623768 7.5571648e-39
0.88985842 -0.16529675 0.067123763 8.0177758e-39
0.88985842 -0.16529675 0.069623768 8.0181289e-39
0.88985842 -0.16279675 0.067123763 7.5564459e-39
0.88985842 -0.16279675 0.069623768 8.0156122e-39
0.88735843 -0.16529675 0.072123766 8.751378e-39
0.89235842 -0.17029674 0.067123763 8.2940138e-39
0.89235842 -0.16779675 0.067123763 8.6606285e-39
0.89485842 -0.17029674 0.067123763 8.3865653e-39
0.89485842 -0.17029674 0.069623768 8.5709496e-39
0.89485842 -0.16779675 0.069623768 8.5684258e-39
0.89485842 -0.16779675 0.072123766 9.4903891e-39
0.89235842 -0.16529675 0.067123763 8.0181289e-39
0.89235842 -0.16279675 0.067123763 7.4649551e-39
0.89485842 -0.16529675 0.069623768 9.3985466e-39
0.89485842 -0.16279675 0.069623768 8.6609816e-39
0.89235842 -0.16529675 0.072123766 9.3070503e-39
0.89235842 -0.16279675 0.072123766 9.3052524e-39
0.88735843 -0.16029674 0.064623766 7.2816429e-39
0.88735843 -0.15779674 0.064623766 7.2805849e-39
0.88985842 -0.16029674 0.064623766 7.3727595e-39
0.88985842 -0.15779674 0.064623766 7.6489947e-39
0.88735843 -0.15529674 0.064623766 6.911801e-39
0.88735843 -0.15279675 0.064623766 6.453341e-39
0.88985842 -0.15529674 0.064623766 7.741549e-39
0.89485842 -0.15529674 0.064623766 7.6490003e-39
0.89485842 -0.15279675 0.064623766 7.6489947e-39
0.88735843 -0.16029674 0.067123763 7.5575179e-39
0.88735843 -0.16029674 0.069623768 7.280938e-39
0.88735843 -0.15779674 0.067123763 7.6497135e-39
0.88985842 -0.16029674 0.067123763 7.464602e-39
0.88985842 -0.16029674 0.069623768 7.0968929e-39
0.88985842 -0.15779674 0.067123763 7.6490003e-39
0.88985842 -0.15779674 0.069623768 7.5564459e-39
0.88735843 -0.15529674 0.067123763 7.6497135e-39
0.88735843 -0.15529674 0.069623768 7.5571648e-39
0.88735843 -0.15279675 0.067123763 7.6497191e-39
0.88735843 -0.15279675 0.069623768 7.7415645e-39
0.88985842 -0.15529674 0.067123763 7.3731337e-39
0.88985842 -0.15529674 0.069623768 7.6490003e-39
0.88985842 -0.15279675 0.067123763 7.5568145e-39
0.88985842 -0.15279675 0.069623768 6.913596e-39
0.88735843 -0.15529674 0.072123766 7.280938e-39
0.88735843 -0.15279675 0.072123766 7.280938e-39
0.89235842 -0.16029674 0.067123763 7.4649551e-39
0.89235842 -0.15779674 0.067123763 7.4642503e-39
0.89485842 -0.16029674 0.069623768 7.9263102e-39
0.89485842 -0.15779674 0.069623768 7.3731337e-39
0.89235842 -0.16029674 0.072123766 7.9255746e-39
0.89235842 -0.15779674 0.072123766 7.0979887e-39
0.89485842 -0.15779674 0.072123766 8.2972339e-39
0.89235842 -0.15529674 0.067123763 7.6490003e-39
0.89235842 -0.15279675 0.067123763 7.188741e-39
0.89485842 -0.15529674 0.069623768 7.7411959e-39
0.89485842 -0.15279675 0.067123763 7.5571522e-39
0.89235842 -0.15529674 0.072123766 7.1905431e-39
0.89235842 -0.15279675 0.072123766 7.3731365e-39
0.89485842 -0.15529674 0.072123766 8.4819853e-39
0.89485842 -0.15279675 0.072123766 9.1252024e-39
0.89735842 -0.17529674 0.064623766 1.7138659e-38
0.89735842 -0.17279674 0.064623766 6.6355686e-39
0.90235841 -0.17779675 0.064623766 1.963082e-38
0.89735842 -0.17529674 0.067123763 7.2737269e-39
0.89735842 -0.17529674 0.069623768 7.3666204e-39
0.89735842 -0.17279674 0.067123763 6.9107262e-39
0.89735842 -0.17279674 0.069623768 6.6359203e-39
0.89985842 -0.17529674 0.067123763 1.6769878e-38
0.89985842 -0.17529674 0.069623768 7.6410647e-39
0.89985842 -0.17279674 0.067123763 6.8188837e-39
0.89985842 -0.17279674 0.069623768 6.5437247e-39
0.89735842 -0.17529674 0.072123766 7.0921817e-39
0.89735842 -0.17279674 0.072123766 6.7273901e-39
0.89985842 -0.17529674 0.072123766 6.999228e-39
0.89985842 -0.17279674 0.072123766 6.6330239e-39
0.90235841 -0.17529674 0.072123766 6.9084687e-39
0.90235841 -0.17279674 0.072123766 6.8202892e-39
0.89735842 -0.17029674 0.067123763 8.2936606e-39
0.89735842 -0.17029674 0.069623768 8.8482567e-39
0.89735842 -0.16779675 0.067123763 8.7535247e-39
0.89735842 -0.16779675 0.069623768 9.4907423e-39
0.89985842 -0.17029674 0.067123763 8.2940138e-39
0.89985842 -0.17029674 0.069623768 8.6642256e-39
0.89985842 -0.16779675 0.069623768 9.860224e-39
0.89735842 -0.17029674 0.072123766 9.0322822e-39
0.89735842 -0.16779675 0.072123766 9.8591703e-39
0.89985842 -0.17029674 0.072123766 9.3988942e-39
0.89985842 -0.17029674 0.074623764 7.9270095e-39
0.89985842 -0.16779675 0.072123766 8.4773288e-39
0.89985842 -0.16779675 0.074623764 8.1092722e-39
0.89735842 -0.16529675 0.067123763 8.9375685e-39
0.89735842 -0.16529675 0.069623768 1.0412679e-38
0.89735842 -0.16279675 0.067123763 8.5684258e-39
0.89735842 -0.16279675 0.069623768 1.0411607e-38
0.89985842 -0.16529675 0.069623768 9.3095656e-39
0.89985842 -0.16279675 0.067123763 9.0286725e-39
0.89985842 -0.16279675 0.069623768 1.0320125e-38
0.89735842 -0.16529675 0.072123766 1.0043896e-38
0.89735842 -0.16279675 0.072123766 9.5839945e-39
0.89985842 -0.16529675 0.072123766 7.2801771e-39
0.90235841 -0.17029674 0.072123766 8.111028e-39
0.90235841 -0.16779675 0.072123766 7.3702806e-39
0.90485841 -0.17029674 0.072123766 8.203225e-39
0.90485841 -0.17029674 0.074623764 5.9876811e-39
0.90485841 -0.16779675 0.074623764 7.0014729e-39
0.90235841 -0.16529675 0.067123763 1.0411957e-38
0.90235841 -0.16529675 0.069623768 9.5839945e-39
0.90235841 -0.16279675 0.067123763 9.2163134e-39
0.90235841 -0.16279675 0.069623768 8.8485972e-39
0.90485841 -0.16529675 0.069623768 6.4504151e-39
0.90485841 -0.16279675 0.069623768 5.8990714e-39
0.90235841 -0.16529675 0.072123766 7.0954481e-39
0.90235841 -0.16279675 0.072123766 6.5408282e-39
0.90485841 -0.16529675 0.072123766 6.6334008e-39
0.90485841 -0.16529675 0.074623764 6.9096276e-39
0.90485841 -0.16279675 0.072123766 6.0824103e-39
0.89735842 -0.16029674 0.067123763 7.4653083e-39
0.89735842 -0.16029674 0.069623768 8.9400866e-39
0.89735842 -0.15779674 0.067123763 7.280938e-39
0.89735842 -0.15779674 0.069623768 8.3894366e-39
0.89985842 -0.16029674 0.069623768 8.9404425e-39
0.89985842 -0.15779674 0.067123763 7.2809408e-39
0.89985842 -0.15779674 0.069623768 8.2968864e-39
0.89735842 -0.16029674 0.072123766 8.4801833e-39
0.89735842 -0.15779674 0.072123766 8.2050355e-39
0.89735842 -0.15529674 0.067123763 7.3731337e-39
0.89735842 -0.15529674 0.069623768 8.3894366e-39
0.89735842 -0.15279675 0.067123763 7.3727861e-39
0.89735842 -0.15279675 0.069623768 8.6638725e-39
0.89985842 -0.15529674 0.067123763 7.4642531e-39
0.89985842 -0.15529674 0.069623768 9.032648e-39
0.89985842 -0.15279675 0.069623768 9.4939793e-39
0.89735842 -0.15529674 0.072123766 8.8478882e-39
0.89735842 -0.15529674 0.074623764 6.9121485e-39
0.89735842 -0.15279675 0.072123766 9.2177511e-39
0.89985842 -0.15529674 0.072123766 7.0021987e-39
0.90235841 -0.16029674 0.069623768 8.8485972e-39
0.90235841 -0.15779674 0.067123763 8.6660165e-39
0.90235841 -0.15779674 0.069623768 8.2046852e-39
0.90485841 -0.16029674 0.069623768 6.083464e-39
0.90485841 -0.15779674 0.069623768 6.9110821e-39
0.90235841 -0.16029674 0.072123766 6.6334008e-39
0.90235841 -0.15779674 0.072123766 7.3731098e-39
0.90485841 -0.16029674 0.072123766 6.5433884e-39
0.90485841 -0.16029674 0.074623764 8.1096183e-39
0.90485841 -0.15779674 0.072123766 7.4653027e-39
0.90485841 -0.15779674 0.074623764 7.5564487e-39
0.90235841 -0.15529674 0.067123763 8.940458e-39
0.90235841 -0.15529674 0.069623768 8.7575058e-39
0.90235841 -0.15279675 0.069623768 8.8497015e-39
0.90485841 -0.15529674 0.069623768 7.464602e-39
0.90485841 -0.15279675 0.069623768 8.8479036e-39
0.90235841 -0.15529674 0.072123766 6.9110765e-39
0.90235841 -0.15279675 0.072123766 8.0185059e-39
0.90485841 -0.15529674 0.072123766 6.3604293e-39
0.90485841 -0.15279675 0.072123766 8.0181527e-39
0.90735841 -0.17029674 0.072123766 5.8962043e-39
0.90735841 -0.16779675 0.072123766 7.0947475e-39
0.90985841 -0.16779675 0.072123766 6.6330505e-39
0.90735841 -0.16529675 0.069623768 6.1738506e-39
0.90735841 -0.16279675 0.069623768 6.8178103e-39
0.90735841 -0.16529675 0.072123766 6.9099807e-39
0.90735841 -0.16529675 0.074623764 5.4341317e-39
0.90985841 -0.16529675 0.072123766 6.6337539e-39
0.90985841 -0.16279675 0.072123766 6.8188809e-39
0.90985841 -0.16279675 0.074623764 7.4595798e-39
0.9123584 -0.16779675 0.069623768 7.0947475e-39
0.9123584 -0.16779675 0.072123766 6.5333173e-39
0.9123584 -0.16529675 0.069623768 6.6359175e-39
0.9123584 -0.16279675 0.069623768 6.6359203e-39
0.9123584 -0.16529675 0.072123766 6.5401248e-39
0.9123584 -0.16279675 0.072123766 7.0039546e-39
0.90985841 -0.15529674 0.064623766 8.9422502e-39
0.90985841 -0.15279675 0.064623766 9.7730717e-39
0.9123584 -0.15529674 0.064623766 8.9393832e-39
0.9123584 -0.15279675 0.064623766 9.6754895e-39
0.90735841 -0.16029674 0.069623768 6.9125297e-39
0.90735841 -0.15779674 0.069623768 6.635584e-39
0.90735841 -0.16029674 0.072123766 8.2950829e-39
0.90735841 -0.16029674 0.074623764 7.5575053e-39
0.90735841 -0.15779674 0.072123766 7.8322971e-39
0.90735841 -0.15779674 0.074623764 6.6391545e-39
0.90985841 -0.16029674 0.072123766 8.3865653e-39
0.90985841 -0.15779674 0.072123766 6.8188641e-39
0.90735841 -0.15529674 0.067123763 8.757859e-39
0.90735841 -0.15529674 0.069623768 7.0043497e-39
0.90735841 -0.15279675 0.069623768 9.0322822e-39
0.90985841 -0.15529674 0.067123763 9.032648e-39
0.90985841 -0.15529674 0.069623768 8.1121392e-39
0.90985841 -0.15279675 0.067123763 9.0358556e-39
0.90985841 -0.15279675 0.069623768 8.8510986e-39
0.90735841 -0.15529674 0.072123766 6.7266656e-39
0.90735841 -0.15279675 0.072123766 6.1738506e-39
0.90985841 -0.15529674 0.072123766 5.8086596e-39
0.90985841 -0.15529674 0.074623764 6.3694144e-39
0.90985841 -0.15279675 0.072123766 5.9891006e-39
0.90985841 -0.15279675 0.074623764 1.1992988e-38
0.9123584 -0.16029674 0.069623768 7.9266592e-39
0.9123584 -0.15779674 0.069623768 7.0021931e-39
0.91485846 -0.15779674 0.069623768 5.7161291e-39
0.9123584 -0.16029674 0.072123766 7.5574885e-39
0.9123584 -0.15779674 0.072123766 5.9905649e-39
0.9123584 -0.15529674 0.067123763 8.4791239e-39
0.9123584 -0.15529674 0.069623768 6.2664106e-39
0.9123584 -0.15279675 0.067123763 8.847891e-39
0.91485846 -0.15529674 0.067123763 8.0199436e-39
0.91485846 -0.15529674 0.069623768 6.0820179e-39
0.91485846 -0.15279675 0.067123763 9.0333514e-39
0.91485846 -0.15279675 0.069623768 8.3775354e-39
0.9123584 -0.15529674 0.072123766 4.5186396e-39
0.89485842 -0.15029675 0.072123766 1.013863e-38
