# .PCD v0.7 - Point Cloud Data file format
VERSION 0.7
FIELDS x y z rgb
SIZE 4 4 4 4
TYPE F F F F
COUNT 1 1 1 1
WIDTH 240
HEIGHT 1
VIEWPOINT 0 0 0 1 0 0 0
POINTS 240
DATA ascii
0.89404809 -0.17373219 0.065603524 5.2511852e-39
0.89654809 -0.17623219 0.065603524 1.6955714e-38
0.89654809 -0.17623219 0.068103522 1.667913e-38
0.89654809 -0.17373219 0.065603524 6.7194812e-39
0.89654809 -0.17373219 0.068103522 7.1826215e-39
0.89404809 -0.17623219 0.07060352 1.6860291e-38
0.89404809 -0.17373219 0.07060352 6.9035235e-39
0.89654809 -0.17373219 0.07060352 7.3662757e-39
0.8865481 -0.16873218 0.065603524 7.0965454e-39
0.8840481 -0.16623218 0.065603524 7.0046524e-39
0.8840481 -0.16373219 0.065603524 7.0968985e-39
0.8865481 -0.16623218 0.065603524 7.4642503e-39
0.8865481 -0.16623218 0.068103522 8.2025216e-39
0.8865481 -0.16373219 0.065603524 7.6486443e-39
0.8865481 -0.16373219 0.068103522 7.9266592e-39
0.8865481 -0.16623218 0.07060352 8.2025216e-39
0.8865481 -0.16373219 0.07060352 7.7418938e-39
0.8840481 -0.16123219 0.065603524 7.0043441e-39
0.8865481 -0.16123219 0.065603524 7.464602e-39
0.8865481 -0.16123219 0.068103522 7.5575179e-39
0.8865481 -0.15873219 0.065603524 7.1890941e-39
0.8865481 -0.16123219 0.07060352 7.5564459e-39
0.8865481 -0.15623219 0.065603524 7.188741e-39
0.8865481 -0.15623219 0.068103522 7.7415434e-39
0.8865481 -0.15373218 0.065603524 6.4536941e-39
0.8865481 -0.15373218 0.068103522 7.7415434e-39
0.8865481 -0.15623219 0.07060352 7.3727595e-39
0.8865481 -0.15373218 0.07060352 7.6493478e-39
0.8890481 -0.17123219 0.065603524 5.1600714e-39
0.8890481 -0.17123219 0.068103522 5.8050877e-39
0.8890481 -0.16873218 0.065603524 8.2025216e-39
0.8890481 -0.16873218 0.068103522 8.0185059e-39
0.8915481 -0.17123219 0.065603524 5.4362982e-39
0.8915481 -0.16873218 0.065603524 8.2025216e-39
0.8890481 -0.16873218 0.07060352 8.2943697e-39
0.8890481 -0.16623218 0.065603524 8.1103245e-39
0.8890481 -0.16623218 0.068103522 8.0177758e-39
0.8890481 -0.16373219 0.065603524 7.7411959e-39
0.8890481 -0.16373219 0.068103522 7.5564459e-39
0.8915481 -0.16623218 0.065603524 7.9255746e-39
0.8915481 -0.16373219 0.065603524 7.7411959e-39
0.8890481 -0.16623218 0.07060352 8.1103245e-39
0.8890481 -0.16373219 0.07060352 8.2028551e-39
0.8915481 -0.16623218 0.07060352 9.03012e-39
0.8915481 -0.16373219 0.07060352 9.5811372e-39
0.89404809 -0.17123219 0.065603524 6.6355714e-39
0.89404809 -0.17123219 0.068103522 6.7266838e-39
0.89404809 -0.16873218 0.065603524 8.2018153e-39
0.89404809 -0.16873218 0.068103522 8.2025216e-39
0.89654809 -0.17123219 0.065603524 6.4508102e-39
0.89654809 -0.17123219 0.068103522 8.3865653e-39
0.89654809 -0.16873218 0.065603524 8.6609816e-39
0.89654809 -0.16873218 0.068103522 8.8453729e-39
0.89404809 -0.17123219 0.07060352 6.7266838e-39
0.89404809 -0.16873218 0.07060352 8.8457204e-39
0.89654809 -0.17123219 0.07060352 6.8195857e-39
0.89654809 -0.16873218 0.07060352 9.4907395e-39
0.89404809 -0.16623218 0.068103522 8.7531772e-39
0.89404809 -0.16373219 0.068103522 8.3833157e-39
0.89654809 -0.16623218 0.068103522 8.8453729e-39
0.89654809 -0.16373219 0.068103522 8.4744449e-39
0.89404809 -0.16623218 0.07060352 9.3992473e-39
0.89404809 -0.16373219 0.07060352 9.7673039e-39
0.89654809 -0.16623218 0.07060352 1.0136109e-38
0.89654809 -0.16373219 0.07060352 1.0962976e-38
0.8890481 -0.16123219 0.065603524 7.6500667e-39
0.8890481 -0.16123219 0.068103522 7.5575025e-39
0.8890481 -0.15873219 0.065603524 7.3738399e-39
0.8890481 -0.15873219 0.068103522 7.3731098e-39
0.8890481 -0.16123219 0.07060352 7.2802108e-39
0.8890481 -0.15873219 0.07060352 7.3724064e-39
0.8915481 -0.16123219 0.07060352 7.925227e-39
0.8890481 -0.15623219 0.065603524 7.3731337e-39
0.8890481 -0.15623219 0.068103522 7.3720533e-39
0.8890481 -0.15373218 0.065603524 7.6497135e-39
0.8890481 -0.15373218 0.068103522 7.6490003e-39
0.8890481 -0.15623219 0.07060352 7.5564459e-39
0.8890481 -0.15373218 0.07060352 7.464602e-39
0.8915481 -0.15623219 0.07060352 7.3731365e-39
0.8915481 -0.15373218 0.07060352 7.3731365e-39
0.89404809 -0.16123219 0.068103522 7.4649551e-39
0.89404809 -0.15873219 0.068103522 7.4649551e-39
0.89654809 -0.16123219 0.068103522 8.1074547e-39
0.89654809 -0.15873219 0.068103522 7.3731337e-39
0.89404809 -0.16123219 0.07060352 7.5571648e-39
0.89404809 -0.15873219 0.07060352 8.0152591e-39
0.89654809 -0.16123219 0.07060352 9.6754895e-39
0.89654809 -0.15873219 0.07060352 9.3985438e-39
0.89404809 -0.15623219 0.068103522 7.280938e-39
0.89404809 -0.15373218 0.065603524 7.5564459e-39
0.89404809 -0.15373218 0.068103522 6.9139464e-39
0.89654809 -0.15623219 0.068103522 7.0979887e-39
0.89654809 -0.15373218 0.065603524 7.5564459e-39
0.89654809 -0.15373218 0.068103522 7.0979887e-39
0.89404809 -0.15623219 0.07060352 7.3731337e-39
0.89404809 -0.15373218 0.07060352 7.2805877e-39
0.89654809 -0.15623219 0.07060352 8.8482567e-39
0.89654809 -0.15623219 0.073103525 8.6642256e-39
0.89654809 -0.15373218 0.07060352 8.8471847e-39
0.89654809 -0.15373218 0.073103525 8.7575058e-39
0.90154809 -0.17873219 0.065603524 1.9997794e-38
0.89904809 -0.17623219 0.065603524 1.6954623e-38
0.89904809 -0.17623219 0.068103522 1.6678036e-38
0.89904809 -0.17373219 0.065603524 7.3662757e-39
0.89904809 -0.17373219 0.068103522 7.4584727e-39
0.90154809 -0.17623219 0.065603524 1.6862074e-38
0.89904809 -0.17373219 0.07060352 7.552441e-39
0.89904809 -0.17373219 0.073103525 6.3560208e-39
0.90154809 -0.17373219 0.07060352 7.0961796e-39
0.90404809 -0.17373219 0.068103522 7.4624384e-39
0.90404809 -0.17373219 0.07060352 6.6330239e-39
0.90404809 -0.17373219 0.073103525 7.0968929e-39
0.90654808 -0.17373219 0.07060352 6.5458743e-39
0.89904809 -0.17123219 0.068103522 8.8475379e-39
0.89904809 -0.16873218 0.068103522 9.5829351e-39
0.89904809 -0.17123219 0.07060352 6.8192326e-39
0.89904809 -0.17123219 0.073103525 5.7132396e-39
0.89904809 -0.16873218 0.07060352 9.6758398e-39
0.90154809 -0.17123219 0.07060352 8.9397335e-39
0.90154809 -0.16873218 0.07060352 9.5836441e-39
0.89904809 -0.16373219 0.068103522 1.0227929e-38
0.90154809 -0.16373219 0.068103522 1.0317606e-38
0.89904809 -0.16623218 0.07060352 9.8598709e-39
0.89904809 -0.16623218 0.073103525 7.0947419e-39
0.89904809 -0.16373219 0.07060352 9.5839945e-39
0.90154809 -0.16623218 0.07060352 7.0947475e-39
0.90154809 -0.16373219 0.07060352 6.4504319e-39
0.90404809 -0.17123219 0.068103522 9.4907423e-39
0.90404809 -0.16873218 0.068103522 9.5836385e-39
0.90404809 -0.17123219 0.07060352 9.0304704e-39
0.90404809 -0.17123219 0.073103525 8.0192093e-39
0.90404809 -0.16873218 0.07060352 8.2943641e-39
0.90404809 -0.16873218 0.073103525 8.2000427e-39
0.90654808 -0.17123219 0.07060352 7.9270123e-39
0.90654808 -0.16873218 0.07060352 8.202537e-39
0.90654808 -0.16873218 0.073103525 5.8054408e-39
0.90404809 -0.16373219 0.068103522 9.5839945e-39
0.90404809 -0.16623218 0.073103525 7.3702806e-39
0.90404809 -0.16373219 0.07060352 7.184383e-39
0.90654808 -0.16623218 0.073103525 7.0028952e-39
0.90654808 -0.16373219 0.07060352 6.6334008e-39
0.89904809 -0.17123219 0.075603522 6.9124862e-39
0.89904809 -0.16873218 0.075603522 7.740861e-39
0.90154809 -0.16873218 0.075603522 5.8965574e-39
0.89904809 -0.16623218 0.075603522 7.0954916e-39
0.90154809 -0.16623218 0.075603522 6.8185137e-39
0.90404809 -0.16873218 0.075603522 5.9891034e-39
0.90404809 -0.16623218 0.075603522 7.2798422e-39
0.89904809 -0.16123219 0.068103522 9.2163134e-39
0.89904809 -0.15873219 0.068103522 8.2043321e-39
0.89904809 -0.16123219 0.07060352 9.2145015e-39
0.89904809 -0.15873219 0.07060352 9.0304704e-39
0.90154809 -0.16123219 0.07060352 6.5412052e-39
0.90154809 -0.15873219 0.07060352 7.92089e-39
0.89904809 -0.15623219 0.068103522 8.4812791e-39
0.89904809 -0.15373218 0.068103522 8.9397335e-39
0.89904809 -0.15623219 0.07060352 8.8478882e-39
0.89904809 -0.15373218 0.07060352 9.0326536e-39
0.90154809 -0.15623219 0.07060352 7.92089e-39
0.90154809 -0.15373218 0.07060352 7.3724064e-39
0.90404809 -0.16123219 0.07060352 6.2664162e-39
0.90404809 -0.15873219 0.07060352 7.7372456e-39
0.90404809 -0.15873219 0.073103525 7.0029274e-39
0.90654808 -0.16123219 0.07060352 6.6355714e-39
0.90654808 -0.15873219 0.07060352 7.1869277e-39
0.90654808 -0.15873219 0.073103525 8.1045862e-39
0.90404809 -0.15373218 0.068103522 9.5858274e-39
0.90654808 -0.15623219 0.068103522 7.2812898e-39
0.90654808 -0.15373218 0.068103522 8.8497015e-39
0.90404809 -0.15623219 0.07060352 7.6489947e-39
0.90404809 -0.15623219 0.073103525 6.9103731e-39
0.90404809 -0.15373218 0.07060352 9.216319e-39
0.90404809 -0.15373218 0.073103525 6.7284705e-39
0.90654808 -0.15623219 0.07060352 6.8177851e-39
0.90654808 -0.15623219 0.073103525 7.5517768e-39
0.90654808 -0.15373218 0.073103525 7.0036042e-39
0.90654808 -0.15873219 0.075603522 6.7313502e-39
0.90654808 -0.15623219 0.075603522 5.7161291e-39
0.90904808 -0.16873218 0.07060352 7.2791388e-39
0.90904808 -0.16873218 0.073103525 6.9967463e-39
0.91154808 -0.16873218 0.07060352 7.0947419e-39
0.90904808 -0.16623218 0.07060352 7.0028952e-39
0.90904808 -0.16623218 0.073103525 5.341583e-39
0.90904808 -0.16373219 0.07060352 7.0025449e-39
0.90904808 -0.16373219 0.073103525 6.3560937e-39
0.91154808 -0.16623218 0.07060352 6.9099807e-39
0.91154808 -0.16373219 0.07060352 6.8177851e-39
0.91654813 -0.16373219 0.07060352 6.6351735e-39
0.91654813 -0.16373219 0.073103525 6.9993093e-39
0.91154808 -0.16623218 0.075603522 7.8307907e-39
0.91154808 -0.16373219 0.075603522 6.7244432e-39
0.90904808 -0.15873219 0.068103522 7.0036042e-39
0.91154808 -0.15873219 0.068103522 6.635542e-39
0.90904808 -0.16123219 0.07060352 8.0177758e-39
0.90904808 -0.16123219 0.073103525 7.2809142e-39
0.90904808 -0.15873219 0.07060352 7.829779e-39
0.90904808 -0.15873219 0.073103525 6.54624e-39
0.91154808 -0.16123219 0.07060352 8.0188562e-39
0.91154808 -0.15873219 0.07060352 5.808675e-39
0.90904808 -0.15623219 0.068103522 7.2812898e-39
0.90904808 -0.15373218 0.068103522 9.3085146e-39
0.91154808 -0.15623219 0.068103522 6.5426653e-39
0.91154808 -0.15373218 0.065603524 9.032648e-39
0.91154808 -0.15373218 0.068103522 8.5720286e-39
0.90904808 -0.15623219 0.07060352 7.3684407e-39
0.90904808 -0.15623219 0.073103525 5.808675e-39
0.90904808 -0.15373218 0.07060352 8.3869283e-39
0.91154808 -0.15623219 0.07060352 4.9788821e-39
0.91154808 -0.15373218 0.07060352 6.8177851e-39
0.91654813 -0.15873219 0.068103522 7.095451e-39
0.91404814 -0.15373218 0.068103522 7.9256012e-39
0.91654813 -0.15623219 0.068103522 6.5415737e-39
0.91654813 -0.15373218 0.068103522 5.8962043e-39
0.91404814 -0.15623219 0.073103525 6.0924702e-39
0.91404814 -0.15373218 0.073103525 1.199299e-38
0.91154808 -0.16123219 0.075603522 7.2755206e-39
0.91904813 -0.15873219 0.068103522 5.3484157e-39
0.8865481 -0.15123218 0.068103522 7.5575179e-39
0.8865481 -0.15123218 0.07060352 7.4642503e-39
0.8890481 -0.15123218 0.065603524 7.556799e-39
0.8890481 -0.15123218 0.068103522 7.280938e-39
0.8915481 -0.15123218 0.065603524 7.2812898e-39
0.8890481 -0.15123218 0.07060352 7.2802108e-39
0.8890481 -0.15123218 0.073103525 7.3745714e-39
0.8915481 -0.15123218 0.07060352 8.2950731e-39
0.89404809 -0.15123218 0.065603524 7.280938e-39
0.89404809 -0.15123218 0.068103522 7.0965454e-39
0.89654809 -0.15123218 0.065603524 8.1996503e-39
0.89404809 -0.15123218 0.07060352 7.2805877e-39
0.89654809 -0.15123218 0.07060352 9.033357e-39
0.89654809 -0.15123218 0.073103525 8.9422558e-39
0.89904809 -0.15123218 0.068103522 8.5687818e-39
0.89904809 -0.15123218 0.07060352 9.9553175e-39
0.90154809 -0.15123218 0.07060352 9.8598709e-39
0.90404809 -0.15123218 0.068103522 9.3099453e-39
0.90654808 -0.15123218 0.068103522 9.9549644e-39
0.90404809 -0.15123218 0.07060352 9.3095712e-39
0.90904808 -0.15123218 0.068103522 9.4014109e-39
0.91154808 -0.15123218 0.068103522 8.848963e-39
0.90904808 -0.15123218 0.07060352 8.6645787e-39
