# .PCD v0.7 - Point Cloud Data file format
VERSION 0.7
FIELDS x y z rgb
SIZE 4 4 4 4
TYPE F F F F
COUNT 1 1 1 1
WIDTH 255
HEIGHT 1
VIEWPOINT 0 0 0 1 0 0 0
POINTS 255
DATA ascii
0.8953858 -0.1761364 0.066111088 1.6954988e-38
0.8953858 -0.1761364 0.068611085 1.667948e-38
0.88288575 -0.1686364 0.066111088 6.4522115e-39
0.88288575 -0.1661364 0.066111088 7.0975809e-39
0.88538575 -0.1686364 0.066111088 6.7277642e-39
0.88538575 -0.1661364 0.066111088 7.6497191e-39
0.88538575 -0.1686364 0.068611085 8.1099714e-39
0.88538575 -0.1661364 0.068611085 8.2943641e-39
0.88288575 -0.1636364 0.066111088 7.0958265e-39
0.88288575 -0.1611364 0.066111088 6.7266838e-39
0.88538575 -0.1636364 0.066111088 7.5568173e-39
0.88538575 -0.1611364 0.066111088 7.3734868e-39
0.88538575 -0.1636364 0.068611085 7.6493478e-39
0.88538575 -0.1611364 0.068611085 7.5571522e-39
0.88288575 -0.15863641 0.066111088 6.4504571e-39
0.88288575 -0.15613641 0.066111088 6.7263307e-39
0.88538575 -0.15863641 0.066111088 7.3724064e-39
0.88538575 -0.15613641 0.066111088 7.0968985e-39
0.88288575 -0.15863641 0.07111109 7.464602e-39
0.88288575 -0.15613641 0.068611085 7.557871e-39
0.88288575 -0.15613641 0.07111109 7.280938e-39
0.88538575 -0.15863641 0.068611085 7.6489947e-39
0.88538575 -0.15613641 0.068611085 7.6500667e-39
0.89038575 -0.17113641 0.066111088 7.8344635e-39
0.88788575 -0.1686364 0.066111088 7.096174e-39
0.88788575 -0.1661364 0.066111088 7.6493478e-39
0.89038575 -0.1686364 0.066111088 8.1099714e-39
0.89038575 -0.1661364 0.066111088 8.0174227e-39
0.88788575 -0.1661364 0.068611085 8.5684258e-39
0.89038575 -0.1686364 0.068611085 8.2021685e-39
0.89038575 -0.1661364 0.068611085 8.0177758e-39
0.89038575 -0.1661364 0.07111109 8.9375657e-39
0.8928858 -0.17113641 0.066111088 8.202537e-39
0.8953858 -0.17363641 0.066111088 5.3462493e-39
0.8953858 -0.17113641 0.066111088 6.9117954e-39
0.8928858 -0.17363641 0.068611085 6.8148984e-39
0.8928858 -0.17113641 0.068611085 6.727037e-39
0.8953858 -0.17363641 0.068611085 6.9053116e-39
0.8953858 -0.17363641 0.07111109 7.0889868e-39
0.8953858 -0.17113641 0.068611085 6.8192326e-39
0.8953858 -0.17113641 0.07111109 6.9114296e-39
0.8928858 -0.1686364 0.066111088 8.5684314e-39
0.8928858 -0.1661364 0.066111088 7.7415588e-39
0.8953858 -0.1686364 0.066111088 8.6609816e-39
0.8928858 -0.1686364 0.068611085 8.9382747e-39
0.8928858 -0.1661364 0.068611085 9.2145015e-39
0.8953858 -0.1686364 0.068611085 8.3879722e-39
0.8953858 -0.1686364 0.07111109 9.3988942e-39
0.8953858 -0.1661364 0.068611085 9.58114e-39
0.8953858 -0.1661364 0.07111109 9.9520665e-39
0.88788575 -0.1636364 0.066111088 7.7419148e-39
0.88788575 -0.1611364 0.066111088 7.3727567e-39
0.88788575 -0.1636364 0.068611085 7.4653083e-39
0.88788575 -0.1636364 0.07111109 8.1078078e-39
0.88788575 -0.1611364 0.068611085 7.4649551e-39
0.88788575 -0.1611364 0.07111109 8.107089e-39
0.89038575 -0.1636364 0.068611085 7.9259277e-39
0.89038575 -0.1636364 0.07111109 9.3059979e-39
0.89038575 -0.1611364 0.068611085 7.5571522e-39
0.89038575 -0.1611364 0.07111109 7.7415196e-39
0.88788575 -0.15863641 0.066111088 7.2805611e-39
0.88788575 -0.15613641 0.066111088 7.0968985e-39
0.88788575 -0.15863641 0.068611085 7.556799e-39
0.88788575 -0.15863641 0.07111109 7.4642503e-39
0.88788575 -0.15613641 0.068611085 7.4649551e-39
0.88788575 -0.15613641 0.07111109 7.1890941e-39
0.89038575 -0.15863641 0.068611085 7.5571522e-39
0.89038575 -0.15863641 0.07111109 7.3731337e-39
0.89038575 -0.15613641 0.068611085 7.6490003e-39
0.89038575 -0.15613641 0.07111109 7.3731337e-39
0.8928858 -0.1636364 0.068611085 8.7538807e-39
0.8928858 -0.1611364 0.068611085 8.0174227e-39
0.8953858 -0.1636364 0.07111109 9.9524197e-39
0.8953858 -0.1611364 0.07111109 9.3088677e-39
0.8928858 -0.15863641 0.068611085 7.5564459e-39
0.8928858 -0.15613641 0.068611085 7.3731337e-39
0.8953858 -0.15863641 0.07111109 8.9400866e-39
0.8953858 -0.15613641 0.07111109 8.8479036e-39
0.8978858 -0.1786364 0.066111088 1.9539343e-38
0.8978858 -0.1761364 0.066111088 1.6771676e-38
0.90288579 -0.1786364 0.066111088 1.9631183e-38
0.90288579 -0.1761364 0.066111088 1.6036995e-38
0.8978858 -0.17363641 0.066111088 7.0893371e-39
0.8978858 -0.17363641 0.068611085 6.9031466e-39
0.8978858 -0.17363641 0.07111109 7.3684407e-39
0.8978858 -0.17113641 0.068611085 6.8192326e-39
0.8978858 -0.17113641 0.07111109 6.727037e-39
0.9003858 -0.17363641 0.068611085 7.5506529e-39
0.9003858 -0.17363641 0.07111109 6.91178e-39
0.9003858 -0.17113641 0.068611085 8.6642256e-39
0.9003858 -0.17113641 0.07111109 9.0326382e-39
0.8978858 -0.1686364 0.068611085 9.9495624e-39
0.8978858 -0.1686364 0.07111109 8.9407929e-39
0.8978858 -0.1661364 0.068611085 1.0687486e-38
0.8978858 -0.1661364 0.07111109 9.2170196e-39
0.9003858 -0.1686364 0.068611085 9.4910898e-39
0.9003858 -0.1686364 0.07111109 9.4914429e-39
0.9003858 -0.1661364 0.07111109 9.5836385e-39
0.90288579 -0.17363641 0.07111109 6.6326735e-39
0.90288579 -0.17113641 0.07111109 9.3985438e-39
0.90538579 -0.17363641 0.07111109 5.9898223e-39
0.90538579 -0.17113641 0.07111109 8.9404425e-39
0.90288579 -0.1686364 0.07111109 8.2028873e-39
0.90288579 -0.1661364 0.07111109 7.4635048e-39
0.90538579 -0.1686364 0.07111109 8.6624263e-39
0.8978858 -0.1636364 0.068611085 9.860224e-39
0.8978858 -0.1636364 0.07111109 9.0336892e-39
0.8978858 -0.1611364 0.068611085 9.2163134e-39
0.8978858 -0.1611364 0.07111109 8.9404425e-39
0.9003858 -0.1636364 0.068611085 1.0044617e-38
0.9003858 -0.1636364 0.07111109 9.5839945e-39
0.9003858 -0.1611364 0.07111109 8.9407929e-39
0.8978858 -0.15863641 0.068611085 8.4794798e-39
0.8978858 -0.15863641 0.07111109 8.3872786e-39
0.8978858 -0.15613641 0.068611085 8.8479036e-39
0.8978858 -0.15613641 0.07111109 8.4798329e-39
0.9003858 -0.15863641 0.07111109 8.4798273e-39
0.9003858 -0.15613641 0.07111109 8.755694e-39
0.90288579 -0.1636364 0.068611085 9.5843448e-39
0.90288579 -0.1636364 0.07111109 6.5415317e-39
0.90288579 -0.1611364 0.07111109 6.4497284e-39
0.90538579 -0.1636364 0.07111109 6.3600187e-39
0.90538579 -0.1611364 0.07111109 6.2650036e-39
0.90288579 -0.15863641 0.07111109 7.2787856e-39
0.90288579 -0.15613641 0.068611085 8.5723817e-39
0.90288579 -0.15613641 0.07111109 7.18659e-39
0.90538579 -0.15863641 0.07111109 7.095123e-39
0.90538579 -0.15613641 0.07111109 7.0043497e-39
0.90788579 -0.17113641 0.07111109 7.9270095e-39
0.90788579 -0.1686364 0.07111109 7.2798422e-39
0.90788579 -0.1661364 0.07111109 6.7281146e-39
0.91288579 -0.1686364 0.07111109 7.0021931e-39
0.91288579 -0.1661364 0.07111109 6.910331e-39
0.91538578 -0.1686364 0.07111109 7.0882581e-39
0.91538578 -0.1661364 0.07111109 5.5259743e-39
0.90788579 -0.1636364 0.068611085 6.5426107e-39
0.90788579 -0.1636364 0.07111109 6.4500787e-39
0.90788579 -0.1611364 0.07111109 6.9110821e-39
0.90788579 -0.15863641 0.07111109 8.1042331e-39
0.90788579 -0.15613641 0.068611085 7.18659e-39
0.90788579 -0.15613641 0.07111109 7.3666681e-39
0.91288579 -0.1636364 0.07111109 6.8181354e-39
0.91288579 -0.1611364 0.07111109 8.2947172e-39
0.91538578 -0.1636364 0.068611085 6.8217507e-39
0.91538578 -0.1636364 0.07111109 7.0961516e-39
0.91538578 -0.1611364 0.068611085 7.8362628e-39
0.91288579 -0.15863641 0.07111109 7.5553501e-39
0.91288579 -0.15613641 0.07111109 6.1738604e-39
0.88288575 -0.1536364 0.066111088 6.8174221e-39
0.88538575 -0.1536364 0.066111088 6.5455366e-39
0.88538575 -0.1511364 0.066111088 5.7161291e-39
0.88288575 -0.1536364 0.068611085 7.3745714e-39
0.88288575 -0.1536364 0.07111109 7.741549e-39
0.88288575 -0.1511364 0.068611085 7.3745714e-39
0.88538575 -0.1536364 0.068611085 7.5575179e-39
0.88538575 -0.1511364 0.068611085 7.3731337e-39
0.88788575 -0.1536364 0.066111088 6.3629278e-39
0.88788575 -0.1511364 0.066111088 5.7157759e-39
0.89038575 -0.1536364 0.066111088 7.6497191e-39
0.89038575 -0.1511364 0.066111088 7.556799e-39
0.88788575 -0.1536364 0.068611085 7.5575179e-39
0.88788575 -0.1536364 0.07111109 7.4649551e-39
0.88788575 -0.1511364 0.068611085 7.3734868e-39
0.88788575 -0.1511364 0.07111109 7.4649551e-39
0.89038575 -0.1536364 0.068611085 7.6490101e-39
0.89038575 -0.1536364 0.07111109 7.2812898e-39
0.89038575 -0.1511364 0.068611085 7.6490101e-39
0.89038575 -0.1511364 0.07111109 7.7404897e-39
0.8928858 -0.1536364 0.066111088 7.3724064e-39
0.8928858 -0.1511364 0.066111088 7.5571648e-39
0.8928858 -0.1536364 0.068611085 7.5553767e-39
0.8928858 -0.1511364 0.068611085 8.0181289e-39
0.8953858 -0.1536364 0.07111109 8.8475379e-39
0.8978858 -0.1536364 0.068611085 8.6642256e-39
0.8978858 -0.1536364 0.07111109 8.6653102e-39
0.9003858 -0.1536364 0.068611085 8.940458e-39
0.9003858 -0.1536364 0.07111109 9.0326536e-39
0.90538579 -0.1536364 0.066111088 9.217398e-39
0.90538579 -0.1511364 0.066111088 1.013863e-38
0.90288579 -0.1536364 0.068611085 9.217398e-39
0.90288579 -0.1536364 0.07111109 7.0036309e-39
0.90538579 -0.1536364 0.07111109 8.9397391e-39
0.90538579 -0.1511364 0.07111109 9.6754614e-39
0.91038579 -0.1536364 0.066111088 8.8479036e-39
0.91038579 -0.1511364 0.066111088 9.7712696e-39
0.90788579 -0.1536364 0.068611085 9.032648e-39
0.90788579 -0.1536364 0.07111109 8.4791239e-39
0.90788579 -0.1511364 0.068611085 9.3106502e-39
0.90788579 -0.1511364 0.07111109 9.1255499e-39
0.91038579 -0.1536364 0.068611085 8.0195905e-39
0.91038579 -0.1511364 0.068611085 9.2177455e-39
0.91288579 -0.1536364 0.07111109 6.4508074e-39
0.88538575 -0.1611364 0.073611088 8.1078022e-39
0.88288575 -0.15863641 0.073611088 7.556799e-39
0.88288575 -0.15863641 0.076111086 7.5564459e-39
0.88288575 -0.15613641 0.073611088 7.3720533e-39
0.88288575 -0.15613641 0.076111086 7.3731337e-39
0.88538575 -0.15863641 0.073611088 7.464602e-39
0.88538575 -0.15613641 0.073611088 7.0965454e-39
0.8928858 -0.1661364 0.073611088 9.6776517e-39
0.8953858 -0.1661364 0.073611088 9.3092153e-39
0.88788575 -0.15613641 0.073611088 7.3731365e-39
0.8928858 -0.1636364 0.073611088 1.050524e-38
0.8953858 -0.15863641 0.073611088 8.4798273e-39
0.8953858 -0.15613641 0.073611088 8.5723789e-39
0.9003858 -0.17363641 0.073611088 7.2750932e-39
0.9003858 -0.17113641 0.073611088 5.9909041e-39
0.9003858 -0.1686364 0.073611088 8.5720286e-39
0.9003858 -0.1661364 0.073611088 7.0968985e-39
0.90288579 -0.17363641 0.073611088 7.4649523e-39
0.90288579 -0.17113641 0.073611088 8.0181261e-39
0.90288579 -0.1686364 0.073611088 7.9248767e-39
0.90288579 -0.1661364 0.073611088 7.0954481e-39
0.90538579 -0.1686364 0.073611088 5.435945e-39
0.90538579 -0.1661364 0.073611088 7.0028952e-39
0.9003858 -0.15863641 0.073611088 7.1876466e-39
0.9003858 -0.15613641 0.073611088 6.8188641e-39
0.90288579 -0.1611364 0.073611088 7.0036407e-39
0.90538579 -0.1611364 0.073611088 8.2950886e-39
0.90288579 -0.15863641 0.073611088 7.4628013e-39
0.90288579 -0.15613641 0.073611088 6.8174319e-39
0.90538579 -0.15863641 0.073611088 7.6489947e-39
0.90538579 -0.15613641 0.073611088 7.0947419e-39
0.91038579 -0.1661364 0.073611088 5.5263274e-39
0.90788579 -0.1611364 0.073611088 7.5575053e-39
0.91038579 -0.1636364 0.073611088 6.5404779e-39
0.91038579 -0.1611364 0.073611088 7.4653083e-39
0.90788579 -0.15863641 0.073611088 6.730281e-39
0.90788579 -0.15613641 0.073611088 5.7161291e-39
0.91038579 -0.15863641 0.073611088 7.1898102e-39
0.91038579 -0.15613641 0.073611088 6.1760184e-39
0.91288579 -0.15613641 0.073611088 6.1828679e-39
0.88038576 -0.1536364 0.073611088 7.2816429e-39
0.88038576 -0.1511364 0.073611088 7.6493632e-39
0.88288575 -0.1536364 0.073611088 7.5571522e-39
0.88288575 -0.1536364 0.076111086 7.5571648e-39
0.88288575 -0.1511364 0.073611088 7.280938e-39
0.88288575 -0.1511364 0.076111086 7.1887438e-39
0.88538575 -0.1536364 0.073611088 7.3731365e-39
0.88538575 -0.1511364 0.073611088 7.464602e-39
0.88538575 -0.1511364 0.078611091 9.1248492e-39
0.88538575 -0.1486364 0.073611088 8.2903984e-39
0.88788575 -0.1536364 0.073611088 7.5560956e-39
0.88788575 -0.1511364 0.073611088 7.2812898e-39
0.88788575 -0.1511364 0.076111086 9.4007102e-39
0.89038575 -0.1536364 0.073611088 8.9397335e-39
0.89038575 -0.1511364 0.073611088 9.0319291e-39
0.89038575 -0.1511364 0.076111086 1.0046433e-38
0.88788575 -0.1486364 0.076111086 9.216319e-39
0.8928858 -0.1536364 0.073611088 8.9393832e-39
0.8928858 -0.1511364 0.073611088 8.9393832e-39
0.8953858 -0.1536364 0.073611088 8.8479036e-39
0.90538579 -0.1536364 0.073611088 6.6323204e-39
0.91038579 -0.1536364 0.073611088 5.072189e-39
0.91288579 -0.1536364 0.073611088 1.2083388e-38
