# .PCD v0.7 - Point Cloud Data file format
VERSION 0.7
FIELDS x y z rgb
SIZE 4 4 4 4
TYPE F F F F
COUNT 1 1 1 1
WIDTH 259
HEIGHT 1
VIEWPOINT 0 0 0 1 0 0 0
POINTS 259
DATA ascii
0.89391631 -0.17500646 0.065587126 5.5284812e-39
0.89391631 -0.17500646 0.070587128 7.3655737e-39
0.89391631 -0.17250647 0.065587126 6.45082e-39
0.89391631 -0.17000647 0.065587126 8.0185059e-39
0.89391631 -0.17250647 0.070587128 6.6362735e-39
0.88141632 -0.16500646 0.065587126 7.5574885e-39
0.88141632 -0.16500646 0.068087131 7.556799e-39
0.88391632 -0.16750646 0.065587126 6.8199234e-39
0.88391632 -0.16500646 0.065587126 7.0972068e-39
0.88391632 -0.16250646 0.065587126 7.0958013e-39
0.88391632 -0.16000646 0.065587126 7.2805877e-39
0.88141632 -0.15750647 0.068087131 7.0965454e-39
0.88141632 -0.15500647 0.068087131 7.0043497e-39
0.88391632 -0.15750647 0.065587126 7.3724064e-39
0.88391632 -0.15500647 0.065587126 7.0961796e-39
0.88141632 -0.15750647 0.073087126 7.3724064e-39
0.88141632 -0.15500647 0.073087126 7.3724064e-39
0.88391632 -0.15750647 0.070587128 7.3731337e-39
0.88391632 -0.15750647 0.073087126 7.2798576e-39
0.88391632 -0.15500647 0.070587128 7.4642503e-39
0.88391632 -0.15500647 0.073087126 7.4642503e-39
0.88391632 -0.15250646 0.065587126 6.3614985e-39
0.88141632 -0.15250646 0.073087126 7.4635328e-39
0.88391632 -0.15250646 0.070587128 7.6490003e-39
0.88391632 -0.15250646 0.073087126 7.464602e-39
0.88391632 -0.15000646 0.073087126 8.2921991e-39
0.88641632 -0.16750646 0.065587126 7.2798576e-39
0.88641632 -0.16500646 0.065587126 7.7415645e-39
0.88641632 -0.16500646 0.068087131 8.5680783e-39
0.88891631 -0.16750646 0.065587126 8.1103245e-39
0.88891631 -0.16750646 0.068087131 8.1099714e-39
0.88891631 -0.16500646 0.065587126 7.9255802e-39
0.88891631 -0.16500646 0.068087131 7.925227e-39
0.88641632 -0.16500646 0.070587128 7.925227e-39
0.88641632 -0.16250646 0.065587126 7.3727833e-39
0.88641632 -0.16250646 0.068087131 8.4758827e-39
0.88641632 -0.16000646 0.065587126 7.3727833e-39
0.88641632 -0.16000646 0.068087131 7.5564459e-39
0.88891631 -0.16250646 0.065587126 7.6489947e-39
0.88891631 -0.16250646 0.068087131 7.4642503e-39
0.88891631 -0.16000646 0.065587126 7.5564459e-39
0.88891631 -0.16000646 0.068087131 7.5564459e-39
0.88641632 -0.16250646 0.070587128 8.1071016e-39
0.88641632 -0.16000646 0.070587128 7.4642503e-39
0.89141631 -0.16750646 0.065587126 8.1103245e-39
0.89141631 -0.16500646 0.065587126 7.7411959e-39
0.89391631 -0.16750646 0.068087131 8.3872688e-39
0.89391631 -0.16500646 0.068087131 8.2025216e-39
0.89141631 -0.16750646 0.070587128 8.6609788e-39
0.89141631 -0.16500646 0.070587128 8.4762302e-39
0.89391631 -0.16750646 0.070587128 9.3063314e-39
0.89391631 -0.16500646 0.070587128 9.3985466e-39
0.89391631 -0.16250646 0.068087131 8.1078078e-39
0.89391631 -0.16000646 0.068087131 7.923062e-39
0.89141631 -0.16250646 0.070587128 7.5571522e-39
0.89141631 -0.16000646 0.070587128 7.556799e-39
0.89391631 -0.16250646 0.070587128 8.6609816e-39
0.89391631 -0.16000646 0.070587128 8.9408027e-39
0.88641632 -0.15750647 0.065587126 7.280938e-39
0.88641632 -0.15750647 0.068087131 7.4649551e-39
0.88641632 -0.15500647 0.065587126 7.0947419e-39
0.88641632 -0.15500647 0.068087131 7.5571522e-39
0.88891631 -0.15750647 0.065587126 7.6497191e-39
0.88891631 -0.15750647 0.068087131 7.464602e-39
0.88891631 -0.15500647 0.065587126 7.5571522e-39
0.88891631 -0.15500647 0.068087131 7.556799e-39
0.88641632 -0.15750647 0.070587128 7.3727595e-39
0.88641632 -0.15750647 0.073087126 7.4642503e-39
0.88641632 -0.15500647 0.070587128 7.2802051e-39
0.88641632 -0.15500647 0.073087126 7.1905403e-39
0.88891631 -0.15750647 0.073087126 7.280938e-39
0.88891631 -0.15500647 0.073087126 7.3731337e-39
0.88641632 -0.15250646 0.065587126 5.3473465e-39
0.88641632 -0.15250646 0.068087131 7.3734868e-39
0.88641632 -0.15000646 0.065587126 4.9814731e-39
0.88891631 -0.15250646 0.065587126 7.2812898e-39
0.88891631 -0.15250646 0.068087131 7.2812898e-39
0.88891631 -0.15000646 0.065587126 7.5571494e-39
0.88891631 -0.15000646 0.068087131 7.3731337e-39
0.88641632 -0.15250646 0.070587128 7.3734868e-39
0.88641632 -0.15250646 0.073087126 7.3731365e-39
0.88641632 -0.15000646 0.070587128 8.2932557e-39
0.88641632 -0.15000646 0.073087126 8.2947172e-39
0.88891631 -0.15250646 0.073087126 7.5568173e-39
0.88891631 -0.15000646 0.073087126 8.2039271e-39
0.89141631 -0.15750647 0.070587128 7.4642503e-39
0.89141631 -0.15500647 0.070587128 7.556799e-39
0.89391631 -0.15750647 0.070587128 8.3894366e-39
0.89391631 -0.15500647 0.070587128 8.6656633e-39
0.89141631 -0.15250646 0.065587126 7.4642503e-39
0.89141631 -0.15000646 0.065587126 7.280938e-39
0.89391631 -0.15000646 0.068087131 7.9255746e-39
0.89141631 -0.15250646 0.070587128 7.556799e-39
0.89141631 -0.15000646 0.070587128 8.200351e-39
0.89391631 -0.15250646 0.070587128 9.0322977e-39
0.87891632 -0.15500647 0.075587124 7.3724064e-39
0.88141632 -0.15500647 0.078087129 7.3731337e-39
0.88391632 -0.15750647 0.075587124 7.3731337e-39
0.88391632 -0.15500647 0.075587124 7.3731337e-39
0.88391632 -0.15250646 0.075587124 7.3727833e-39
0.88641632 -0.15750647 0.075587124 9.0322822e-39
0.88641632 -0.15500647 0.075587124 8.3894366e-39
0.88641632 -0.15250646 0.075587124 8.9397335e-39
0.88641632 -0.15000646 0.075587124 8.9408055e-39
0.88891631 -0.15000646 0.078087129 1.0139349e-38
0.89641631 -0.17500646 0.065587126 6.7212804e-39
0.89641631 -0.17500646 0.068087131 6.9971569e-39
0.8989163 -0.17750646 0.065587126 1.953934e-38
0.8989163 -0.17750646 0.068087131 1.9814482e-38
0.8989163 -0.17500646 0.065587126 6.079148e-39
0.8989163 -0.17500646 0.068087131 6.9978603e-39
0.89641631 -0.17500646 0.070587128 7.3655737e-39
0.89641631 -0.17500646 0.073087126 7.3677218e-39
0.8989163 -0.17500646 0.070587128 7.3680904e-39
0.8989163 -0.17500646 0.073087126 7.3676462e-39
0.89641631 -0.17250647 0.065587126 6.6359203e-39
0.89641631 -0.17250647 0.068087131 6.5433716e-39
0.89641631 -0.17000647 0.065587126 8.4798329e-39
0.89641631 -0.17000647 0.068087131 8.2950886e-39
0.8989163 -0.17250647 0.065587126 6.7273901e-39
0.8989163 -0.17250647 0.068087131 6.7273901e-39
0.8989163 -0.17000647 0.068087131 8.847891e-39
0.89641631 -0.17250647 0.070587128 6.5437247e-39
0.89641631 -0.17250647 0.073087126 6.8195829e-39
0.89641631 -0.17000647 0.070587128 8.6642256e-39
0.8989163 -0.17250647 0.070587128 7.096174e-39
0.8989163 -0.17250647 0.073087126 6.2664134e-39
0.8989163 -0.17000647 0.070587128 9.0322822e-39
0.8989163 -0.17000647 0.073087126 8.847891e-39
0.9014163 -0.17750646 0.065587126 1.9999229e-38
0.9014163 -0.17500646 0.070587128 7.3684407e-39
0.9014163 -0.17250647 0.070587128 6.4511605e-39
0.9014163 -0.17000647 0.070587128 9.0322822e-39
0.9039163 -0.17250647 0.073087126 6.544075e-39
0.9039163 -0.17000647 0.070587128 8.3869184e-39
0.9039163 -0.17000647 0.073087126 8.0192065e-39
0.9064163 -0.17250647 0.070587128 8.1103245e-39
0.9064163 -0.17000647 0.070587128 7.9256012e-39
0.9064163 -0.17000647 0.073087126 5.7103837e-39
0.90891629 -0.17000647 0.070587128 5.1586337e-39
0.8989163 -0.17250647 0.075587124 6.729174e-39
0.8989163 -0.17000647 0.075587124 8.0192065e-39
0.9039163 -0.17000647 0.075587124 5.9862349e-39
0.89641631 -0.16500646 0.068087131 9.5818421e-39
0.8989163 -0.16500646 0.068087131 1.0411607e-38
0.89641631 -0.16750646 0.070587128 9.9517176e-39
0.89641631 -0.16750646 0.073087126 9.0333416e-39
0.89641631 -0.16500646 0.070587128 1.0687834e-38
0.8989163 -0.16750646 0.070587128 9.2173728e-39
0.8989163 -0.16750646 0.073087126 7.0968985e-39
0.8989163 -0.16500646 0.070587128 9.3095656e-39
0.8989163 -0.16500646 0.073087126 6.6380433e-39
0.89641631 -0.16250646 0.068087131 8.5684314e-39
0.89641631 -0.16000646 0.068087131 7.741549e-39
0.8989163 -0.16250646 0.068087131 9.6751335e-39
0.8989163 -0.16000646 0.068087131 9.5829379e-39
0.89641631 -0.16250646 0.070587128 1.1238842e-38
0.89641631 -0.16000646 0.070587128 9.4907423e-39
0.89641631 -0.16000646 0.073087126 8.7563946e-39
0.8989163 -0.16250646 0.070587128 9.0333388e-39
0.8989163 -0.16000646 0.070587128 8.6638459e-39
0.9014163 -0.16750646 0.070587128 7.2802108e-39
0.9014163 -0.16500646 0.070587128 5.9926739e-39
0.9039163 -0.16750646 0.073087126 7.3727833e-39
0.9039163 -0.16500646 0.070587128 6.173845e-39
0.9039163 -0.16500646 0.073087126 7.0039812e-39
0.9039163 -0.16250646 0.068087131 8.9407929e-39
0.9039163 -0.16000646 0.068087131 8.8485972e-39
0.9014163 -0.16250646 0.070587128 6.1738506e-39
0.9014163 -0.16000646 0.070587128 6.3578817e-39
0.9039163 -0.16250646 0.070587128 6.4497284e-39
0.9039163 -0.16000646 0.070587128 6.3575314e-39
0.89641631 -0.15750647 0.068087131 7.3731337e-39
0.8989163 -0.15750647 0.068087131 8.2968808e-39
0.8989163 -0.15500647 0.068087131 8.8479036e-39
0.89641631 -0.15750647 0.070587128 8.2972339e-39
0.89641631 -0.15750647 0.073087126 8.3876317e-39
0.89641631 -0.15500647 0.070587128 8.8482567e-39
0.89641631 -0.15500647 0.073087126 8.5723789e-39
0.8989163 -0.15750647 0.070587128 8.5723817e-39
0.8989163 -0.15750647 0.073087126 7.7368743e-39
0.8989163 -0.15500647 0.070587128 8.9404524e-39
0.8989163 -0.15500647 0.073087126 7.2812898e-39
0.8989163 -0.15250646 0.068087131 9.2159659e-39
0.89641631 -0.15250646 0.070587128 8.9397391e-39
0.89641631 -0.15250646 0.073087126 8.9422558e-39
0.89641631 -0.15000646 0.073087126 9.5861721e-39
0.8989163 -0.15250646 0.070587128 9.4936261e-39
0.9039163 -0.15750647 0.068087131 8.6645759e-39
0.9039163 -0.15500647 0.068087131 9.032648e-39
0.9014163 -0.15750647 0.070587128 8.4801833e-39
0.9014163 -0.15500647 0.070587128 9.3088677e-39
0.9039163 -0.15750647 0.070587128 6.7277376e-39
0.9039163 -0.15500647 0.070587128 7.2802108e-39
0.9039163 -0.15250646 0.068087131 9.1248492e-39
0.9014163 -0.15250646 0.070587128 8.7575086e-39
0.9064163 -0.16500646 0.068087131 6.5419086e-39
0.9064163 -0.16750646 0.073087126 7.0947419e-39
0.9064163 -0.16500646 0.070587128 6.4497284e-39
0.9064163 -0.16500646 0.073087126 6.910331e-39
0.90891629 -0.16750646 0.070587128 6.7270342e-39
0.90891629 -0.16750646 0.073087126 5.618523e-39
0.90891629 -0.16500646 0.070587128 6.3586118e-39
0.90891629 -0.16500646 0.073087126 6.3593152e-39
0.9064163 -0.16250646 0.070587128 6.1756779e-39
0.9064163 -0.16000646 0.070587128 6.5448205e-39
0.9064163 -0.16000646 0.073087126 8.1099714e-39
0.90891629 -0.16250646 0.070587128 6.45082e-39
0.90891629 -0.16250646 0.073087126 7.0039546e-39
0.90891629 -0.16000646 0.070587128 8.3869184e-39
0.90891629 -0.16000646 0.073087126 8.0155898e-39
0.91141629 -0.16750646 0.070587128 6.7270342e-39
0.91141629 -0.16500646 0.070587128 6.6337539e-39
0.91391635 -0.16250646 0.068087131 7.0961796e-39
0.91141629 -0.16250646 0.070587128 6.8192326e-39
0.91141629 -0.16000646 0.070587128 7.739398e-39
0.91391635 -0.16250646 0.073087126 7.3673869e-39
0.9064163 -0.15750647 0.068087131 7.7375988e-39
0.9064163 -0.15500647 0.068087131 7.188741e-39
0.90891629 -0.15500647 0.065587126 9.2159659e-39
0.90891629 -0.15500647 0.068087131 9.3085146e-39
0.9064163 -0.15750647 0.070587128 7.0029274e-39
0.9064163 -0.15750647 0.073087126 7.0039938e-39
0.9064163 -0.15500647 0.070587128 6.7284705e-39
0.90891629 -0.15750647 0.070587128 7.095451e-39
0.90891629 -0.15750647 0.073087126 5.6235803e-39
0.90891629 -0.15500647 0.070587128 6.6348231e-39
0.90891629 -0.15500647 0.073087126 4.7030309e-39
0.9064163 -0.15250646 0.068087131 8.8500546e-39
0.90891629 -0.15250646 0.065587126 9.5854532e-39
0.90891629 -0.15250646 0.068087131 1.0043896e-38
0.90891629 -0.15250646 0.070587128 8.2021839e-39
0.90891629 -0.15250646 0.073087126 5.2558516e-39
0.91141629 -0.15500647 0.065587126 8.8482567e-39
0.91141629 -0.15500647 0.068087131 8.6645787e-39
0.91391635 -0.15500647 0.068087131 7.8359125e-39
0.91141629 -0.15750647 0.070587128 5.8987224e-39
0.91141629 -0.15500647 0.070587128 7.0958013e-39
0.91391635 -0.15750647 0.073087126 5.6188733e-39
0.91391635 -0.15500647 0.073087126 5.7240422e-39
0.91141629 -0.15250646 0.065587126 9.7698221e-39
0.91141629 -0.15250646 0.068087131 9.1248058e-39
0.91391635 -0.15250646 0.068087131 8.6660109e-39
0.8989163 -0.16750646 0.075587124 7.2805905e-39
0.8989163 -0.16500646 0.075587124 7.4638803e-39
0.9039163 -0.16750646 0.075587124 6.9092772e-39
0.9039163 -0.16500646 0.075587124 6.6341043e-39
0.89641631 -0.15000646 0.075587124 9.4017486e-39
0.9064163 -0.16000646 0.075587124 7.372391e-39
0.91141629 -0.16250646 0.075587124 6.9989617e-39
0.91141629 -0.16000646 0.075587124 7.5521327e-39
0.91141629 -0.15750647 0.075587124 5.8075792e-39
0.91141629 -0.15500647 0.075587124 5.6296942e-39
0.91141629 -0.15250646 0.075587124 1.226778e-38
0.89141631 -0.14750646 0.065587126 8.8460917e-39
0.91641635 -0.16250646 0.070587128 6.7280781e-39
0.91641635 -0.15750647 0.070587128 5.7161291e-39
0.91641635 -0.15500647 0.070587128 5.6260396e-39
0.91641635 -0.15500647 0.073087126 1.1808594e-38
