# .PCD v0.7 - Point Cloud Data file format
VERSION 0.7
FIELDS x y z rgb
SIZE 4 4 4 4
TYPE F F F F
COUNT 1 1 1 1
WIDTH 208
HEIGHT 1
VIEWPOINT 0 0 0 1 0 0 0
POINTS 208
DATA ascii
0.86553091 0.060783558 0.064382046 6.3553902e-39
0.86303091 0.06578356 0.064382046 4.7898568e-39
0.86553091 0.063283563 0.064382046 4.6962136e-39
0.86553091 0.06578356 0.064382046 5.4290927e-39
0.86803091 0.060783558 0.064382046 6.7241671e-39
0.8705309 0.05828356 0.064382046 6.8177851e-39
0.8705309 0.060783558 0.064382046 6.5401248e-39
0.86803091 0.05828356 0.066882044 7.2758765e-39
0.86803091 0.05828356 0.069382042 6.8188641e-39
0.86803091 0.060783558 0.066882044 5.9866021e-39
0.86803091 0.060783558 0.069382042 8.0134598e-39
0.8705309 0.05828356 0.066882044 4.3285031e-39
0.8705309 0.060783558 0.066882044 7.0911728e-39
0.86803091 0.063283563 0.064382046 4.5136202e-39
0.86803091 0.06578356 0.064382046 4.4214246e-39
0.8705309 0.063283563 0.064382046 4.6036662e-39
0.8705309 0.06578356 0.064382046 3.9600961e-39
0.86803091 0.063283563 0.066882044 4.3277898e-39
0.86803091 0.06578356 0.066882044 4.3277898e-39
0.8705309 0.063283563 0.066882044 5.3394572e-39
0.8705309 0.06578356 0.066882044 5.7060551e-39
0.86303091 0.068283558 0.064382046 4.6976611e-39
0.86303091 0.070783563 0.064382046 5.0635724e-39
0.86553091 0.068283558 0.064382046 4.6054655e-39
0.86553091 0.070783563 0.064382046 4.9713711e-39
0.86303091 0.068283558 0.066882044 4.4214246e-39
0.86303091 0.070783563 0.066882044 4.7877058e-39
0.86303091 0.073283561 0.064382046 4.7880589e-39
0.86553091 0.073283561 0.064382046 5.155768e-39
0.86553091 0.075783558 0.064382046 5.7121634e-39
0.86303091 0.073283561 0.066882044 4.2352354e-39
0.86803091 0.068283558 0.064382046 4.1448377e-39
0.8705309 0.068283558 0.064382046 3.9600961e-39
0.8705309 0.070783563 0.064382046 4.3277898e-39
0.86803091 0.068283558 0.066882044 4.1444873e-39
0.86803091 0.070783563 0.066882044 4.6958633e-39
0.86803091 0.070783563 0.069382042 7.183325e-39
0.8705309 0.068283558 0.066882044 4.7880589e-39
0.8705309 0.070783563 0.066882044 4.0548098e-39
0.86803091 0.073283561 0.064382046 4.6040166e-39
0.86803091 0.075783558 0.064382046 6.355365e-39
0.8705309 0.073283561 0.064382046 4.8806048e-39
0.8705309 0.075783558 0.064382046 6.079148e-39
0.86803091 0.073283561 0.066882044 4.7880589e-39
0.86803091 0.073283561 0.069382042 7.368075e-39
0.86803091 0.075783558 0.066882044 5.8047093e-39
0.86803091 0.075783558 0.069382042 8.2000034e-39
0.8705309 0.073283561 0.066882044 4.6079836e-39
0.8705309 0.075783558 0.066882044 6.3560937e-39
0.8705309 0.075783558 0.071882039 7.8304923e-39
0.86553091 0.078283556 0.064382046 5.0714575e-39
0.86553091 0.080783561 0.064382046 4.7877086e-39
0.86803091 0.078283556 0.064382046 5.6228446e-39
0.86803091 0.080783561 0.064382046 3.4073147e-39
0.8705309 0.078283556 0.064382046 6.3560937e-39
0.8705309 0.080783561 0.064382046 5.5259743e-39
0.86803091 0.078283556 0.066882044 6.3582348e-39
0.86803091 0.078283556 0.069382042 8.3815038e-39
0.86803091 0.080783561 0.066882044 4.1423392e-39
0.86803091 0.080783561 0.069382042 4.5089483e-39
0.8705309 0.078283556 0.066882044 6.8167033e-39
0.8705309 0.080783561 0.066882044 5.8943868e-39
0.86803091 0.083283558 0.064382046 7.188783e-39
0.8705309 0.078283556 0.071882039 7.5549872e-39
0.8705309 0.078283556 0.074382044 3.6874118e-39
0.8705309 0.080783561 0.071882039 4.3256164e-39
0.8705309 0.080783561 0.074382044 3.1267425e-39
0.8755309 0.055783559 0.064382046 6.4353006e-39
0.8730309 0.05828356 0.064382046 7.3684407e-39
0.8730309 0.060783558 0.064382046 5.9866021e-39
0.8755309 0.05828356 0.064382046 4.4207043e-39
0.8730309 0.05828356 0.066882044 3.9611499e-39
0.8730309 0.05828356 0.069382042 4.421419e-39
0.8730309 0.060783558 0.066882044 7.8305077e-39
0.8730309 0.060783558 0.069382042 7.8308608e-39
0.8755309 0.05828356 0.066882044 4.5139677e-39
0.8755309 0.05828356 0.069382042 2.6729152e-39
0.8755309 0.060783558 0.066882044 7.8305077e-39
0.8755309 0.060783558 0.069382042 7.4617322e-39
0.8730309 0.063283563 0.064382046 4.6029474e-39
0.8730309 0.06578356 0.064382046 4.3281401e-39
0.8755309 0.06578356 0.064382046 5.7982507e-39
0.8730309 0.063283563 0.066882044 8.7528241e-39
0.8730309 0.063283563 0.069382042 8.6606285e-39
0.8730309 0.06578356 0.066882044 8.5655434e-39
0.8755309 0.063283563 0.066882044 8.6606285e-39
0.8755309 0.063283563 0.069382042 6.4432642e-39
0.8755309 0.06578356 0.066882044 7.923006e-39
0.8755309 0.06578356 0.069382042 2.7611633e-39
0.8780309 0.05828356 0.066882044 3.3157833e-39
0.8780309 0.060783558 0.066882044 7.461379e-39
0.88053089 0.060783558 0.069382042 6.8181606e-39
0.8780309 0.063283563 0.066882044 5.7103739e-39
0.8780309 0.06578356 0.066882044 4.1440936e-39
0.88053089 0.063283563 0.069382042 4.4210742e-39
0.88053089 0.06578356 0.069382042 3.5884227e-39
0.8780309 0.060783558 0.071882039 6.725965e-39
0.88053089 0.060783558 0.071882039 3.9604464e-39
0.8780309 0.063283563 0.071882039 4.5132699e-39
0.8780309 0.06578356 0.071882039 3.2196416e-39
0.88053089 0.063283563 0.071882039 4.052642e-39
0.88053089 0.06578356 0.071882039 4.5996795e-39
0.88303089 0.063283563 0.069382042 3.9596883e-39
0.88303089 0.06578356 0.066882044 3.2185626e-39
0.88303089 0.06578356 0.069382042 4.9688026e-39
0.88553089 0.06578356 0.066882044 4.9673915e-39
0.8730309 0.068283558 0.064382046 4.1448377e-39
0.8730309 0.070783563 0.064382046 4.7880589e-39
0.8755309 0.068283558 0.064382046 6.5415583e-39
0.8730309 0.068283558 0.066882044 7.1844096e-39
0.8730309 0.068283558 0.069382042 6.2649462e-39
0.8730309 0.070783563 0.066882044 7.3684407e-39
0.8730309 0.070783563 0.069382042 5.4362799e-39
0.8755309 0.068283558 0.066882044 6.1720471e-39
0.8755309 0.068283558 0.069382042 2.2072875e-39
0.8755309 0.070783563 0.066882044 6.2642427e-39
0.8755309 0.070783563 0.069382042 2.6679055e-39
0.8730309 0.073283561 0.064382046 5.4337786e-39
0.8730309 0.075783558 0.064382046 5.7107242e-39
0.8730309 0.073283561 0.066882044 6.1731415e-39
0.8730309 0.073283561 0.069382042 6.5419086e-39
0.8730309 0.075783558 0.066882044 6.2657071e-39
0.8730309 0.075783558 0.069382042 7.0961796e-39
0.8755309 0.073283561 0.066882044 6.0816493e-39
0.8755309 0.073283561 0.069382042 2.4845806e-39
0.8755309 0.075783558 0.066882044 5.9894719e-39
0.8755309 0.075783558 0.069382042 4.4189316e-39
0.8780309 0.068283558 0.066882044 1.6573507e-39
0.8780309 0.070783563 0.066882044 1.7495464e-39
0.88053089 0.068283558 0.069382042 3.1271082e-39
0.88053089 0.070783563 0.066882044 2.3027201e-39
0.88053089 0.070783563 0.069382042 3.680282e-39
0.8780309 0.073283561 0.066882044 3.1277963e-39
0.8780309 0.075783558 0.066882044 3.5888122e-39
0.88053089 0.073283561 0.066882044 3.2232149e-39
0.88053089 0.073283561 0.069382042 3.7745908e-39
0.88053089 0.075783558 0.069382042 3.5009326e-39
0.8730309 0.073283561 0.071882039 3.1274642e-39
0.8730309 0.075783558 0.071882039 4.6025942e-39
0.8780309 0.068283558 0.071882039 3.1303354e-39
0.8780309 0.070783563 0.071882039 3.5913136e-39
0.88053089 0.068283558 0.071882039 3.774616e-39
0.8780309 0.073283561 0.071882039 3.0381174e-39
0.8780309 0.075783558 0.071882039 3.3140232e-39
0.88053089 0.075783558 0.071882039 2.6653888e-39
0.8730309 0.078283556 0.064382046 6.7245174e-39
0.8730309 0.080783561 0.064382046 4.4174785e-39
0.8730309 0.078283556 0.066882044 8.4711925e-39
0.8730309 0.078283556 0.069382042 7.6461038e-39
0.8730309 0.080783561 0.066882044 5.1525282e-39
0.8730309 0.080783561 0.069382042 6.355365e-39
0.8755309 0.078283556 0.066882044 7.2801771e-39
0.8755309 0.078283556 0.069382042 4.6997715e-39
0.8755309 0.080783561 0.066882044 6.5426107e-39
0.8755309 0.080783561 0.069382042 5.0681939e-39
0.8730309 0.083283558 0.064382046 8.2897006e-39
0.8730309 0.085783556 0.064382046 1.4099075e-38
0.8755309 0.083283558 0.064382046 8.1964259e-39
0.8755309 0.085783556 0.064382046 1.446677e-38
0.8730309 0.083283558 0.066882044 7.3655737e-39
0.8755309 0.083283558 0.066882044 7.368075e-39
0.88053089 0.078283556 0.069382042 3.3186503e-39
0.88053089 0.080783561 0.069382042 3.2264547e-39
0.88053089 0.085783556 0.064382046 1.4006879e-38
0.8780309 0.083283558 0.066882044 7.2751759e-39
0.8780309 0.085783556 0.066882044 1.382141e-38
0.88053089 0.083283558 0.066882044 6.9034464e-39
0.88053089 0.083283558 0.069382042 3.3107834e-39
0.8730309 0.078283556 0.071882039 4.3328092e-39
0.8730309 0.080783561 0.071882039 5.8057659e-39
0.8780309 0.078283556 0.071882039 3.2275155e-39
0.8780309 0.080783561 0.071882039 3.7806808e-39
0.88053089 0.078283556 0.071882039 3.0305714e-39
0.88303089 0.068283558 0.066882044 3.0363601e-39
0.88303089 0.068283558 0.069382042 3.9586471e-39
0.88303089 0.070783563 0.066882044 3.5913136e-39
0.88553089 0.068283558 0.066882044 4.6922339e-39
0.88553089 0.070783563 0.066882044 3.7757048e-39
0.88303089 0.073283561 0.066882044 3.68097e-39
0.88303089 0.075783558 0.066882044 2.7633676e-39
0.88303089 0.075783558 0.069382042 4.5085951e-39
0.88553089 0.073283561 0.066882044 4.2341424e-39
0.88553089 0.075783558 0.066882044 4.1433957e-39
0.89053094 0.068283558 0.064382046 4.6922339e-39
0.89053094 0.070783563 0.064382046 5.3372656e-39
0.88803089 0.068283558 0.066882044 4.4142191e-39
0.88803089 0.070783563 0.066882044 4.7884092e-39
0.89053094 0.070783563 0.069382042 1.2856997e-39
0.89053094 0.073283561 0.064382046 4.7902071e-39
0.89053094 0.075783558 0.064382046 4.5136202e-39
0.88803089 0.073283561 0.066882044 5.0653548e-39
0.88803089 0.075783558 0.066882044 9.2338282e-40
0.89053094 0.073283561 0.069382042 1.2856969e-39
0.89053094 0.070783563 0.071882039 6.4375189e-39
0.89053094 0.073283561 0.071882039 6.8080783e-39
0.88303089 0.078283556 0.069382042 2.6643224e-39
0.88553089 0.078283556 0.066882044 2.2072875e-39
0.88303089 0.085783556 0.064382046 1.3638101e-38
0.88803089 0.078283556 0.066882044 0
0.8730309 0.088283561 0.064382046 2.0829357e-38
0.8755309 0.088283561 0.064382046 2.1750593e-38
0.88053089 0.088283561 0.064382046 2.1475799e-38
0.89303094 0.068283558 0.066882044 4.0508302e-39
0.89303094 0.070783563 0.066882044 2.8548079e-39
0.89303094 0.073283561 0.066882044 3.4112383e-39
0.89303094 0.073283561 0.069382042 1.5612132e-39
0.89303094 0.075783558 0.066882044 4.6527873e-40
0.89303094 0.075783558 0.069382042 1.7448758e-39
