# .PCD v0.7 - Point Cloud Data file format
VERSION 0.7
FIELDS x y z rgb
SIZE 4 4 4 4
TYPE F F F F
COUNT 1 1 1 1
WIDTH 243
HEIGHT 1
VIEWPOINT 0 0 0 1 0 0 0
POINTS 243
DATA ascii
0.87083465 0.056213032 0.068840861 3.7760383e-39
0.86333466 0.066213034 0.063840866 4.6054655e-39
0.86333466 0.066213034 0.066340864 4.5136202e-39
0.86583465 0.066213034 0.063840866 4.603648e-39
0.86583465 0.066213034 0.066340864 4.7880589e-39
0.86833465 0.061213031 0.063840866 6.5387025e-39
0.87083465 0.058713034 0.063840866 7.3677218e-39
0.87083465 0.058713034 0.066340864 6.9063906e-39
0.87083465 0.061213031 0.063840866 6.079148e-39
0.87083465 0.061213031 0.066340864 7.0868568e-39
0.86833465 0.063713036 0.063840866 4.6958436e-39
0.86833465 0.066213034 0.063840866 4.6958633e-39
0.87083465 0.063713036 0.063840866 3.9586471e-39
0.87083465 0.063713036 0.066340864 5.7046202e-39
0.87083465 0.066213034 0.063840866 4.3281401e-39
0.87083465 0.066213034 0.066340864 5.7046202e-39
0.87083465 0.058713034 0.068840861 7.0028854e-39
0.87083465 0.061213031 0.068840861 8.1978511e-39
0.87083465 0.063713036 0.068840861 9.5800414e-39
0.87083465 0.066213034 0.068840861 8.5662496e-39
0.86083466 0.068713032 0.063840866 3.9622611e-39
0.86083466 0.071213037 0.063840866 4.0544567e-39
0.86083466 0.073713034 0.063840866 3.9626142e-39
0.86333466 0.068713032 0.063840866 4.6054655e-39
0.86333466 0.068713032 0.066340864 4.2377424e-39
0.86333466 0.071213037 0.063840866 4.8802545e-39
0.86333466 0.071213037 0.066340864 4.7880589e-39
0.86583465 0.068713032 0.063840866 4.5136202e-39
0.86583465 0.068713032 0.066340864 4.4199854e-39
0.86583465 0.071213037 0.063840866 4.4210742e-39
0.86583465 0.071213037 0.066340864 4.6040166e-39
0.86333466 0.073713034 0.063840866 4.7884092e-39
0.86333466 0.073713034 0.066340864 4.6043669e-39
0.86333466 0.076213032 0.063840866 6.079148e-39
0.86333466 0.076213032 0.066340864 6.0794984e-39
0.86583465 0.073713034 0.063840866 5.341583e-39
0.86583465 0.073713034 0.066340864 4.8813139e-39
0.86583465 0.076213032 0.063840866 5.7107242e-39
0.86583465 0.076213032 0.066340864 6.3560937e-39
0.86833465 0.068713032 0.063840866 4.7884092e-39
0.86833465 0.071213037 0.063840866 4.8802545e-39
0.87083465 0.068713032 0.063840866 4.6962136e-39
0.87083465 0.068713032 0.066340864 4.7880589e-39
0.87083465 0.071213037 0.063840866 4.4199854e-39
0.87083465 0.071213037 0.066340864 4.5132699e-39
0.86833465 0.073713034 0.063840866 4.7880589e-39
0.86833465 0.076213032 0.063840866 6.0798515e-39
0.87083465 0.073713034 0.063840866 5.2490174e-39
0.87083465 0.073713034 0.066340864 4.8820524e-39
0.87083465 0.076213032 0.063840866 6.0787781e-39
0.87083465 0.076213032 0.066340864 6.2642483e-39
0.86333466 0.068713032 0.068840861 4.1444873e-39
0.86333466 0.071213037 0.068840861 4.695143e-39
0.86333466 0.076213032 0.068840861 6.2642483e-39
0.86583465 0.076213032 0.068840861 6.3560937e-39
0.86583465 0.076213032 0.071340866 7.923062e-39
0.86833465 0.068713032 0.068840861 4.7884092e-39
0.86833465 0.071213037 0.068840861 4.7880589e-39
0.87083465 0.068713032 0.068840861 6.9099807e-39
0.87083465 0.071213037 0.068840861 7.092214e-39
0.87083465 0.071213037 0.071340866 6.541882e-39
0.86833465 0.073713034 0.068840861 5.9869524e-39
0.86833465 0.076213032 0.068840861 6.9978603e-39
0.86833465 0.076213032 0.071340866 7.2802051e-39
0.87083465 0.073713034 0.068840861 6.9096276e-39
0.87083465 0.073713034 0.071340866 6.358609e-39
0.87083465 0.076213032 0.068840861 7.92089e-39
0.87083465 0.076213032 0.071340866 4.6025942e-39
0.86583465 0.07871303 0.063840866 3.3183e-39
0.86583465 0.07871303 0.066340864 5.341583e-39
0.86583465 0.081213035 0.063840866 4.7851904e-39
0.86583465 0.081213035 0.066340864 4.415682e-39
0.86583465 0.083713032 0.066340864 8.5677238e-39
0.86833465 0.07871303 0.063840866 6.0809459e-39
0.86833465 0.081213035 0.063840866 3.315119e-39
0.87083465 0.07871303 0.063840866 6.6323204e-39
0.87083465 0.07871303 0.066340864 7.3659226e-39
0.87083465 0.081213035 0.063840866 4.324585e-39
0.87083465 0.081213035 0.066340864 4.507547e-39
0.86833465 0.083713032 0.063840866 7.7405079e-39
0.87083465 0.083713032 0.063840866 8.6581201e-39
0.87083465 0.083713032 0.066340864 7.7368953e-39
0.87083465 0.08621303 0.063840866 1.4190919e-38
0.87083465 0.08621303 0.066340864 1.4743372e-38
0.86583465 0.07871303 0.071340866 6.5372409e-39
0.86833465 0.07871303 0.068840861 5.6177999e-39
0.86833465 0.07871303 0.071340866 6.5408282e-39
0.86833465 0.081213035 0.068840861 3.9572276e-39
0.87083465 0.07871303 0.068840861 8.1953161e-39
0.87083465 0.07871303 0.071340866 4.9738627e-39
0.87083465 0.081213035 0.068840861 4.6894047e-39
0.87083465 0.081213035 0.071340866 4.7851722e-39
0.86833465 0.083713032 0.068840861 8.0134836e-39
0.87333465 0.056213032 0.063840866 4.7884092e-39
0.87333465 0.056213032 0.066340864 4.5107363e-39
0.87583464 0.056213032 0.068840861 4.0533637e-39
0.87333465 0.058713034 0.063840866 7.2755262e-39
0.87333465 0.058713034 0.066340864 6.8177851e-39
0.87333465 0.061213031 0.063840866 6.1709933e-39
0.87333465 0.061213031 0.066340864 7.6464765e-39
0.87583464 0.058713034 0.063840866 4.4199854e-39
0.87583464 0.061213031 0.063840866 7.5481895e-39
0.87333465 0.063713036 0.063840866 4.3270807e-39
0.87333465 0.063713036 0.066340864 8.6606285e-39
0.87333465 0.066213034 0.063840866 3.9604464e-39
0.87333465 0.066213034 0.066340864 8.1956818e-39
0.87583464 0.063713036 0.063840866 5.9808624e-39
0.87583464 0.066213034 0.063840866 5.7060495e-39
0.87833464 0.058713034 0.066340864 4.973134e-39
0.87833464 0.061213031 0.066340864 7.6464765e-39
0.87833464 0.063713036 0.066340864 9.2155427e-39
0.87833464 0.066213034 0.066340864 7.8311593e-39
0.87333465 0.061213031 0.068840861 8.5684258e-39
0.87583464 0.058713034 0.068840861 7.2809142e-39
0.87583464 0.061213031 0.068840861 7.6468297e-39
0.87333465 0.063713036 0.068840861 9.0304227e-39
0.87333465 0.066213034 0.068840861 7.4627467e-39
0.87583464 0.063713036 0.068840861 8.4762302e-39
0.87583464 0.063713036 0.071340866 3.5884647e-39
0.87583464 0.066213034 0.068840861 7.5545892e-39
0.87583464 0.066213034 0.071340866 3.0352909e-39
0.87833464 0.058713034 0.068840861 7.2809142e-39
0.87833464 0.061213031 0.068840861 7.64505e-39
0.88083464 0.061213031 0.071340866 4.1430258e-39
0.87833464 0.063713036 0.068840861 5.4323563e-39
0.87833464 0.066213034 0.068840861 2.6689691e-39
0.88083464 0.063713036 0.071340866 4.0508302e-39
0.88083464 0.066213034 0.071340866 4.5989817e-39
0.88833469 0.066213034 0.066340864 4.414568e-39
0.88333464 0.061213031 0.068840861 7.0014953e-39
0.88333464 0.063713036 0.068840861 4.5122133e-39
0.88333464 0.066213034 0.068840861 3.3118372e-39
0.88583463 0.063713036 0.068840861 3.6816889e-39
0.88583463 0.066213034 0.068840861 4.6922339e-39
0.88833469 0.066213034 0.068840861 3.957578e-39
0.87333465 0.068713032 0.063840866 4.3277898e-39
0.87333465 0.068713032 0.066340864 7.0021763e-39
0.87333465 0.071213037 0.063840866 4.1444873e-39
0.87333465 0.071213037 0.066340864 6.6334008e-39
0.87583464 0.068713032 0.063840866 4.6036662e-39
0.87583464 0.071213037 0.063840866 6.7248706e-39
0.87333465 0.073713034 0.063840866 4.6054655e-39
0.87333465 0.073713034 0.066340864 6.5415583e-39
0.87333465 0.076213032 0.066340864 7.4642503e-39
0.87833464 0.068713032 0.066340864 6.2649462e-39
0.88083464 0.071213037 0.066340864 2.1190365e-39
0.88083464 0.073713034 0.066340864 2.0268395e-39
0.87333465 0.068713032 0.068840861 6.2642427e-39
0.87333465 0.068713032 0.071340866 2.8533758e-39
0.87333465 0.071213037 0.068840861 5.8965126e-39
0.87333465 0.071213037 0.071340866 3.588773e-39
0.87583464 0.068713032 0.068840861 6.5408282e-39
0.87583464 0.068713032 0.071340866 3.1299627e-39
0.87583464 0.071213037 0.068840861 5.7121311e-39
0.87333465 0.073713034 0.068840861 6.5415317e-39
0.87333465 0.073713034 0.071340866 3.2196598e-39
0.87333465 0.076213032 0.068840861 7.0035832e-39
0.87333465 0.076213032 0.071340866 4.4189316e-39
0.87583464 0.073713034 0.068840861 3.0355936e-39
0.87583464 0.073713034 0.071340866 2.7604991e-39
0.87583464 0.076213032 0.068840861 3.8679005e-39
0.87583464 0.076213032 0.071340866 3.8661278e-39
0.87833464 0.068713032 0.068840861 2.0268395e-39
0.87833464 0.071213037 0.068840861 3.496206e-39
0.88083464 0.068713032 0.071340866 4.0504742e-39
0.87833464 0.073713034 0.068840861 2.6711551e-39
0.87833464 0.076213032 0.068840861 2.4828346e-39
0.87833464 0.076213032 0.071340866 2.6650413e-39
0.88083464 0.076213032 0.071340866 4.5085951e-39
0.87333465 0.081213035 0.063840866 4.5100483e-39
0.87333465 0.081213035 0.066340864 4.8748693e-39
0.87333465 0.083713032 0.063840866 9.1176606e-39
0.87333465 0.083713032 0.066340864 6.9049612e-39
0.87333465 0.08621303 0.063840866 1.4098709e-38
0.87583464 0.083713032 0.063840866 8.1031765e-39
0.87583464 0.08621303 0.063840866 1.4283467e-38
0.87833464 0.083713032 0.066340864 6.7180785e-39
0.87833464 0.08621303 0.063840866 1.4006876e-38
0.87833464 0.08621303 0.066340864 1.3362593e-38
0.88083464 0.083713032 0.063840866 5.8919233e-39
0.88083464 0.083713032 0.066340864 7.3655106e-39
0.88083464 0.08621303 0.063840866 1.3729215e-38
0.87333465 0.07871303 0.068840861 7.5549872e-39
0.87333465 0.07871303 0.071340866 4.7001246e-39
0.87333465 0.081213035 0.068840861 4.4128276e-39
0.87333465 0.081213035 0.071340866 4.690785e-39
0.87583464 0.07871303 0.068840861 7.1872935e-39
0.87583464 0.07871303 0.071340866 3.3179455e-39
0.87583464 0.081213035 0.068840861 5.9887503e-39
0.87583464 0.081213035 0.071340866 3.4111865e-39
0.87583464 0.07871303 0.073840864 4.6843278e-39
0.87583464 0.081213035 0.073840864 2.8533576e-39
0.87583464 0.083713032 0.068840861 6.9053116e-39
0.87833464 0.07871303 0.068840861 3.4115452e-39
0.87833464 0.07871303 0.071340866 3.3979134e-39
0.87833464 0.081213035 0.068840861 3.8725163e-39
0.88083464 0.07871303 0.071340866 3.0305714e-39
0.88083464 0.081213035 0.071340866 4.5917748e-39
0.87833464 0.083713032 0.068840861 6.9960022e-39
0.88583463 0.071213037 0.066340864 3.5913136e-39
0.88583463 0.073713034 0.066340864 3.588773e-39
0.88833469 0.068713032 0.066340864 4.1430398e-39
0.88833469 0.071213037 0.066340864 5.3372656e-39
0.89083469 0.068713032 0.066340864 3.7742377e-39
0.89083469 0.071213037 0.066340864 4.6039983e-39
0.88833469 0.073713034 0.066340864 5.0657052e-39
0.88833469 0.076213032 0.066340864 4.3245626e-39
0.89083469 0.073713034 0.066340864 3.6870839e-39
0.89083469 0.076213032 0.063840866 3.1289061e-39
0.89083469 0.076213032 0.066340864 5.5747156e-40
0.88333464 0.068713032 0.068840861 3.222531e-39
0.88333464 0.071213037 0.068840861 2.7633676e-39
0.88583463 0.068713032 0.068840861 4.9684845e-39
0.88583463 0.071213037 0.068840861 5.3372656e-39
0.88333464 0.073713034 0.068840861 5.6167406e-39
0.88333464 0.076213032 0.068840861 2.6643224e-39
0.88333464 0.076213032 0.071340866 0
0.88583463 0.073713034 0.068840861 5.0653548e-39
0.88583463 0.076213032 0.068840861 4.6926263e-39
0.88833469 0.068713032 0.068840861 3.4980067e-39
0.88833469 0.071213037 0.068840861 4.5117999e-39
0.88833469 0.071213037 0.071340866 1.3775465e-39
0.89083469 0.068713032 0.068840861 9.1835496e-41
0.89083469 0.071213037 0.068840861 1.6530389e-39
0.89083469 0.071213037 0.071340866 6.0680231e-39
0.88833469 0.073713034 0.068840861 3.6870839e-39
0.88833469 0.073713034 0.071340866 8.0062697e-39
0.88833469 0.076213032 0.068840861 3.730817e-40
0.89083469 0.073713034 0.068840861 1.6530389e-39
0.89083469 0.073713034 0.071340866 6.1645123e-39
0.89083469 0.076213032 0.068840861 1.821688e-44
0.88333464 0.08621303 0.063840866 1.3638098e-38
0.88833469 0.07871303 0.066340864 2.6650413e-39
0.89083469 0.07871303 0.066340864 7.1746481e-43
0.88333464 0.07871303 0.068840861 3.2142424e-39
0.88583463 0.07871303 0.068840861 2.3895432e-39
0.88833469 0.07871303 0.068840861 3.5873241e-43
0.89333469 0.076213032 0.066340864 3.3183e-39
0.89333469 0.068713032 0.068840861 8.2651947e-40
0.89333469 0.071213037 0.068840861 1.4693763e-39
0.89333469 0.073713034 0.068840861 2.4795584e-39
0.87583464 0.088713035 0.063840866 2.1382531e-38
0.87833464 0.088713035 0.063840866 2.1935703e-38
