# .PCD v0.7 - Point Cloud Data file format
VERSION 0.7
FIELDS x y z rgb
SIZE 4 4 4 4
TYPE F F F F
COUNT 1 1 1 1
WIDTH 238
HEIGHT 1
VIEWPOINT 0 0 0 1 0 0 0
POINTS 238
DATA ascii
0.86654812 0.061267812 0.065603524 4.8806048e-39
0.86904812 0.061267812 0.063103527 6.3543056e-39
0.87154812 0.058767814 0.063103527 6.6337539e-39
0.87154812 0.061267812 0.063103527 6.1713437e-39
0.86904812 0.058767814 0.065603524 7.2755262e-39
0.86904812 0.061267812 0.065603524 5.9869524e-39
0.87154812 0.058767814 0.065603524 6.5412052e-39
0.87154812 0.058767814 0.068103522 7.0021763e-39
0.87154812 0.061267812 0.065603524 7.4567127e-39
0.87154812 0.061267812 0.068103522 7.8290699e-39
0.87404811 0.056267813 0.065603524 4.1451908e-39
0.87404811 0.056267813 0.068103522 4.5154054e-39
0.87654811 0.058767814 0.063103527 6.4490081e-39
0.87404811 0.058767814 0.065603524 6.5415583e-39
0.87404811 0.058767814 0.068103522 7.8304923e-39
0.87404811 0.061267812 0.065603524 6.263189e-39
0.87404811 0.061267812 0.068103522 7.3720533e-39
0.87654811 0.058767814 0.065603524 7.2805611e-39
0.87654811 0.061267812 0.065603524 7.8308608e-39
0.86154813 0.066267811 0.065603524 4.6054655e-39
0.86154813 0.071267813 0.063103527 4.6051124e-39
0.86154813 0.068767816 0.065603524 4.6980114e-39
0.86154813 0.071267813 0.065603524 4.6036662e-39
0.86404812 0.066267811 0.063103527 4.4210742e-39
0.86404812 0.066267811 0.065603524 4.9731592e-39
0.86654812 0.063767813 0.065603524 4.7880589e-39
0.86654812 0.066267811 0.065603524 4.052642e-39
0.86404812 0.068767816 0.063103527 4.7880589e-39
0.86404812 0.071267813 0.063103527 4.1470055e-39
0.86404812 0.068767816 0.065603524 4.5132699e-39
0.86404812 0.071267813 0.065603524 4.9724305e-39
0.86654812 0.068767816 0.065603524 4.7884092e-39
0.86654812 0.071267813 0.065603524 4.5132699e-39
0.86154813 0.076267816 0.063103527 4.0548098e-39
0.86154813 0.073767811 0.065603524 4.6980114e-39
0.86154813 0.076267816 0.065603524 5.4355765e-39
0.86154813 0.078767814 0.065603524 3.3197433e-39
0.86404812 0.073767811 0.063103527 4.9724305e-39
0.86404812 0.076267816 0.063103527 5.2540523e-39
0.86404812 0.073767811 0.065603524 4.6058158e-39
0.86404812 0.076267816 0.065603524 5.7121634e-39
0.86654812 0.073767811 0.065603524 4.7887595e-39
0.86654812 0.076267816 0.065603524 5.8050625e-39
0.86404812 0.078767814 0.063103527 6.5404625e-39
0.86404812 0.081267811 0.063103527 4.8784553e-39
0.86404812 0.078767814 0.065603524 4.3321058e-39
0.86654812 0.078767814 0.065603524 6.1731415e-39
0.86654812 0.081267811 0.065603524 3.2222003e-39
0.86904812 0.063767813 0.063103527 4.5136202e-39
0.86904812 0.066267811 0.063103527 4.6980114e-39
0.87154812 0.063767813 0.063103527 4.3277898e-39
0.87154812 0.066267811 0.063103527 4.6029474e-39
0.86904812 0.063767813 0.068103522 5.7968158e-39
0.86904812 0.066267811 0.065603524 4.0522917e-39
0.86904812 0.066267811 0.068103522 4.7880589e-39
0.87154812 0.063767813 0.068103522 9.6711707e-39
0.87154812 0.066267811 0.065603524 5.7046202e-39
0.87154812 0.066267811 0.068103522 8.2882362e-39
0.86904812 0.068767816 0.063103527 4.7887595e-39
0.86904812 0.071267813 0.063103527 4.236683e-39
0.87154812 0.068767816 0.063103527 4.6043669e-39
0.87154812 0.071267813 0.063103527 4.6036662e-39
0.86904812 0.068767816 0.065603524 4.6043669e-39
0.86904812 0.068767816 0.068103522 4.8802545e-39
0.86904812 0.071267813 0.065603524 4.6040166e-39
0.86904812 0.071267813 0.068103522 5.0650045e-39
0.87154812 0.068767816 0.065603524 5.5216583e-39
0.87154812 0.068767816 0.068103522 7.366647e-39
0.87154812 0.071267813 0.065603524 4.9724501e-39
0.87154812 0.071267813 0.068103522 7.3684407e-39
0.87654811 0.063767813 0.063103527 5.3361964e-39
0.87654811 0.066267811 0.063103527 5.7046202e-39
0.87404811 0.063767813 0.065603524 4.7880589e-39
0.87404811 0.063767813 0.068103522 8.3865653e-39
0.87404811 0.066267811 0.065603524 5.428392e-39
0.87404811 0.066267811 0.068103522 7.7375357e-39
0.87654811 0.063767813 0.065603524 9.3967474e-39
0.87654811 0.066267811 0.065603524 8.3825968e-39
0.87654811 0.068767816 0.063103527 4.8806048e-39
0.87404811 0.068767816 0.065603524 4.7884092e-39
0.87404811 0.068767816 0.068103522 6.5382947e-39
0.87404811 0.071267813 0.065603524 4.6051124e-39
0.87404811 0.071267813 0.068103522 5.5277315e-39
0.87654811 0.068767816 0.065603524 6.9099807e-39
0.87654811 0.071267813 0.065603524 6.3586118e-39
0.86904812 0.073767811 0.063103527 4.2377368e-39
0.86904812 0.076267816 0.063103527 6.0787781e-39
0.87154812 0.073767811 0.063103527 4.8806048e-39
0.87154812 0.076267816 0.063103527 5.7107242e-39
0.86904812 0.073767811 0.065603524 5.0646262e-39
0.86904812 0.076267816 0.065603524 6.0798515e-39
0.86904812 0.076267816 0.068103522 6.9975072e-39
0.87154812 0.073767811 0.065603524 5.0650045e-39
0.87154812 0.073767811 0.068103522 6.3582559e-39
0.87154812 0.076267816 0.065603524 6.3560937e-39
0.87154812 0.076267816 0.068103522 7.0947475e-39
0.86904812 0.078767814 0.063103527 4.6980114e-39
0.86904812 0.081267811 0.063103527 2.5789987e-39
0.87154812 0.078767814 0.063103527 6.4500787e-39
0.87154812 0.081267811 0.063103527 4.2330886e-39
0.86904812 0.078767814 0.065603524 6.8167033e-39
0.86904812 0.078767814 0.068103522 7.4581168e-39
0.86904812 0.081267811 0.065603524 4.1423392e-39
0.86904812 0.081267811 0.068103522 4.6004432e-39
0.87154812 0.078767814 0.065603524 6.7248678e-39
0.87154812 0.078767814 0.068103522 6.3575006e-39
0.87154812 0.081267811 0.065603524 4.5100427e-39
0.87154812 0.081267811 0.068103522 3.9593772e-39
0.87404811 0.073767811 0.065603524 4.697308e-39
0.87404811 0.073767811 0.068103522 6.1749016e-39
0.87404811 0.076267816 0.065603524 6.2642483e-39
0.87404811 0.076267816 0.068103522 7.0043021e-39
0.87654811 0.073767811 0.065603524 5.9891006e-39
0.87654811 0.076267816 0.065603524 5.8057659e-39
0.87404811 0.078767814 0.065603524 8.2885991e-39
0.87404811 0.078767814 0.068103522 7.4627915e-39
0.87404811 0.081267811 0.065603524 3.9572276e-39
0.87404811 0.081267811 0.068103522 6.5404751e-39
0.87904811 0.058767814 0.068103522 7.9230466e-39
0.87904811 0.061267812 0.068103522 6.8167131e-39
0.88154811 0.058767814 0.068103522 6.4497284e-39
0.88154811 0.061267812 0.068103522 7.2762675e-39
0.8865481 0.061267812 0.068103522 5.0603102e-39
0.87904811 0.063767813 0.068103522 5.065352e-39
0.87904811 0.066267811 0.068103522 2.6679055e-39
0.88154811 0.063767813 0.068103522 5.3401593e-39
0.88154811 0.066267811 0.065603524 4.6050941e-39
0.88154811 0.066267811 0.068103522 3.1277963e-39
0.87904811 0.068767816 0.068103522 2.0232508e-39
0.87904811 0.071267813 0.068103522 2.1190365e-39
0.88154811 0.068767816 0.065603524 1.6573507e-39
0.88154811 0.068767816 0.068103522 3.1296264e-39
0.88154811 0.071267813 0.065603524 2.2998335e-39
0.88154811 0.071267813 0.068103522 3.7714084e-39
0.8865481 0.063767813 0.068103522 5.336897e-39
0.8865481 0.066267811 0.068103522 4.8766083e-39
0.8840481 0.068767816 0.065603524 2.8519689e-39
0.8840481 0.071267813 0.065603524 3.0352503e-39
0.8865481 0.068767816 0.068103522 3.9586471e-39
0.8865481 0.071267813 0.065603524 3.2207528e-39
0.87904811 0.073767811 0.068103522 2.8533758e-39
0.87904811 0.076267816 0.068103522 4.2298502e-39
0.88154811 0.073767811 0.065603524 2.1179828e-39
0.88154811 0.073767811 0.068103522 3.0381174e-39
0.88154811 0.076267816 0.068103522 3.2218276e-39
0.87904811 0.078767814 0.068103522 4.6072227e-39
0.87904811 0.081267811 0.068103522 5.8057659e-39
0.88154811 0.078767814 0.068103522 3.6856167e-39
0.88154811 0.081267811 0.068103522 3.7796102e-39
0.8840481 0.073767811 0.065603524 3.5913136e-39
0.8840481 0.076267816 0.065603524 2.7630145e-39
0.8865481 0.073767811 0.065603524 3.2243457e-39
0.8865481 0.073767811 0.068103522 6.1666577e-39
0.8865481 0.076267816 0.068103522 4.5085951e-39
0.8840481 0.081267811 0.065603524 3.7796074e-39
0.8865481 0.078767814 0.068103522 2.2987769e-39
0.8865481 0.081267811 0.068103522 4.7754458e-39
0.8890481 0.063767813 0.065603524 3.3161308e-39
0.8890481 0.066267811 0.065603524 5.1525058e-39
0.8890481 0.066267811 0.068103522 3.8657326e-39
0.8915481 0.066267811 0.065603524 5.4312787e-39
0.8890481 0.068767816 0.065603524 4.691878e-39
0.8890481 0.068767816 0.068103522 3.4980067e-39
0.8890481 0.071267813 0.065603524 5.5219974e-39
0.8890481 0.071267813 0.068103522 4.5117999e-39
0.8915481 0.068767816 0.065603524 2.9470035e-39
0.8915481 0.071267813 0.065603524 3.9607967e-39
0.8890481 0.073767811 0.065603524 5.3405124e-39
0.8890481 0.073767811 0.068103522 3.6870867e-39
0.8890481 0.076267816 0.065603524 4.0504938e-39
0.8890481 0.076267816 0.068103522 4.6419973e-40
0.8915481 0.073767811 0.065603524 5.3412327e-39
0.8915481 0.076267816 0.065603524 2.8053014e-40
0.8890481 0.078767814 0.068103522 7.1746481e-43
0.86904812 0.083767816 0.063103527 7.9238173e-39
0.87154812 0.083767816 0.063103527 8.5677294e-39
0.87154812 0.086267814 0.063103527 1.4006158e-38
0.86904812 0.083767816 0.065603524 8.6588292e-39
0.87154812 0.083767816 0.065603524 8.0116815e-39
0.87654811 0.083767816 0.063103527 8.0138367e-39
0.87654811 0.086267814 0.063103527 1.4098706e-38
0.87404811 0.083767816 0.065603524 7.9209363e-39
0.87404811 0.083767816 0.068103522 7.368075e-39
0.87404811 0.086267814 0.065603524 1.437494e-38
0.87654811 0.083767816 0.065603524 6.7209301e-39
0.87654811 0.086267814 0.065603524 1.4007232e-38
0.87904811 0.086267814 0.063103527 1.4006879e-38
0.87904811 0.083767816 0.068103522 6.4489647e-39
0.88154811 0.083767816 0.065603524 6.4500213e-39
0.88154811 0.086267814 0.065603524 1.3730294e-38
0.87904811 0.088767812 0.063103527 2.2027183e-38
0.8840481 0.086267814 0.063103527 1.3823567e-38
0.87654811 0.056267813 0.07060352 3.9586345e-39
0.87404811 0.058767814 0.07060352 7.7379463e-39
0.87404811 0.061267812 0.07060352 7.4606602e-39
0.87404811 0.061267812 0.073103525 6.7256119e-39
0.87654811 0.058767814 0.07060352 7.8304923e-39
0.87654811 0.061267812 0.07060352 7.4606602e-39
0.87404811 0.063767813 0.07060352 4.1448124e-39
0.87654811 0.063767813 0.07060352 5.7089418e-39
0.87654811 0.066267811 0.07060352 2.8530044e-39
0.87654811 0.068767816 0.07060352 1.841742e-39
0.86904812 0.078767814 0.07060352 7.555685e-39
0.87654811 0.073767811 0.07060352 3.4966166e-39
0.87654811 0.076267816 0.07060352 4.3263773e-39
0.87404811 0.078767814 0.07060352 5.1636167e-39
0.87404811 0.081267811 0.07060352 3.4072404e-39
0.87654811 0.078767814 0.07060352 4.1494662e-39
0.87654811 0.081267811 0.07060352 5.4373393e-39
0.87904811 0.058767814 0.07060352 6.0809459e-39
0.87904811 0.061267812 0.07060352 7.0936909e-39
0.87904811 0.063767813 0.07060352 4.6058158e-39
0.87904811 0.066267811 0.07060352 3.0352909e-39
0.88154811 0.063767813 0.07060352 4.7844295e-39
0.88154811 0.066267811 0.07060352 4.4142191e-39
0.87904811 0.068767816 0.07060352 3.1274459e-39
0.88154811 0.068767816 0.07060352 4.5078651e-39
0.8840481 0.066267811 0.07060352 4.8751958e-39
0.8865481 0.071267813 0.07060352 1.6541151e-39
0.87904811 0.073767811 0.07060352 3.2199919e-39
0.87904811 0.076267816 0.07060352 3.4083839e-39
0.88154811 0.076267816 0.07060352 4.3245626e-39
0.87904811 0.078767814 0.07060352 3.1346038e-39
0.87904811 0.081267811 0.07060352 4.2387821e-39
0.8840481 0.076267816 0.07060352 2.6650413e-39
0.8865481 0.073767811 0.07060352 3.3183e-39
0.8865481 0.076267816 0.07060352 9.6499017e-41
0.8840481 0.078767814 0.07060352 3.5815844e-39
0.8840481 0.081267811 0.07060352 4.6861214e-39
0.8865481 0.078767814 0.07060352 7.1746481e-43
0.8890481 0.068767816 0.07060352 3.6734198e-40
0.8890481 0.071267813 0.07060352 1.5612034e-39
0.8890481 0.071267813 0.073103525 5.7017517e-39
0.8915481 0.071267813 0.07060352 6.2524074e-39
0.8890481 0.073767811 0.07060352 1.7448744e-39
0.8890481 0.076267816 0.07060352 1.4012985e-45
0.8915481 0.073767811 0.07060352 6.4400048e-39
0.89404809 0.073767811 0.07060352 8.0999115e-39
