# .PCD v0.7 - Point Cloud Data file format
VERSION 0.7
FIELDS x y z rgb
SIZE 4 4 4 4
TYPE F F F F
COUNT 1 1 1 1
WIDTH 243
HEIGHT 1
VIEWPOINT 0 0 0 1 0 0 0
POINTS 243
DATA ascii
0.86288577 0.065734409 0.06361109 4.5132699e-39
0.86538577 0.063234411 0.06361109 4.7887595e-39
0.86538577 0.065734409 0.06361109 4.6965625e-39
0.86788577 0.058234408 0.06361109 6.0809459e-39
0.86788577 0.060734406 0.06361109 5.894405e-39
0.87038577 0.058234408 0.066111088 7.0907748e-39
0.87038577 0.060734406 0.066111088 5.8947554e-39
0.86788577 0.063234411 0.06361109 4.8802545e-39
0.86788577 0.065734409 0.06361109 4.7884092e-39
0.87038577 0.063234411 0.066111088 4.7884092e-39
0.87038577 0.065734409 0.066111088 3.9604464e-39
0.87288576 0.058234408 0.06361109 7.2755262e-39
0.87288576 0.058234408 0.066111088 6.6323204e-39
0.87288576 0.060734406 0.06361109 6.6280044e-39
0.87288576 0.060734406 0.066111088 7.4567127e-39
0.87538576 0.058234408 0.06361109 4.3292121e-39
0.87538576 0.058234408 0.066111088 6.8177851e-39
0.87538576 0.060734406 0.066111088 7.6464765e-39
0.87288576 0.063234411 0.06361109 4.3277898e-39
0.87288576 0.063234411 0.066111088 6.0737783e-39
0.87288576 0.065734409 0.06361109 4.6040166e-39
0.87288576 0.065734409 0.066111088 5.7046202e-39
0.87538576 0.063234411 0.066111088 8.7528241e-39
0.87538576 0.065734409 0.06361109 5.6138539e-39
0.87538576 0.065734409 0.066111088 8.2882362e-39
0.87038577 0.058234408 0.068611085 7.095451e-39
0.87038577 0.060734406 0.068611085 8.0134542e-39
0.87038577 0.063234411 0.068611085 8.8435736e-39
0.87038577 0.065734409 0.068611085 8.1034862e-39
0.87538576 0.058234408 0.068611085 7.372391e-39
0.87538576 0.060734406 0.068611085 7.8308608e-39
0.87288576 0.063234411 0.068611085 8.6606285e-39
0.87288576 0.065734409 0.068611085 7.3701979e-39
0.87538576 0.063234411 0.068611085 8.5684258e-39
0.87538576 0.065734409 0.068611085 7.3698476e-39
0.86288577 0.068234406 0.06361109 4.6054655e-39
0.86288577 0.068234406 0.066111088 4.4214246e-39
0.86288577 0.070734411 0.06361109 4.1455467e-39
0.86288577 0.070734411 0.066111088 4.2366886e-39
0.86538577 0.068234406 0.06361109 4.7880589e-39
0.86538577 0.070734411 0.06361109 4.6054655e-39
0.86288577 0.073234409 0.06361109 3.9607967e-39
0.86288577 0.073234409 0.066111088 4.1441342e-39
0.86538577 0.073234409 0.06361109 4.9731592e-39
0.86538577 0.075734407 0.06361109 6.0794984e-39
0.86538577 0.078234404 0.06361109 5.8976112e-39
0.86538577 0.078234404 0.07111109 7.6471828e-39
0.86788577 0.068234406 0.06361109 4.6058158e-39
0.86788577 0.068234406 0.066111088 4.3281401e-39
0.86788577 0.070734411 0.06361109 4.7880589e-39
0.86788577 0.070734411 0.066111088 4.78734e-39
0.87038577 0.068234406 0.066111088 4.5136202e-39
0.87038577 0.070734411 0.066111088 5.3401593e-39
0.86788577 0.073234409 0.06361109 4.8802545e-39
0.86788577 0.073234409 0.066111088 5.0635668e-39
0.86788577 0.075734407 0.06361109 6.0794984e-39
0.86788577 0.075734407 0.066111088 6.355365e-39
0.87038577 0.073234409 0.066111088 5.1532345e-39
0.87038577 0.075734407 0.066111088 6.079148e-39
0.87288576 0.068234406 0.06361109 4.6962136e-39
0.87288576 0.068234406 0.066111088 4.8806048e-39
0.87288576 0.070734411 0.06361109 4.6040166e-39
0.87288576 0.070734411 0.066111088 4.6958633e-39
0.87538576 0.068234406 0.06361109 4.3270807e-39
0.87538576 0.068234406 0.066111088 7.4609895e-39
0.87538576 0.070734411 0.066111088 6.6337539e-39
0.87288576 0.073234409 0.06361109 5.7046202e-39
0.87288576 0.073234409 0.066111088 4.9717467e-39
0.87288576 0.075734407 0.06361109 6.0794984e-39
0.87288576 0.075734407 0.066111088 5.9869524e-39
0.87538576 0.073234409 0.06361109 4.5129167e-39
0.87538576 0.073234409 0.066111088 6.6337539e-39
0.87538576 0.075734407 0.066111088 6.8167159e-39
0.86788577 0.068234406 0.068611085 4.7880589e-39
0.86788577 0.070734411 0.068611085 4.5132699e-39
0.87038577 0.068234406 0.068611085 7.5531851e-39
0.87038577 0.070734411 0.068611085 6.8177851e-39
0.86788577 0.073234409 0.068611085 5.3401593e-39
0.86788577 0.075734407 0.068611085 6.5404751e-39
0.87038577 0.073234409 0.068611085 6.8177851e-39
0.87038577 0.073234409 0.07111109 5.5292141e-39
0.87038577 0.075734407 0.068611085 6.2657071e-39
0.87038577 0.075734407 0.07111109 7.2805611e-39
0.87288576 0.068234406 0.068611085 6.541882e-39
0.87288576 0.070734411 0.068611085 6.0816493e-39
0.87538576 0.068234406 0.068611085 6.6340776e-39
0.87538576 0.070734411 0.068611085 5.8965126e-39
0.87288576 0.073234409 0.068611085 6.173845e-39
0.87288576 0.075734407 0.068611085 5.9898251e-39
0.87288576 0.075734407 0.07111109 4.3270863e-39
0.87538576 0.073234409 0.068611085 6.2642427e-39
0.87538576 0.075734407 0.068611085 4.418203e-39
0.86788577 0.078234404 0.06361109 5.6224943e-39
0.86788577 0.078234404 0.066111088 6.5401248e-39
0.86788577 0.080734409 0.06361109 4.2392011e-39
0.86788577 0.080734409 0.066111088 4.7862624e-39
0.87038577 0.078234404 0.066111088 6.4497284e-39
0.87038577 0.080734409 0.066111088 5.2511852e-39
0.86788577 0.083234407 0.06361109 7.741954e-39
0.87038577 0.083234407 0.066111088 9.0269097e-39
0.87288576 0.078234404 0.06361109 6.8167033e-39
0.87288576 0.078234404 0.066111088 6.8174221e-39
0.87288576 0.080734409 0.06361109 4.4174813e-39
0.87288576 0.080734409 0.066111088 4.3245948e-39
0.87538576 0.078234404 0.066111088 8.1967538e-39
0.87538576 0.080734409 0.066111088 6.7219839e-39
0.87288576 0.083234407 0.06361109 8.6581201e-39
0.87288576 0.083234407 0.066111088 8.1060324e-39
0.87288576 0.085734405 0.06361109 1.4374584e-38
0.87288576 0.085734405 0.066111088 1.4558978e-38
0.87538576 0.083234407 0.06361109 7.8287406e-39
0.87538576 0.083234407 0.066111088 7.3673813e-39
0.87538576 0.085734405 0.06361109 1.4374587e-38
0.87538576 0.085734405 0.066111088 1.4006523e-38
0.86788577 0.078234404 0.068611085 8.2889495e-39
0.86788577 0.078234404 0.07111109 7.6471828e-39
0.86788577 0.080734409 0.068611085 4.6944395e-39
0.87038577 0.078234404 0.068611085 8.2885991e-39
0.87038577 0.078234404 0.07111109 7.6475359e-39
0.87038577 0.080734409 0.068611085 4.3252857e-39
0.87038577 0.080734409 0.07111109 4.6011495e-39
0.87038577 0.083234407 0.068611085 6.9964534e-39
0.87288576 0.078234404 0.068611085 7.5549872e-39
0.87288576 0.078234404 0.07111109 4.3338602e-39
0.87288576 0.080734409 0.068611085 4.3259863e-39
0.87288576 0.080734409 0.07111109 5.1632608e-39
0.87538576 0.078234404 0.068611085 7.5549872e-39
0.87538576 0.080734409 0.068611085 6.2642483e-39
0.87538576 0.083234407 0.068611085 7.3684407e-39
0.87538576 0.08823441 0.06361109 2.1565846e-38
0.87788576 0.058234408 0.066111088 4.0533455e-39
0.87788576 0.065734409 0.066111088 8.3818542e-39
0.88038576 0.065734409 0.066111088 4.6983464e-39
0.88538575 0.065734409 0.066111088 4.2341424e-39
0.87788576 0.058234408 0.068611085 7.372391e-39
0.87788576 0.058234408 0.07111109 6.0805956e-39
0.87788576 0.060734406 0.068611085 7.7372456e-39
0.87788576 0.060734406 0.07111109 7.2762675e-39
0.88038576 0.058234408 0.068611085 6.3575314e-39
0.88038576 0.060734406 0.068611085 7.0018484e-39
0.87788576 0.063234411 0.068611085 5.9855287e-39
0.87788576 0.063234411 0.07111109 4.6966045e-39
0.87788576 0.065734409 0.068611085 4.6943989e-39
0.87788576 0.065734409 0.07111109 3.2196416e-39
0.88038576 0.063234411 0.068611085 4.7891533e-39
0.88038576 0.065734409 0.068611085 4.8784426e-39
0.88038576 0.065734409 0.07111109 5.0609968e-39
0.88288575 0.060734406 0.068611085 3.9615002e-39
0.88288575 0.063234411 0.068611085 3.5008808e-39
0.88288575 0.065734409 0.068611085 3.7714084e-39
0.88538575 0.063234411 0.068611085 4.5117999e-39
0.88538575 0.065734409 0.068611085 4.87557e-39
0.88788575 0.063234411 0.066111088 3.5927205e-39
0.88788575 0.065734409 0.066111088 4.7844295e-39
0.89038575 0.065734409 0.068611085 5.7099928e-39
0.87788576 0.068234406 0.066111088 6.8177851e-39
0.87788576 0.070734411 0.066111088 6.3575006e-39
0.88038576 0.068234406 0.066111088 2.6686118e-39
0.88038576 0.070734411 0.066111088 2.3927452e-39
0.87788576 0.073234409 0.066111088 6.5415583e-39
0.87788576 0.075734407 0.066111088 6.1742135e-39
0.88038576 0.073234409 0.066111088 3.8649872e-39
0.88288575 0.070734411 0.066111088 2.7608088e-39
0.88538575 0.068234406 0.066111088 3.68097e-39
0.88538575 0.070734411 0.066111088 3.4973355e-39
0.88288575 0.073234409 0.066111088 2.9448525e-39
0.88538575 0.073234409 0.066111088 2.9484679e-39
0.88538575 0.075734407 0.066111088 2.5786232e-39
0.87788576 0.068234406 0.068611085 2.7611633e-39
0.87788576 0.068234406 0.07111109 3.3147267e-39
0.87788576 0.070734411 0.068611085 2.1179828e-39
0.88038576 0.068234406 0.068611085 3.6806323e-39
0.88038576 0.068234406 0.07111109 4.2352354e-39
0.88038576 0.070734411 0.068611085 3.957578e-39
0.87788576 0.073234409 0.068611085 2.1179828e-39
0.87788576 0.075734407 0.068611085 3.404051e-39
0.87788576 0.075734407 0.07111109 3.867197e-39
0.88038576 0.073234409 0.068611085 3.0381174e-39
0.88038576 0.075734407 0.068611085 3.8668467e-39
0.88038576 0.075734407 0.07111109 2.6653888e-39
0.88288575 0.068234406 0.068611085 2.6679349e-39
0.88288575 0.070734411 0.068611085 3.7757048e-39
0.88538575 0.068234406 0.068611085 4.6911773e-39
0.88288575 0.073234409 0.068611085 2.6689859e-39
0.88288575 0.075734407 0.068611085 3.1289229e-39
0.88538575 0.073234409 0.068611085 5.0671429e-39
0.88538575 0.075734407 0.068611085 4.0504938e-39
0.87788576 0.083234407 0.066111088 7.0872043e-39
0.87788576 0.085734405 0.066111088 1.4006523e-38
0.88038576 0.083234407 0.066111088 6.9016696e-39
0.88038576 0.085734405 0.06361109 1.4006513e-38
0.88038576 0.085734405 0.066111088 1.3729568e-38
0.88288575 0.085734405 0.06361109 1.3638101e-38
0.87788576 0.078234404 0.068611085 4.6994155e-39
0.87788576 0.078234404 0.07111109 3.4108277e-39
0.87788576 0.080734409 0.068611085 5.4373393e-39
0.87788576 0.080734409 0.07111109 3.8718059e-39
0.88038576 0.078234404 0.068611085 3.3200684e-39
0.88038576 0.078234404 0.07111109 2.9387359e-39
0.88038576 0.080734409 0.068611085 3.8732338e-39
0.87788576 0.083234407 0.068611085 3.1306577e-39
0.88038576 0.083234407 0.068611085 3.5888179e-39
0.88288575 0.078234404 0.068611085 3.4083839e-39
0.88288575 0.080734409 0.068611085 4.6836103e-39
0.88538575 0.078234404 0.068611085 2.4835269e-39
0.88538575 0.080734409 0.068611085 4.7793919e-39
0.88788575 0.068234406 0.066111088 3.9593478e-39
0.88788575 0.070734411 0.066111088 3.68097e-39
0.89038575 0.070734411 0.066111088 4.6040166e-39
0.88788575 0.073234409 0.066111088 3.0406635e-39
0.88788575 0.075734407 0.066111088 5.1586393e-39
0.89038575 0.073234409 0.066111088 5.1586393e-39
0.89038575 0.075734407 0.06361109 3.6817267e-39
0.89038575 0.075734407 0.066111088 5.3419319e-39
0.8928858 0.068234406 0.066111088 3.6806323e-39
0.8928858 0.070734411 0.066111088 3.682042e-39
0.8928858 0.073234409 0.066111088 3.9640197e-39
0.8928858 0.075734407 0.066111088 9.2373595e-40
0.88788575 0.068234406 0.068611085 4.0508302e-39
0.88788575 0.068234406 0.07111109 6.4284847e-40
0.88788575 0.070734411 0.07111109 1.102026e-39
0.89038575 0.068234406 0.068611085 3.3136154e-39
0.89038575 0.068234406 0.07111109 4.7762025e-39
0.89038575 0.070734411 0.068611085 4.5118027e-39
0.89038575 0.070734411 0.07111109 5.8832759e-39
0.88788575 0.070734411 0.073611088 6.4371658e-39
0.88788575 0.073234409 0.068611085 3.4101411e-39
0.88788575 0.073234409 0.07111109 1.102026e-39
0.88788575 0.075734407 0.068611085 7.4150829e-40
0.88788575 0.075734407 0.07111109 4.2038954e-45
0.89038575 0.073234409 0.068611085 3.9633135e-39
0.89038575 0.073234409 0.07111109 6.1641564e-39
0.89038575 0.075734407 0.068611085 3.4101411e-39
0.89038575 0.075734407 0.07111109 8.008069e-39
0.88788575 0.073234409 0.073611088 5.8879451e-39
0.8928858 0.070734411 0.073611088 2.027511e-38
0.8928858 0.075734407 0.068611085 1.2611686e-44
0.8928858 0.073234409 0.073611088 2.0827558e-38
0.8928858 0.075734407 0.073611088 2.165732e-38
0.88788575 0.078234404 0.066111088 2.6650413e-39
0.88788575 0.078234404 0.068611085 7.1746481e-43
0.89038575 0.078234404 0.068611085 0
0.88038576 0.08823441 0.06361109 2.1842433e-38
