# .PCD v0.7 - Point Cloud Data file format
VERSION 0.7
FIELDS x y z rgb
SIZE 4 4 4 4
TYPE F F F F
COUNT 1 1 1 1
WIDTH 261
HEIGHT 1
VIEWPOINT 0 0 0 1 0 0 0
POINTS 261
DATA ascii
0.86636364 0.060734406 0.065206021 6.3543056e-39
0.86636364 0.063234411 0.062706023 4.7880589e-39
0.86636364 0.065734409 0.062706023 4.8802545e-39
0.86386365 0.063234411 0.065206021 4.7880589e-39
0.86386365 0.065734409 0.065206021 4.8802545e-39
0.86636364 0.063234411 0.065206021 4.5136202e-39
0.86636364 0.065734409 0.065206021 4.9731592e-39
0.87386364 0.055734407 0.065206021 5.7906725e-39
0.86886364 0.058234408 0.062706023 6.079148e-39
0.86886364 0.060734406 0.062706023 5.5256239e-39
0.87136364 0.058234408 0.062706023 7.3677218e-39
0.87136364 0.060734406 0.062706023 5.9866021e-39
0.86886364 0.058234408 0.065206021 7.3687938e-39
0.86886364 0.060734406 0.065206021 5.8947554e-39
0.86886364 0.060734406 0.067706019 5.0643011e-39
0.87136364 0.058234408 0.065206021 6.6334008e-39
0.87136364 0.058234408 0.067706019 6.9099807e-39
0.87136364 0.060734406 0.065206021 6.9078605e-39
0.87136364 0.060734406 0.067706019 7.6464765e-39
0.86886364 0.063234411 0.062706023 4.7887595e-39
0.86886364 0.065734409 0.062706023 4.6043669e-39
0.87136364 0.063234411 0.062706023 4.3270807e-39
0.87136364 0.065734409 0.062706023 4.2352354e-39
0.86886364 0.063234411 0.065206021 4.1455467e-39
0.86886364 0.063234411 0.067706019 5.7986039e-39
0.86886364 0.065734409 0.065206021 4.6036662e-39
0.86886364 0.065734409 0.067706019 5.6138539e-39
0.87136364 0.063234411 0.065206021 5.7968158e-39
0.87136364 0.063234411 0.067706019 9.4885773e-39
0.87136364 0.065734409 0.065206021 5.5205891e-39
0.87136364 0.065734409 0.067706019 8.0130884e-39
0.87636364 0.058234408 0.062706023 4.3285031e-39
0.87386364 0.058234408 0.065206021 4.3285087e-39
0.87386364 0.058234408 0.067706019 4.0529952e-39
0.87386364 0.060734406 0.065206021 6.7230951e-39
0.87386364 0.060734406 0.067706019 7.6468297e-39
0.87636364 0.058234408 0.065206021 3.8700332e-39
0.87636364 0.065734409 0.062706023 6.167378e-39
0.87386364 0.063234411 0.065206021 5.0639479e-39
0.87386364 0.063234411 0.067706019 8.5684258e-39
0.87386364 0.065734409 0.065206021 5.7060495e-39
0.87386364 0.065734409 0.067706019 7.647138e-39
0.87636364 0.065734409 0.065206021 9.3970823e-39
0.86136365 0.070734411 0.062706023 4.6955101e-39
0.86136365 0.073234409 0.062706023 4.6955101e-39
0.86636364 0.068234406 0.062706023 4.7880589e-39
0.86636364 0.070734411 0.062706023 4.7884092e-39
0.86386365 0.068234406 0.065206021 4.5132699e-39
0.86386365 0.070734411 0.065206021 4.5129167e-39
0.86636364 0.068234406 0.065206021 4.5132699e-39
0.86636364 0.070734411 0.065206021 4.7880589e-39
0.86636364 0.073234409 0.062706023 4.6962136e-39
0.86636364 0.075734407 0.062706023 5.9869524e-39
0.86386365 0.073234409 0.065206021 4.7880589e-39
0.86636364 0.073234409 0.065206021 4.6958633e-39
0.86636364 0.075734407 0.065206021 6.079148e-39
0.86636364 0.078234404 0.062706023 6.0812962e-39
0.86636364 0.080734409 0.062706023 3.12819e-39
0.86636364 0.078234404 0.065206021 6.4497284e-39
0.86636364 0.080734409 0.065206021 2.9459764e-39
0.86886364 0.068234406 0.062706023 4.2377424e-39
0.86886364 0.070734411 0.062706023 4.4210742e-39
0.87136364 0.068234406 0.062706023 3.8679005e-39
0.86886364 0.068234406 0.065206021 4.6036662e-39
0.86886364 0.068234406 0.067706019 4.236683e-39
0.86886364 0.070734411 0.065206021 5.4294626e-39
0.86886364 0.070734411 0.067706019 4.2366886e-39
0.87136364 0.068234406 0.065206021 4.4210742e-39
0.87136364 0.068234406 0.067706019 6.9099807e-39
0.87136364 0.070734411 0.065206021 4.8802545e-39
0.87136364 0.070734411 0.067706019 6.4511605e-39
0.86886364 0.075734407 0.062706023 4.8813139e-39
0.87136364 0.073234409 0.062706023 5.5216583e-39
0.87136364 0.075734407 0.062706023 4.7887595e-39
0.86886364 0.073234409 0.065206021 4.6036662e-39
0.86886364 0.073234409 0.067706019 4.6051124e-39
0.86886364 0.075734407 0.065206021 4.6043669e-39
0.86886364 0.075734407 0.067706019 6.263898e-39
0.87136364 0.073234409 0.065206021 5.3412327e-39
0.87136364 0.073234409 0.067706019 6.8195829e-39
0.87136364 0.075734407 0.065206021 5.5259743e-39
0.87136364 0.075734407 0.067706019 6.6348413e-39
0.87386364 0.068234406 0.065206021 4.9731592e-39
0.87386364 0.068234406 0.067706019 6.5415317e-39
0.87386364 0.070734411 0.065206021 4.8806048e-39
0.87386364 0.070734411 0.067706019 6.3575006e-39
0.87636364 0.068234406 0.065206021 7.0028854e-39
0.87636364 0.070734411 0.065206021 6.6337539e-39
0.87386364 0.073234409 0.065206021 5.341583e-39
0.87386364 0.073234409 0.067706019 6.3575006e-39
0.87386364 0.075734407 0.065206021 6.0794984e-39
0.87386364 0.075734407 0.067706019 6.9088695e-39
0.87636364 0.073234409 0.065206021 7.2755206e-39
0.86886364 0.078234404 0.062706023 5.8068757e-39
0.86886364 0.080734409 0.062706023 4.3321058e-39
0.87136364 0.078234404 0.062706023 6.7245174e-39
0.87136364 0.080734409 0.062706023 5.4337786e-39
0.86886364 0.078234404 0.065206021 6.6323204e-39
0.86886364 0.078234404 0.067706019 6.7248678e-39
0.86886364 0.080734409 0.065206021 4.0497764e-39
0.86886364 0.080734409 0.067706019 4.0490715e-39
0.87136364 0.078234404 0.065206021 6.6319715e-39
0.87136364 0.078234404 0.067706019 8.2889495e-39
0.87136364 0.080734409 0.065206021 5.6178196e-39
0.87136364 0.080734409 0.067706019 6.7219839e-39
0.87136364 0.083234407 0.062706023 8.6595593e-39
0.87136364 0.085734405 0.062706023 1.4006876e-38
0.86886364 0.083234407 0.065206021 8.5677294e-39
0.87136364 0.083234407 0.065206021 8.0134836e-39
0.87136364 0.083234407 0.067706019 7.2748228e-39
0.87386364 0.078234404 0.065206021 7.4581168e-39
0.87386364 0.078234404 0.067706019 7.3705903e-39
0.87386364 0.080734409 0.065206021 6.352128e-39
0.87386364 0.080734409 0.067706019 6.3567971e-39
0.87636364 0.083234407 0.062706023 8.1060324e-39
0.87636364 0.085734405 0.062706023 1.4190919e-38
0.87386364 0.083234407 0.065206021 7.9212866e-39
0.87386364 0.083234407 0.067706019 5.9848252e-39
0.87386364 0.085734405 0.065206021 1.4374937e-38
0.87636364 0.083234407 0.065206021 7.1826271e-39
0.87636364 0.085734405 0.065206021 1.3731018e-38
0.87136364 0.08823441 0.062706023 2.0829713e-38
0.87636364 0.08823441 0.062706023 2.1382178e-38
0.87636364 0.08823441 0.065206021 2.1936056e-38
0.87886363 0.058234408 0.065206021 4.6068696e-39
0.87886363 0.058234408 0.067706019 7.4652929e-39
0.87886363 0.060734406 0.065206021 7.4642503e-39
0.87886363 0.060734406 0.067706019 7.2766206e-39
0.88136363 0.060734406 0.067706019 6.6334162e-39
0.87886363 0.063234411 0.065206021 8.2018153e-39
0.87886363 0.063234411 0.067706019 5.9858818e-39
0.87886363 0.065734409 0.065206021 9.3066537e-39
0.87886363 0.065734409 0.067706019 4.1440936e-39
0.88136363 0.063234411 0.067706019 4.1441342e-39
0.88136363 0.065734409 0.067706019 4.0518965e-39
0.88636363 0.063234411 0.067706019 5.2447014e-39
0.88636363 0.065734409 0.067706019 5.5205344e-39
0.88886362 0.063234411 0.067706019 3.9589821e-39
0.88886362 0.065734409 0.067706019 4.690806e-39
0.89136362 0.063234411 0.065206021 4.4199602e-39
0.87886363 0.068234406 0.065206021 6.2649462e-39
0.87886363 0.068234406 0.067706019 2.2076392e-39
0.87886363 0.070734411 0.065206021 5.9894537e-39
0.87886363 0.070734411 0.067706019 2.8530044e-39
0.88136363 0.068234406 0.067706019 2.300202e-39
0.88136363 0.070734411 0.067706019 2.8533758e-39
0.87886363 0.073234409 0.065206021 5.8047093e-39
0.87886363 0.073234409 0.067706019 4.0461428e-39
0.87886363 0.075734407 0.067706019 4.506077e-39
0.88136363 0.073234409 0.067706019 3.4965774e-39
0.88136363 0.075734407 0.067706019 2.7608494e-39
0.88386363 0.068234406 0.067706019 3.3114897e-39
0.88386363 0.070734411 0.067706019 3.3133072e-39
0.88636363 0.068234406 0.067706019 4.506765e-39
0.88636363 0.070734411 0.065206021 3.8646733e-39
0.88636363 0.070734411 0.067706019 5.0646262e-39
0.88386363 0.073234409 0.067706019 4.2341424e-39
0.88636363 0.073234409 0.065206021 3.6834868e-39
0.88636363 0.073234409 0.067706019 5.341213e-39
0.88636363 0.075734407 0.065206021 3.588773e-39
0.88636363 0.075734407 0.067706019 4.2330732e-39
0.87886363 0.078234404 0.067706019 4.7919699e-39
0.88136363 0.078234404 0.067706019 3.408737e-39
0.87886363 0.085734405 0.062706023 1.391576e-38
0.87886363 0.083234407 0.065206021 6.5415583e-39
0.87886363 0.083234407 0.067706019 6.9070688e-39
0.87886363 0.085734405 0.065206021 1.3638451e-38
0.88136363 0.083234407 0.067706019 7.0889111e-39
0.88136363 0.085734405 0.065206021 1.3637371e-38
0.88636363 0.078234404 0.067706019 2.7572369e-39
0.88386363 0.085734405 0.062706023 1.3638098e-38
0.88886362 0.068234406 0.067706019 3.4051048e-39
0.88886362 0.070734411 0.067706019 4.8806048e-39
0.89136362 0.068234406 0.067706019 3.3107834e-39
0.89136362 0.070734411 0.065206021 4.3270807e-39
0.89136362 0.070734411 0.067706019 3.4980067e-39
0.88886362 0.073234409 0.067706019 3.5948911e-39
0.88886362 0.075734407 0.067706019 3.4101411e-39
0.89136362 0.073234409 0.065206021 5.341213e-39
0.89136362 0.073234409 0.067706019 3.6867336e-39
0.89136362 0.075734407 0.065206021 5.341213e-39
0.89136362 0.075734407 0.067706019 6.0998522e-42
0.89386368 0.073234409 0.067706019 1.2857026e-39
0.89386368 0.075734407 0.065206021 3.4101411e-39
0.88886362 0.078234404 0.067706019 2.6650413e-39
0.89136362 0.078234404 0.067706019 7.1746481e-43
0.89386368 0.078234404 0.062706023 4.5093014e-39
0.89386368 0.078234404 0.065206021 5.5747156e-40
0.87886363 0.08823441 0.062706023 2.1567641e-38
0.87136364 0.058234408 0.070206016 4.3306555e-39
0.87136364 0.060734406 0.070206016 7.8308608e-39
0.87136364 0.063234411 0.070206016 9.2155427e-39
0.87136364 0.065734409 0.070206016 7.3716301e-39
0.87636364 0.058234408 0.070206016 2.6718586e-39
0.87636364 0.060734406 0.070206016 7.64505e-39
0.87636364 0.063234411 0.070206016 6.3543112e-39
0.87636364 0.065734409 0.070206016 2.6689691e-39
0.86636364 0.078234404 0.070206016 8.3807948e-39
0.86636364 0.078234404 0.072706021 6.5408282e-39
0.86636364 0.080734409 0.072706021 4.3277898e-39
0.86886364 0.070734411 0.070206016 6.3578817e-39
0.87136364 0.068234406 0.070206016 6.5415317e-39
0.87136364 0.070734411 0.070206016 6.3575006e-39
0.86886364 0.073234409 0.070206016 6.4500787e-39
0.86886364 0.075734407 0.070206016 7.464602e-39
0.87136364 0.073234409 0.070206016 6.2649462e-39
0.87136364 0.075734407 0.070206016 6.081299e-39
0.87136364 0.075734407 0.072706021 4.1419706e-39
0.87636364 0.068234406 0.070206016 1.7495464e-39
0.87636364 0.070734411 0.070206016 2.4856568e-39
0.87386364 0.073234409 0.070206016 2.6686118e-39
0.87386364 0.075734407 0.070206016 4.3270863e-39
0.87386364 0.075734407 0.072706021 3.4083839e-39
0.87636364 0.073234409 0.070206016 3.2199919e-39
0.87636364 0.075734407 0.070206016 3.4047713e-39
0.86886364 0.078234404 0.070206016 8.3807948e-39
0.86886364 0.078234404 0.072706021 5.529179e-39
0.86886364 0.080734409 0.070206016 4.4153289e-39
0.86886364 0.080734409 0.072706021 4.7833379e-39
0.87136364 0.078234404 0.070206016 7.5549872e-39
0.87136364 0.078234404 0.072706021 5.1629104e-39
0.87136364 0.080734409 0.070206016 6.355365e-39
0.87136364 0.080734409 0.072706021 4.4149197e-39
0.86886364 0.078234404 0.075206019 3.5952386e-39
0.86886364 0.080734409 0.075206019 3.5866613e-39
0.87136364 0.083234407 0.070206016 7.2751759e-39
0.87386364 0.078234404 0.070206016 4.2413143e-39
0.87386364 0.080734409 0.070206016 5.3454912e-39
0.87636364 0.078234404 0.070206016 3.4115452e-39
0.87636364 0.080734409 0.070206016 5.987639e-39
0.87886363 0.058234408 0.070206016 6.1731415e-39
0.87886363 0.060734406 0.070206016 6.5408703e-39
0.88136363 0.060734406 0.070206016 4.052998e-39
0.87886363 0.063234411 0.070206016 4.6044089e-39
0.87886363 0.065734409 0.070206016 3.8632257e-39
0.88136363 0.063234411 0.070206016 3.4998242e-39
0.88136363 0.065734409 0.070206016 4.5989607e-39
0.88386363 0.060734406 0.070206016 4.1433733e-39
0.88386363 0.063234411 0.070206016 3.6823952e-39
0.88386363 0.065734409 0.070206016 5.0599374e-39
0.87886363 0.068234406 0.070206016 2.8519689e-39
0.87886363 0.070734411 0.070206016 3.6820799e-39
0.88136363 0.068234406 0.070206016 4.4156694e-39
0.87886363 0.073234409 0.070206016 3.0381174e-39
0.87886363 0.075734407 0.070206016 2.7630145e-39
0.87886363 0.075734407 0.072706021 1.6566445e-39
0.88136363 0.075734407 0.070206016 2.6650413e-39
0.88386363 0.068234406 0.070206016 3.9586471e-39
0.88386363 0.075734407 0.070206016 4.6011495e-39
0.87886363 0.078234404 0.070206016 3.685258e-39
0.87886363 0.078234404 0.072706021 3.6734198e-39
0.87886363 0.080734409 0.070206016 4.2384234e-39
0.88136363 0.078234404 0.070206016 3.1224069e-39
0.88136363 0.080734409 0.070206016 4.5932097e-39
0.87886363 0.083234407 0.070206016 3.4955236e-39
0.88136363 0.083234407 0.070206016 3.1292228e-39
0.88386363 0.078234404 0.070206016 2.5731932e-39
0.89136362 0.068234406 0.070206016 4.5917748e-40
0.89136362 0.070734411 0.070206016 9.1835496e-40
0.89136362 0.073234409 0.070206016 1.7448744e-39
0.89136362 0.075734407 0.070206016 2.0203851e-39
