# .PCD v0.7 - Point Cloud Data file format
VERSION 0.7
FIELDS x y z rgb
SIZE 4 4 4 4
TYPE F F F F
COUNT 1 1 1 1
WIDTH 991
HEIGHT 1
VIEWPOINT 0 0 0 1 0 0 0
POINTS 991
DATA ascii
0.013304071 0.11098779 0.81525004 1.2996012e-38
0.013304071 0.11348779 0.81275004 1.6220702e-38
0.013304071 0.11348779 0.81525004 1.6681661e-38
0.013304071 0.11348779 0.81775004 1.6498001e-38
0.013304071 0.11348779 0.82025003 1.4564061e-38
0.013304071 0.11848779 0.81025004 1.7601064e-38
0.013304071 0.12098779 0.80525005 1.5108539e-38
0.013304071 0.12348779 0.80525005 1.5108211e-38
0.015804071 0.12098779 0.80525005 1.7137587e-38
0.015804071 0.12348779 0.80525005 1.7412732e-38
0.013304071 0.12098779 0.80775005 1.1971388e-38
0.013304071 0.12098779 0.81025004 1.6301718e-38
0.013304071 0.12348779 0.80775005 1.5108888e-38
0.013304071 0.12348779 0.81025004 1.5293678e-38
0.015804071 0.12098779 0.80775005 1.4464264e-38
0.015804071 0.12098779 0.81025004 1.4649012e-38
0.015804071 0.12348779 0.80775005 1.4556816e-38
0.015804071 0.12348779 0.81025004 1.492345e-38
0.013304071 0.11598779 0.81275004 1.6312888e-38
0.013304071 0.11598779 0.81525004 1.6314292e-38
0.013304071 0.11848779 0.81275004 1.667772e-38
0.013304071 0.11848779 0.81525004 1.6220687e-38
0.015804071 0.11598779 0.81275004 1.5296196e-38
0.015804071 0.11598779 0.81525004 1.5664645e-38
0.015804071 0.11848779 0.81275004 1.4834827e-38
0.015804071 0.11848779 0.81525004 1.5019937e-38
0.013304071 0.11598779 0.81775004 1.6590504e-38
0.015804071 0.11848779 0.81775004 1.5206849e-38
0.015804071 0.11848779 0.82025003 1.5019253e-38
0.013304071 0.12098779 0.81275004 1.6116968e-38
0.015804071 0.12098779 0.81275004 1.4095457e-38
0.015804071 0.12098779 0.81525004 1.6309609e-38
0.015804071 0.12348779 0.81275004 1.5107466e-38
0.015804071 0.12098779 0.81775004 1.5758911e-38
0.003304071 0.10598779 0.82775003 9.4860731e-39
0.003304071 0.10598779 0.83025002 9.2112785e-39
0.003304071 0.10848779 0.83025002 3.5019864e-39
0.0058040712 0.10848779 0.83025002 1.4099129e-38
0.003304071 0.11348779 0.82275003 1.2625724e-38
0.003304071 0.11348779 0.82525003 1.5206165e-38
0.0058040712 0.11348779 0.82275003 1.6221354e-38
0.0058040712 0.11348779 0.82525003 1.023737e-38
0.003304071 0.11098779 0.82775003 1.0406275e-38
0.003304071 0.11098779 0.83025002 1.0867263e-38
0.003304071 0.11348779 0.82775003 1.5391278e-38
0.0058040712 0.11098779 0.82775003 1.409625e-38
0.0058040712 0.11098779 0.83025002 1.1516175e-38
0.0058040712 0.11348779 0.82775003 9.1342589e-39
0.0083040707 0.10848779 0.83025002 7.0864e-39
0.010804071 0.10848779 0.83025002 1.2525555e-38
0.0083040707 0.11348779 0.82275003 6.1825597e-39
0.0083040707 0.11348779 0.82525003 6.272956e-39
0.010804071 0.11348779 0.82525003 1.4102704e-38
0.0083040707 0.11098779 0.82775003 5.5234029e-39
0.0083040707 0.11098779 0.83025002 6.2613196e-39
0.0083040707 0.11348779 0.82775003 6.1843575e-39
0.010804071 0.11098779 0.82775003 7.8289929e-39
0.010804071 0.11098779 0.83025002 8.0126835e-39
0.010804071 0.11348779 0.82775003 1.2533981e-38
0.010804071 0.11348779 0.83025002 1.1981895e-38
0.003304071 0.10598779 0.83275002 1.8065642e-38
0.003304071 0.10598779 0.83525002 1.7880539e-38
0.003304071 0.10848779 0.83275002 7.5495725e-39
0.003304071 0.10848779 0.83525002 4.6958436e-39
0.0058040712 0.10598779 0.83275002 1.2990618e-38
0.0058040712 0.10598779 0.83525002 1.3176788e-38
0.0058040712 0.10848779 0.83275002 1.4190584e-38
0.0058040712 0.10848779 0.83525002 1.6030894e-38
0.003304071 0.10598779 0.83775002 1.9721565e-38
0.0058040712 0.10598779 0.83775002 1.1607998e-38
0.003304071 0.11098779 0.83275002 8.1049786e-39
0.0058040712 0.11098779 0.83275002 1.3362566e-38
0.0083040707 0.10598779 0.83275002 1.5572096e-38
0.0083040707 0.10598779 0.83525002 1.4930615e-38
0.0083040707 0.10848779 0.83275002 7.3619065e-39
0.0083040707 0.10848779 0.83525002 8.4744029e-39
0.010804071 0.10598779 0.83525002 1.2994507e-38
0.010804071 0.10848779 0.83275002 1.307801e-38
0.010804071 0.10848779 0.83525002 1.5112055e-38
0.0083040707 0.10598779 0.83775002 1.4931764e-38
0.010804071 0.10598779 0.83775002 1.142689e-38
0.0083040707 0.11098779 0.83275002 5.3440367e-39
0.010804071 0.11098779 0.83275002 5.9893991e-39
0.003304071 0.11598779 0.82275003 1.1516542e-38
0.003304071 0.11598779 0.82525003 1.2625024e-38
0.0058040712 0.11598779 0.82525003 1.5303428e-38
0.0058040712 0.11598779 0.82775003 1.6589057e-38
0.0083040707 0.11598779 0.82525003 1.3365883e-38
0.010804071 0.11598779 0.82525003 1.5762251e-38
0.013304071 0.10848779 0.83025002 1.8608415e-38
0.015804071 0.10848779 0.82775003 1.5387335e-38
0.015804071 0.10848779 0.83025002 1.6770271e-38
0.013304071 0.11348779 0.82275003 1.2627952e-38
0.013304071 0.11348779 0.82525003 1.2996376e-38
0.015804071 0.11348779 0.82275003 1.548097e-38
0.013304071 0.11098779 0.82775003 8.4798329e-39
0.013304071 0.11098779 0.83025002 8.7560443e-39
0.013304071 0.11348779 0.82775003 1.161163e-38
0.013304071 0.11348779 0.83025002 1.161163e-38
0.015804071 0.11098779 0.82775003 1.547945e-38
0.015804071 0.11098779 0.83025002 1.0132104e-38
0.015804071 0.11348779 0.82775003 1.4837736e-38
0.015804071 0.11348779 0.83025002 1.179169e-38
0.01830407 0.10848779 0.82775003 1.7415604e-38
0.01830407 0.10848779 0.83025002 1.7229783e-38
0.020804072 0.10848779 0.82775003 1.9996722e-38
0.020804072 0.10848779 0.83025002 2.0180043e-38
0.01830407 0.11098779 0.82775003 1.8334683e-38
0.01830407 0.11098779 0.83025002 1.7966619e-38
0.01830407 0.11348779 0.82775003 1.8151371e-38
0.01830407 0.11348779 0.83025002 1.769039e-38
0.020804072 0.11098779 0.82775003 2.0362987e-38
0.020804072 0.11098779 0.83025002 2.027187e-38
0.020804072 0.11348779 0.82775003 1.9994923e-38
0.020804072 0.11348779 0.83025002 2.0271867e-38
0.013304071 0.10598779 0.83275002 1.1154264e-38
0.013304071 0.10598779 0.83525002 1.1798915e-38
0.013304071 0.10848779 0.83275002 1.8240345e-38
0.013304071 0.10848779 0.83525002 1.824579e-38
0.015804071 0.10598779 0.83275002 1.2535048e-38
0.015804071 0.10598779 0.83525002 1.5024686e-38
0.015804071 0.10848779 0.83275002 1.5202578e-38
0.015804071 0.10848779 0.83525002 1.5849421e-38
0.013304071 0.10598779 0.83775002 8.6642564e-39
0.015804071 0.10598779 0.83775002 1.4747705e-38
0.013304071 0.11098779 0.83275002 1.1235603e-38
0.013304071 0.11098779 0.83525002 8.6491056e-39
0.013304071 0.11348779 0.83275002 1.1240346e-38
0.015804071 0.11098779 0.83275002 1.1049451e-38
0.015804071 0.11098779 0.83525002 1.4736202e-38
0.015804071 0.11348779 0.83275002 1.4096946e-38
0.01830407 0.10598779 0.83525002 1.7324149e-38
0.01830407 0.10848779 0.83275002 1.7782238e-38
0.01830407 0.10848779 0.83525002 1.7323065e-38
0.020804072 0.10598779 0.83525002 1.9352453e-38
0.020804072 0.10848779 0.83275002 2.0179324e-38
0.020804072 0.10848779 0.83525002 2.0181488e-38
0.01830407 0.10598779 0.83775002 1.7231963e-38
0.01830407 0.10848779 0.83775002 1.7320534e-38
0.020804072 0.10598779 0.83775002 1.9352823e-38
0.020804072 0.10848779 0.83775002 2.0639577e-38
0.01830407 0.11098779 0.83275002 1.815172e-38
0.01830407 0.11098779 0.83525002 1.8149213e-38
0.01830407 0.11348779 0.83275002 1.8057017e-38
0.020804072 0.11098779 0.83275002 2.0364416e-38
0.020804072 0.11098779 0.83525002 2.0546659e-38
0.020804072 0.11348779 0.83275002 2.0362267e-38
0.015804071 0.11598779 0.82275003 1.557639e-38
0.015804071 0.11598779 0.82525003 1.5020698e-38
0.015804071 0.11848779 0.82275003 1.5204363e-38
0.015804071 0.11598779 0.82775003 1.5112893e-38
0.015804071 0.11598779 0.83025002 1.5019982e-38
0.015804071 0.11848779 0.82775003 1.5941565e-38
0.015804071 0.11848779 0.83025002 1.4925631e-38
0.015804071 0.12098779 0.82775003 1.6123395e-38
0.01830407 0.11598779 0.82275003 1.7782215e-38
0.01830407 0.11598779 0.82525003 1.750672e-38
0.01830407 0.11848779 0.82275003 1.8149922e-38
0.01830407 0.11598779 0.82775003 1.8152087e-38
0.01830407 0.11598779 0.83025002 1.7783307e-38
0.01830407 0.11848779 0.83025002 1.8148847e-38
0.020804072 0.11598779 0.82775003 1.999636e-38
0.020804072 0.11598779 0.83025002 2.0364785e-38
0.020804072 0.11848779 0.83025002 2.0545932e-38
0.015804071 0.12098779 0.83525002 1.5202901e-38
0.01830407 0.11848779 0.83525002 1.7782215e-38
0.020804072 0.11848779 0.83525002 2.064028e-38
0.01830407 0.12098779 0.83525002 1.8241396e-38
0.0058040712 0.1259878 0.81025004 1.1517261e-38
0.0058040712 0.1284878 0.81025004 1.1701292e-38
0.0058040712 0.13098779 0.81025004 1.1701286e-38
0.0083040707 0.1259878 0.80775005 1.1516525e-38
0.0083040707 0.1259878 0.81025004 1.1607291e-38
0.0083040707 0.1284878 0.81025004 1.179204e-38
0.010804071 0.1259878 0.80775005 1.0596016e-38
0.010804071 0.1259878 0.81025004 1.0961922e-38
0.010804071 0.1284878 0.80775005 1.0779679e-38
0.010804071 0.1284878 0.81025004 1.1146671e-38
0.0083040707 0.13098779 0.81025004 1.1701286e-38
0.010804071 0.13098779 0.81025004 1.1332853e-38
0.010804071 0.13348779 0.81025004 1.1332853e-38
0.003304071 0.1259878 0.81275004 1.1701995e-38
0.003304071 0.1259878 0.81525004 1.1885308e-38
0.003304071 0.1284878 0.81275004 1.1609441e-38
0.003304071 0.1284878 0.81525004 1.1793841e-38
0.0058040712 0.1259878 0.81275004 1.1791684e-38
0.0058040712 0.1284878 0.81275004 1.1976431e-38
0.0058040712 0.1284878 0.81525004 1.197715e-38
0.003304071 0.1259878 0.81775004 1.2161191e-38
0.003304071 0.1284878 0.81775004 1.1887122e-38
0.003304071 0.1284878 0.82025003 1.2712901e-38
0.003304071 0.13098779 0.81275004 1.1977503e-38
0.003304071 0.13098779 0.81525004 1.2069712e-38
0.003304071 0.13348779 0.81525004 1.1978222e-38
0.0058040712 0.13098779 0.81275004 1.1793841e-38
0.0058040712 0.13098779 0.81525004 1.1977503e-38
0.0058040712 0.13348779 0.81275004 1.2069346e-38
0.0058040712 0.13348779 0.81525004 1.2069349e-38
0.003304071 0.13098779 0.81775004 1.1793841e-38
0.003304071 0.13348779 0.81775004 1.19768e-38
0.003304071 0.13348779 0.82025003 1.2343787e-38
0.0083040707 0.1284878 0.81275004 1.1884236e-38
0.010804071 0.1259878 0.81275004 1.0871526e-38
0.0083040707 0.13098779 0.81275004 1.1794191e-38
0.0083040707 0.13348779 0.81275004 1.1793112e-38
0.0083040707 0.13348779 0.81525004 1.1792403e-38
0.010804071 0.13098779 0.81275004 1.1148822e-38
0.010804071 0.13348779 0.81275004 1.1700558e-38
0.003304071 0.13598779 0.81525004 1.2345926e-38
0.0058040712 0.13598779 0.81525004 1.2069346e-38
0.003304071 0.13598779 0.81775004 1.2162613e-38
0.003304071 0.13598779 0.82025003 1.2068996e-38
0.003304071 0.13848779 0.81775004 1.1977519e-38
0.003304071 0.13848779 0.82025003 1.2070418e-38
0.0058040712 0.13598779 0.81775004 1.1978222e-38
0.0058040712 0.13848779 0.81775004 1.2345933e-38
0.003304071 0.14098778 0.82025003 1.2347728e-38
0.003304071 0.1434878 0.82025003 1.2439555e-38
0.0058040712 0.14098778 0.81775004 1.2439207e-38
0.0058040712 0.14098778 0.82025003 1.2255532e-38
0.0058040712 0.1434878 0.81775004 1.2622876e-38
0.0058040712 0.1434878 0.82025003 1.2623238e-38
0.0083040707 0.13598779 0.81275004 1.2069349e-38
0.0083040707 0.13598779 0.81525004 1.1884957e-38
0.0083040707 0.13848779 0.81525004 1.1884236e-38
0.010804071 0.13598779 0.81275004 1.1700207e-38
0.010804071 0.13598779 0.81525004 1.1884957e-38
0.010804071 0.13848779 0.81525004 1.1976431e-38
0.0083040707 0.13848779 0.81775004 1.197715e-38
0.010804071 0.13848779 0.81775004 1.2345933e-38
0.0083040707 0.14098778 0.81775004 1.253103e-38
0.0083040707 0.1434878 0.81775004 1.2162245e-38
0.0083040707 0.1434878 0.82025003 1.2162964e-38
0.010804071 0.14098778 0.81775004 1.2438476e-38
0.010804071 0.1434878 0.81775004 1.2070049e-38
0.010804071 0.1434878 0.82025003 1.2162964e-38
0.013304071 0.1259878 0.80525005 1.5479858e-38
0.013304071 0.1284878 0.80525005 1.5201476e-38
0.015804071 0.1259878 0.80275005 1.7505278e-38
0.015804071 0.1259878 0.80525005 1.7230484e-38
0.015804071 0.1284878 0.80275005 1.7875859e-38
0.015804071 0.1284878 0.80525005 1.7783307e-38
0.013304071 0.1259878 0.80775005 1.5661738e-38
0.013304071 0.1259878 0.81025004 1.5108565e-38
0.013304071 0.1284878 0.80775005 1.5476268e-38
0.013304071 0.1284878 0.81025004 1.2894791e-38
0.015804071 0.1259878 0.80775005 1.79659e-38
0.015804071 0.1259878 0.81025004 1.4646505e-38
0.015804071 0.1284878 0.80775005 1.8058096e-38
0.015804071 0.1284878 0.81025004 1.7966256e-38
0.015804071 0.13098779 0.80275005 1.8336481e-38
0.015804071 0.13098779 0.80525005 1.4925243e-38
0.015804071 0.13348779 0.80275005 1.8426879e-38
0.013304071 0.13098779 0.80775005 1.5385872e-38
0.013304071 0.13098779 0.81025004 1.5109281e-38
0.013304071 0.13348779 0.80775005 1.4834136e-38
0.013304071 0.13348779 0.81025004 1.5202546e-38
0.015804071 0.13098779 0.80775005 1.8426876e-38
0.015804071 0.13098779 0.81025004 1.815209e-38
0.015804071 0.13348779 0.80775005 1.7876209e-38
0.015804071 0.13348779 0.81025004 1.815209e-38
0.01830407 0.1259878 0.80275005 1.8612342e-38
0.01830407 0.1284878 0.80275005 1.8705639e-38
0.01830407 0.1284878 0.80525005 1.9074396e-38
0.01830407 0.1284878 0.80775005 1.8615238e-38
0.01830407 0.13098779 0.80275005 1.8798901e-38
0.01830407 0.13098779 0.80525005 1.8891097e-38
0.01830407 0.13348779 0.80275005 1.8521245e-38
0.01830407 0.13098779 0.80775005 1.9074059e-38
0.01830407 0.13098779 0.81025004 1.9351003e-38
0.01830407 0.13348779 0.80775005 1.9074414e-38
0.01830407 0.13348779 0.81025004 1.8890383e-38
0.013304071 0.1259878 0.81275004 1.4925968e-38
0.015804071 0.1259878 0.81275004 1.4739407e-38
0.013304071 0.13098779 0.81275004 1.2805469e-38
0.013304071 0.13348779 0.81275004 1.4926687e-38
0.015804071 0.13598779 0.81025004 1.8151736e-38
0.013304071 0.13598779 0.81275004 1.4834842e-38
0.013304071 0.13598779 0.81525004 1.4743375e-38
0.013304071 0.13848779 0.81275004 1.5294381e-38
0.013304071 0.13848779 0.81525004 1.4558275e-38
0.015804071 0.13598779 0.81275004 1.8426876e-38
0.015804071 0.13848779 0.81275004 1.8151736e-38
0.015804071 0.13848779 0.81525004 1.8704184e-38
0.013304071 0.13848779 0.81775004 1.455828e-38
0.015804071 0.13848779 0.81775004 1.8611636e-38
0.013304071 0.14098778 0.81525004 1.5019236e-38
0.015804071 0.14098778 0.81525004 1.916769e-38
0.013304071 0.14098778 0.81775004 1.4558278e-38
0.013304071 0.1434878 0.81775004 1.4465716e-38
0.013304071 0.1434878 0.82025003 1.3821047e-38
0.015804071 0.14098778 0.81775004 1.9902374e-38
0.015804071 0.1434878 0.81775004 2.101052e-38
0.015804071 0.1434878 0.82025003 2.1376791e-38
0.01830407 0.13598779 0.81275004 1.9442828e-38
0.01830407 0.13848779 0.81525004 1.9348835e-38
0.01830407 0.1434878 0.81775004 2.230271e-38
0.003304071 0.13598779 0.82275003 1.19768e-38
0.003304071 0.13848779 0.82275003 1.2070068e-38
0.003304071 0.13848779 0.82525003 1.2438128e-38
0.003304071 0.14098778 0.82275003 1.2347728e-38
0.003304071 0.14098778 0.82525003 1.2528899e-38
0.003304071 0.1434878 0.82275003 1.2623945e-38
0.003304071 0.1434878 0.82525003 1.2989873e-38
0.0058040712 0.1434878 0.82275003 1.2622876e-38
0.003304071 0.14098778 0.82775003 1.2161191e-38
0.003304071 0.1434878 0.82775003 1.2805835e-38
-0.01669593 0.14598779 0.82525003 1.3267889e-38
-0.01669593 0.14848779 0.82525003 1.3452636e-38
-0.014195929 0.14598779 0.82275003 1.3083142e-38
-0.014195929 0.14598779 0.82525003 1.3175696e-38
-0.014195929 0.14848779 0.82525003 1.3267892e-38
-0.01669593 0.14598779 0.82775003 1.3360791e-38
-0.01669593 0.14848779 0.82775003 1.3636667e-38
-0.014195929 0.14598779 0.82775003 1.3267886e-38
-0.014195929 0.14848779 0.82775003 1.3360087e-38
-0.01669593 0.15098779 0.82775003 1.3452636e-38
-0.01669593 0.15348779 0.82775003 1.363702e-38
-0.014195929 0.15098779 0.82775003 1.3360804e-38
-0.014195929 0.15348779 0.82775003 1.345228e-38
-0.011695929 0.14598779 0.82275003 1.3268608e-38
-0.011695929 0.14598779 0.82525003 1.3267892e-38
-0.011695929 0.14848779 0.82525003 1.3452283e-38
-0.011695929 0.14598779 0.82775003 1.2900198e-38
-0.011695929 0.14848779 0.82775003 1.2900195e-38
-0.0091959294 0.14598779 0.82775003 1.0042494e-38
-0.0091959294 0.14598779 0.83025002 8.750306e-39
-0.0091959294 0.14848779 0.82775003 8.8453308e-39
-0.0091959294 0.14848779 0.83025002 8.9353755e-39
-0.011695929 0.15098779 0.82775003 1.308494e-38
-0.011695929 0.15348779 0.82775003 1.3177491e-38
-0.0091959294 0.15098779 0.82775003 8.7524261e-39
-0.0091959294 0.15098779 0.83025002 9.1208681e-39
-0.0091959294 0.15348779 0.82775003 1.0042841e-38
-0.0091959294 0.15348779 0.83025002 9.304193e-39
-0.0091959294 0.15098779 0.83275002 9.1198144e-39
-0.0091959294 0.15348779 0.83275002 9.0276187e-39
-0.01669593 0.15598778 0.82775003 1.4096921e-38
-0.01669593 0.15598778 0.83025002 1.4282743e-38
-0.01669593 0.1584878 0.83025002 1.4280952e-38
-0.014195929 0.15598778 0.82775003 1.4096921e-38
-0.014195929 0.15598778 0.83025002 1.4096921e-38
-0.014195929 0.1584878 0.83025002 1.4281318e-38
-0.011695929 0.15598778 0.82775003 1.4281671e-38
-0.011695929 0.15598778 0.83025002 1.3360804e-38
-0.011695929 0.1584878 0.83025002 1.4557906e-38
-0.0091959294 0.15598778 0.82775003 9.9488435e-39
-0.0091959294 0.15598778 0.83025002 1.0041761e-38
-0.0091959294 0.1584878 0.83025002 9.4875207e-39
-0.01669593 0.15598778 0.83275002 1.4189122e-38
-0.01669593 0.1584878 0.83275002 1.4373867e-38
-0.014195929 0.1584878 0.83275002 1.391254e-38
-0.01669593 0.16098779 0.83275002 1.4373514e-38
-0.01669593 0.16098779 0.83525002 1.4464983e-38
-0.01669593 0.16348779 0.83275002 1.4926322e-38
-0.01669593 0.16348779 0.83525002 1.5019954e-38
-0.014195929 0.16098779 0.83275002 1.4373867e-38
-0.014195929 0.16098779 0.83525002 1.4374587e-38
-0.014195929 0.16348779 0.83275002 1.4834842e-38
-0.014195929 0.16348779 0.83525002 1.4743728e-38
-0.011695929 0.15598778 0.83275002 1.3360453e-38
-0.011695929 0.1584878 0.83275002 1.3728511e-38
-0.0091959294 0.15598778 0.83275002 9.5807841e-39
-0.0091959294 0.15598778 0.83525002 9.4885464e-39
-0.0091959294 0.1584878 0.83275002 9.8566507e-39
-0.0091959294 0.1584878 0.83525002 1.0041045e-38
-0.0091959294 0.1584878 0.83775002 9.5803917e-39
-0.011695929 0.16098779 0.83275002 1.4834126e-38
-0.011695929 0.16098779 0.83525002 1.3730315e-38
-0.011695929 0.16348779 0.83525002 1.5019954e-38
-0.0091959294 0.16098779 0.83525002 1.0041764e-38
-0.011695929 0.16098779 0.83775002 1.4282037e-38
-0.011695929 0.16348779 0.83775002 1.3454451e-38
-0.0091959294 0.16098779 0.83775002 9.6733483e-39
-0.0091959294 0.16348779 0.83775002 9.9488309e-39
-0.0091959294 0.16348779 0.84025007 1.013324e-38
-0.006695929 0.14598779 0.82775003 1.0779288e-38
-0.006695929 0.14598779 0.83025002 1.087219e-38
-0.006695929 0.14848779 0.82775003 1.0871133e-38
-0.006695929 0.14848779 0.83025002 1.0873635e-38
-0.004195929 0.14598779 0.82775003 1.1055188e-38
-0.004195929 0.14598779 0.83025002 1.0871859e-38
-0.004195929 0.14848779 0.82775003 1.1147743e-38
-0.004195929 0.14848779 0.83025002 1.1240642e-38
-0.006695929 0.15098779 0.82775003 1.1053767e-38
-0.006695929 0.15098779 0.83025002 1.1332853e-38
-0.006695929 0.15348779 0.83025002 1.1149873e-38
-0.001695929 0.14598779 0.82775003 1.1515078e-38
-0.001695929 0.14598779 0.83025002 1.1607992e-38
-0.001695929 0.14848779 0.83025002 1.1699837e-38
0.00080407097 0.14598779 0.82775003 1.14229e-38
0.00080407097 0.14598779 0.83025002 1.1884239e-38
0.00080407097 0.14848779 0.82775003 1.1791684e-38
0.00080407097 0.14848779 0.83025002 1.2161541e-38
0.00080407097 0.15098779 0.82775003 1.2345577e-38
0.00080407097 0.15098779 0.83025002 1.2161541e-38
0.00080407097 0.15348779 0.82775003 1.2344859e-38
-0.006695929 0.14848779 0.83275002 1.114772e-38
-0.004195929 0.14598779 0.83275002 1.1423957e-38
-0.004195929 0.14598779 0.83525002 1.1608348e-38
-0.004195929 0.14848779 0.83275002 1.1516147e-38
-0.004195929 0.14848779 0.83525002 1.1608701e-38
-0.006695929 0.15098779 0.83275002 1.1149172e-38
-0.006695929 0.15348779 0.83275002 1.105627e-38
-0.006695929 0.15348779 0.83525002 1.1517248e-38
-0.004195929 0.15098779 0.83275002 1.1976405e-38
-0.004195929 0.15098779 0.83525002 1.1886006e-38
-0.004195929 0.15348779 0.83275002 1.1607273e-38
-0.004195929 0.15348779 0.83525002 1.1792739e-38
-0.004195929 0.15098779 0.83775002 1.1792739e-38
-0.004195929 0.15348779 0.83775002 1.1884936e-38
-0.004195929 0.15348779 0.84025007 1.2253717e-38
-0.001695929 0.14598779 0.83275002 1.1055188e-38
-0.001695929 0.14598779 0.83525002 1.142433e-38
-0.001695929 0.14848779 0.83275002 1.1607642e-38
-0.001695929 0.14848779 0.83525002 1.1239219e-38
0.00080407097 0.14848779 0.83275002 1.2160465e-38
-0.001695929 0.14848779 0.83775002 1.1607642e-38
-0.001695929 0.15098779 0.83275002 1.1977854e-38
-0.001695929 0.15098779 0.83525002 1.1699837e-38
-0.001695929 0.15348779 0.83275002 1.2070049e-38
-0.001695929 0.15348779 0.83525002 1.2068251e-38
0.00080407097 0.15098779 0.83275002 1.1976081e-38
0.00080407097 0.15098779 0.83525002 1.2160465e-38
0.00080407097 0.15348779 0.83525002 1.2345212e-38
-0.001695929 0.15098779 0.83775002 1.1701265e-38
-0.001695929 0.15348779 0.83775002 1.1517594e-38
-0.001695929 0.15348779 0.84025007 1.1794541e-38
0.00080407097 0.15098779 0.83775002 1.2161541e-38
0.00080407097 0.15348779 0.83775002 1.2529602e-38
0.00080407097 0.15598778 0.82775003 1.2345212e-38
-0.006695929 0.15598778 0.83525002 1.1700528e-38
-0.006695929 0.15598778 0.83775002 1.1793092e-38
-0.006695929 0.1584878 0.83775002 1.2346619e-38
-0.006695929 0.1584878 0.84025007 1.2070421e-38
-0.004195929 0.15598778 0.83775002 1.197856e-38
-0.004195929 0.15598778 0.84025007 1.2071118e-38
-0.004195929 0.1584878 0.83775002 1.2716491e-38
-0.004195929 0.1584878 0.84025007 1.2624295e-38
-0.006695929 0.16098779 0.83775002 1.2347715e-38
-0.006695929 0.16098779 0.84025007 1.2162245e-38
-0.006695929 0.16348779 0.83775002 1.2440258e-38
-0.006695929 0.16348779 0.84025007 1.3175298e-38
-0.004195929 0.16098779 0.84025007 1.2440264e-38
-0.004195929 0.16348779 0.84025007 1.2808689e-38
0.00080407097 0.15598778 0.83525002 1.2620369e-38
0.00080407097 0.1584878 0.83525002 1.2805119e-38
-0.001695929 0.15598778 0.83775002 1.2345913e-38
-0.001695929 0.15598778 0.84025007 1.2253362e-38
-0.001695929 0.1584878 0.83775002 1.2806172e-38
-0.001695929 0.1584878 0.84025007 1.2437756e-38
0.00080407097 0.15598778 0.83775002 1.2529605e-38
0.00080407097 0.15598778 0.84025007 1.2621801e-38
0.00080407097 0.1584878 0.83775002 1.2714715e-38
0.00080407097 0.1584878 0.84025007 1.2807267e-38
-0.001695929 0.16098779 0.83775002 1.2713977e-38
-0.001695929 0.16098779 0.84025007 1.3173891e-38
-0.001695929 0.16348779 0.83775002 1.280797e-38
-0.001695929 0.16348779 0.84025007 1.3266072e-38
0.00080407097 0.16098779 0.83775002 1.3083495e-38
0.00080407097 0.16098779 0.84025007 1.3172819e-38
0.00080407097 0.16348779 0.83775002 1.3267526e-38
0.00080407097 0.16348779 0.84025007 1.3175696e-38
-0.01669593 0.16598779 0.83525002 1.4926687e-38
-0.01669593 0.16848779 0.83525002 1.5018883e-38
-0.014195929 0.16598779 0.83525002 1.492704e-38
-0.014195929 0.16848779 0.83525002 1.5572763e-38
-0.01669593 0.16598779 0.83775002 1.5019954e-38
-0.01669593 0.16848779 0.83775002 1.5203281e-38
-0.014195929 0.16598779 0.83775002 1.5294378e-38
-0.014195929 0.16848779 0.83775002 1.5111799e-38
-0.014195929 0.17098778 0.83525002 1.5849704e-38
-0.01669593 0.17098778 0.83775002 1.5664605e-38
-0.01669593 0.1734878 0.83775002 1.6033385e-38
-0.014195929 0.17098778 0.83775002 1.5111799e-38
-0.014195929 0.1734878 0.83775002 1.5850073e-38
-0.011695929 0.16598779 0.83525002 1.5572407e-38
-0.011695929 0.16848779 0.83525002 1.5388013e-38
-0.011695929 0.16598779 0.83775002 1.3914707e-38
-0.011695929 0.16848779 0.83775002 1.4468233e-38
-0.0091959294 0.16598779 0.83775002 9.8562948e-39
-0.0091959294 0.16598779 0.84025007 1.0316888e-38
-0.0091959294 0.16848779 0.83775002 1.003958e-38
-0.0091959294 0.16848779 0.84025007 1.0315809e-38
-0.011695929 0.17098778 0.83525002 1.5757509e-38
-0.011695929 0.17098778 0.83775002 1.4283483e-38
-0.011695929 0.1734878 0.83775002 1.6034464e-38
-0.011695929 0.1734878 0.84025007 1.4929208e-38
-0.0091959294 0.17098778 0.83775002 9.765897e-39
-0.0091959294 0.17098778 0.84025007 1.0777143e-38
-0.0091959294 0.1734878 0.83775002 1.05942e-38
-0.0091959294 0.1734878 0.84025007 9.8584486e-39
-0.01669593 0.17598779 0.83775002 1.5850073e-38
-0.01669593 0.17598779 0.84025007 1.6399651e-38
-0.01669593 0.17848779 0.83775002 1.6218132e-38
-0.01669593 0.17848779 0.84025007 1.6953544e-38
-0.014195929 0.17598779 0.83775002 1.5942622e-38
-0.014195929 0.17848779 0.83775002 1.6034461e-38
-0.014195929 0.17848779 0.84025007 1.6953897e-38
-0.01669593 0.18098779 0.84025007 1.7323038e-38
-0.014195929 0.18098779 0.84025007 1.7138644e-38
-0.011695929 0.17598779 0.83775002 1.4838092e-38
-0.011695929 0.17598779 0.84025007 1.4745537e-38
-0.011695929 0.17848779 0.83775002 1.5389816e-38
-0.011695929 0.17848779 0.84025007 1.4928489e-38
-0.0091959294 0.17598779 0.83775002 9.8591548e-39
-0.0091959294 0.17598779 0.84025007 9.6751363e-39
-0.0091959294 0.17848779 0.84025007 1.0134307e-38
-0.011695929 0.18098779 0.84025007 1.5482011e-38
-0.006695929 0.16598779 0.84025007 1.3358973e-38
-0.006695929 0.16848779 0.84025007 1.3176397e-38
-0.006695929 0.17098778 0.84025007 1.3820362e-38
-0.006695929 0.1734878 0.84025007 1.437422e-38
-0.001695929 0.16598779 0.84025007 1.3635933e-38
0.00080407097 0.16598779 0.83775002 1.4188757e-38
0.00080407097 0.16598779 0.84025007 1.4188757e-38
0.00080407097 0.16848779 0.84025007 1.4188403e-38
0.00080407097 0.17098778 0.84025007 1.418805e-38
0.0058040712 0.14598779 0.82025003 1.271579e-38
0.0058040712 0.14848779 0.82025003 1.280835e-38
0.0083040707 0.14598779 0.81775004 1.2530321e-38
0.0083040707 0.14598779 0.82025003 1.2162613e-38
0.0083040707 0.14848779 0.82025003 1.2070768e-38
0.010804071 0.14598779 0.81775004 1.2530321e-38
0.010804071 0.14598779 0.82025003 1.3268961e-38
0.010804071 0.14848779 0.82025003 1.2900889e-38
0.0083040707 0.15098779 0.82025003 1.2348078e-38
0.010804071 0.15098779 0.82025003 1.2625024e-38
0.013304071 0.14598779 0.81775004 1.4190924e-38
0.013304071 0.14598779 0.82025003 1.4099078e-38
0.013304071 0.14848779 0.81775004 1.4466414e-38
0.013304071 0.14848779 0.82025003 1.4190924e-38
0.015804071 0.14598779 0.81775004 1.5571338e-38
0.015804071 0.14598779 0.82025003 2.0919052e-38
0.015804071 0.14848779 0.81775004 2.2022864e-38
0.015804071 0.14848779 0.82025003 2.1748088e-38
0.013304071 0.15098779 0.81775004 1.35441e-38
0.013304071 0.15098779 0.82025003 1.3453355e-38
0.013304071 0.15348779 0.81775004 1.3911456e-38
0.013304071 0.15348779 0.82025003 1.3821413e-38
0.015804071 0.15098779 0.81775004 2.239094e-38
0.015804071 0.15098779 0.82025003 2.2300171e-38
0.015804071 0.15348779 0.81775004 1.6397854e-38
0.015804071 0.15348779 0.82025003 1.6582603e-38
0.01830407 0.14598779 0.81775004 2.174989e-38
0.01830407 0.14848779 0.81775004 2.1566938e-38
0.01830407 0.15098779 0.81775004 2.1935e-38
0.013304071 0.15598778 0.82025003 1.437422e-38
0.013304071 0.1584878 0.82025003 1.4374584e-38
0.015804071 0.15598778 0.82025003 1.5848648e-38
0.015804071 0.1584878 0.82025003 2.2026104e-38
0.015804071 0.16098779 0.82025003 2.2025395e-38
0.01830407 0.1584878 0.82025003 2.2026477e-38
0.01830407 0.16098779 0.82025003 2.1750606e-38
0.003304071 0.14598779 0.82275003 1.2809409e-38
0.003304071 0.14598779 0.82525003 1.3174987e-38
0.003304071 0.14848779 0.82275003 1.2992729e-38
0.003304071 0.14848779 0.82525003 1.3268592e-38
0.0058040712 0.14598779 0.82275003 1.2807267e-38
0.0058040712 0.14848779 0.82275003 1.2992729e-38
0.0058040712 0.14848779 0.82525003 1.3084201e-38
0.003304071 0.14598779 0.82775003 1.3357936e-38
0.003304071 0.14848779 0.82775003 1.3175693e-38
0.003304071 0.15098779 0.82525003 1.3268592e-38
0.003304071 0.15348779 0.82525003 1.3360791e-38
0.0058040712 0.15098779 0.82275003 1.2992378e-38
0.0058040712 0.15098779 0.82525003 1.3176397e-38
0.0058040712 0.15348779 0.82525003 1.3636667e-38
0.003304071 0.15098779 0.82775003 1.3728144e-38
0.003304071 0.15348779 0.82775003 1.2900533e-38
0.0058040712 0.15098779 0.82775003 1.308528e-38
0.0058040712 0.15348779 0.82775003 1.3084924e-38
0.0083040707 0.14848779 0.82275003 1.2255529e-38
0.010804071 0.14848779 0.82275003 1.2624671e-38
0.010804071 0.14848779 0.82525003 1.2990929e-38
0.0083040707 0.15098779 0.82275003 1.243922e-38
0.0083040707 0.15098779 0.82525003 1.2715422e-38
0.0083040707 0.15348779 0.82275003 1.2714715e-38
0.0083040707 0.15348779 0.82525003 1.2438854e-38
0.010804071 0.15098779 0.82275003 1.3176785e-38
0.010804071 0.15098779 0.82525003 1.2807617e-38
0.010804071 0.15348779 0.82275003 1.2992378e-38
0.010804071 0.15348779 0.82525003 1.336045e-38
0.0058040712 0.15598778 0.82525003 1.372885e-38
0.003304071 0.15598778 0.82775003 1.3729218e-38
0.003304071 0.1584878 0.82775003 1.4006158e-38
0.003304071 0.1584878 0.83025002 1.4280949e-38
0.0058040712 0.15598778 0.82775003 1.3452636e-38
0.0058040712 0.1584878 0.82775003 1.391289e-38
0.003304071 0.16098779 0.82775003 1.4374937e-38
0.003304071 0.16098779 0.83025002 1.4281668e-38
0.0058040712 0.16098779 0.82775003 1.446463e-38
0.0058040712 0.16098779 0.83025002 1.4923798e-38
0.0058040712 0.16348779 0.82775003 1.4740853e-38
0.0058040712 0.16348779 0.83025002 1.4373864e-38
0.0083040707 0.15598778 0.82525003 1.3543397e-38
0.0083040707 0.1584878 0.82525003 1.3728511e-38
0.010804071 0.15598778 0.82275003 1.4280602e-38
0.010804071 0.15598778 0.82525003 1.3820344e-38
0.010804071 0.1584878 0.82525003 1.4926334e-38
0.0083040707 0.15598778 0.82775003 1.3267892e-38
0.0083040707 0.1584878 0.82775003 1.3636302e-38
0.010804071 0.15598778 0.82775003 1.3728511e-38
0.010804071 0.1584878 0.82775003 1.492704e-38
0.0083040707 0.16098779 0.82525003 1.4280952e-38
0.010804071 0.16098779 0.82525003 1.5202198e-38
0.0083040707 0.16098779 0.82775003 1.4189122e-38
0.0083040707 0.16348779 0.82775003 1.4556107e-38
0.010804071 0.16098779 0.82775003 1.5203276e-38
0.010804071 0.16348779 0.82775003 1.5662454e-38
0.003304071 0.15598778 0.83275002 1.3543397e-38
0.003304071 0.15598778 0.83525002 1.3725993e-38
0.003304071 0.1584878 0.83275002 1.4188403e-38
0.003304071 0.1584878 0.83525002 1.3819994e-38
0.003304071 0.1584878 0.83775002 1.3913258e-38
0.003304071 0.16098779 0.83275002 1.4465334e-38
0.003304071 0.16098779 0.83525002 1.4281318e-38
0.003304071 0.16348779 0.83275002 1.4465334e-38
0.003304071 0.16348779 0.83525002 1.4466061e-38
0.0058040712 0.16348779 0.83275002 1.4465713e-38
0.003304071 0.16098779 0.83775002 1.4373514e-38
0.003304071 0.16348779 0.83775002 1.4280965e-38
0.003304071 0.16348779 0.84025007 1.4650473e-38
0.013304071 0.14848779 0.82275003 1.3729571e-38
0.013304071 0.14848779 0.82525003 1.4374237e-38
0.015804071 0.14598779 0.82275003 2.1653375e-38
0.015804071 0.14848779 0.82275003 2.1839189e-38
0.015804071 0.14848779 0.82525003 1.621526e-38
0.013304071 0.15098779 0.82275003 1.3361154e-38
0.013304071 0.15348779 0.82275003 1.3452989e-38
0.013304071 0.15348779 0.82525003 1.4189475e-38
0.015804071 0.15098779 0.82275003 1.6030867e-38
0.015804071 0.15348779 0.82275003 1.5756449e-38
0.015804071 0.15348779 0.82525003 1.5847918e-38
0.013304071 0.15598778 0.82275003 1.4281668e-38
0.013304071 0.15598778 0.82525003 1.428347e-38
0.013304071 0.1584878 0.82275003 1.4743725e-38
0.013304071 0.1584878 0.82525003 1.4374234e-38
0.015804071 0.15598778 0.82275003 1.6308177e-38
0.015804071 0.15598778 0.82525003 1.6307827e-38
0.015804071 0.1584878 0.82275003 2.2024679e-38
0.015804071 0.1584878 0.82525003 2.2117593e-38
0.013304071 0.1584878 0.82775003 1.4743375e-38
0.013304071 0.16098779 0.82275003 1.4466064e-38
0.013304071 0.16098779 0.82525003 1.4376372e-38
0.013304071 0.16348779 0.82275003 1.4744078e-38
0.013304071 0.16348779 0.82525003 1.4651883e-38
0.015804071 0.16098779 0.82275003 2.1656975e-38
0.015804071 0.16098779 0.82525003 2.1749887e-38
0.015804071 0.16348779 0.82275003 1.5940115e-38
0.015804071 0.16348779 0.82525003 1.6398948e-38
0.013304071 0.16098779 0.82775003 1.4836641e-38
0.013304071 0.16348779 0.82775003 1.5112505e-38
0.015804071 0.16098779 0.82775003 2.2483486e-38
0.015804071 0.16348779 0.82775003 1.6032326e-38
0.015804071 0.16348779 0.83025002 2.1930681e-38
0.01830407 0.1584878 0.82275003 2.1566938e-38
0.01830407 0.16098779 0.82275003 2.1749887e-38
0.01830407 0.16098779 0.82525003 2.1566938e-38
0.01830407 0.16348779 0.82525003 2.1474742e-38
0.01830407 0.16098779 0.82775003 2.1567294e-38
0.01830407 0.16348779 0.82775003 2.1657691e-38
0.01830407 0.16348779 0.83025002 2.1196716e-38
0.020804072 0.16348779 0.82775003 2.0642463e-38
0.0058040712 0.16598779 0.82775003 1.5384779e-38
0.0058040712 0.16598779 0.83025002 1.4741209e-38
0.0058040712 0.16848779 0.83025002 1.5476974e-38
0.0058040712 0.17098778 0.83025002 1.5202548e-38
0.0083040707 0.16598779 0.82775003 1.4833773e-38
0.0083040707 0.16598779 0.83025002 1.4923801e-38
0.0083040707 0.16848779 0.83025002 1.5109283e-38
0.010804071 0.16598779 0.82775003 1.5847565e-38
0.010804071 0.16598779 0.83025002 1.6121993e-38
0.010804071 0.16848779 0.82775003 1.5846846e-38
0.010804071 0.16848779 0.83025002 1.6031241e-38
0.0083040707 0.17098778 0.83025002 1.5109281e-38
0.010804071 0.17098778 0.83025002 1.6215628e-38
0.003304071 0.16598779 0.83275002 1.492524e-38
0.003304071 0.16598779 0.83525002 1.4742997e-38
0.003304071 0.16848779 0.83275002 1.5203982e-38
0.003304071 0.16848779 0.83525002 1.538765e-38
0.0058040712 0.16598779 0.83275002 1.5291861e-38
0.0058040712 0.16598779 0.83525002 1.5199666e-38
0.0058040712 0.16848779 0.83275002 1.556989e-38
0.0058040712 0.16848779 0.83525002 1.547769e-38
0.003304071 0.16598779 0.83775002 1.4741927e-38
0.003304071 0.16598779 0.84025007 1.4466432e-38
0.003304071 0.16848779 0.83775002 1.4741577e-38
0.003304071 0.16848779 0.84025007 1.4925971e-38
0.003304071 0.17098778 0.83275002 1.5480211e-38
0.003304071 0.17098778 0.83525002 1.5572763e-38
0.003304071 0.1734878 0.83525002 1.5480209e-38
0.0058040712 0.17098778 0.83275002 1.5754284e-38
0.0058040712 0.17098778 0.83525002 1.5938671e-38
0.0058040712 0.1734878 0.83275002 1.6029792e-38
0.0058040712 0.1734878 0.83525002 1.5754282e-38
0.003304071 0.17098778 0.83775002 1.5478786e-38
0.003304071 0.17098778 0.84025007 1.5386959e-38
0.003304071 0.1734878 0.83775002 1.566355e-38
0.003304071 0.1734878 0.84025007 1.557206e-38
0.0058040712 0.1734878 0.83775002 1.5938669e-38
0.0083040707 0.16598779 0.83275002 1.5291861e-38
0.0083040707 0.16848779 0.83275002 1.5384779e-38
0.0083040707 0.16848779 0.83525002 1.5292227e-38
0.010804071 0.16598779 0.83275002 1.6122344e-38
0.010804071 0.16848779 0.83275002 1.6398572e-38
0.0083040707 0.17098778 0.83275002 1.5661738e-38
0.0083040707 0.17098778 0.83525002 1.5387297e-38
0.0083040707 0.1734878 0.83275002 1.5937597e-38
0.0083040707 0.1734878 0.83525002 1.6123063e-38
0.010804071 0.17098778 0.83275002 1.667553e-38
0.010804071 0.17098778 0.83525002 1.6124862e-38
0.010804071 0.1734878 0.83525002 1.6768432e-38
0.0083040707 0.1734878 0.83775002 1.5569173e-38
0.010804071 0.1734878 0.83775002 1.7042505e-38
0.003304071 0.17598779 0.83525002 1.6033019e-38
0.0058040712 0.17598779 0.83525002 1.6307455e-38
0.003304071 0.17598779 0.83775002 1.6125934e-38
0.003304071 0.17598779 0.84025007 1.6215272e-38
0.003304071 0.17848779 0.83775002 1.621813e-38
0.003304071 0.17848779 0.84025007 1.6493284e-38
0.0058040712 0.17598779 0.83775002 1.6399651e-38
0.0058040712 0.17848779 0.83775002 1.6400726e-38
0.003304071 0.18098779 0.83775002 1.6585114e-38
0.003304071 0.18098779 0.84025007 1.7505996e-38
0.003304071 0.18348779 0.83775002 1.7136126e-38
0.003304071 0.18348779 0.84025007 1.621813e-38
0.0058040712 0.18098779 0.83775002 1.658512e-38
0.0058040712 0.18098779 0.84025007 1.6860982e-38
0.0058040712 0.18348779 0.83775002 1.630853e-38
0.0058040712 0.18348779 0.84025007 1.6676587e-38
0.0083040707 0.17598779 0.83525002 1.6675515e-38
0.0083040707 0.17848779 0.83525002 1.6676236e-38
0.010804071 0.17598779 0.83525002 1.7136493e-38
0.010804071 0.17848779 0.83525002 1.658512e-38
0.0083040707 0.17598779 0.83775002 1.5847915e-38
0.0083040707 0.17848779 0.83775002 1.6676236e-38
0.010804071 0.17598779 0.83775002 1.658584e-38
0.010804071 0.17848779 0.83775002 1.6402172e-38
0.010804071 0.18098779 0.83525002 1.6768429e-38
0.0083040707 0.18098779 0.83775002 1.6676964e-38
0.0083040707 0.18098779 0.84025007 1.7411638e-38
0.0083040707 0.18348779 0.83775002 1.7045739e-38
0.0083040707 0.18348779 0.84025007 1.722797e-38
0.010804071 0.18098779 0.83775002 1.6676964e-38
0.010804071 0.18348779 0.83775002 1.7230484e-38
0.013304071 0.16598779 0.82775003 1.5204704e-38
0.013304071 0.16598779 0.83025002 1.5204701e-38
0.013304071 0.16848779 0.82775003 1.5479861e-38
0.013304071 0.16848779 0.83025002 1.5480587e-38
0.015804071 0.16598779 0.82775003 2.1380028e-38
0.015804071 0.16598779 0.83025002 2.1195622e-38
0.015804071 0.16848779 0.82775003 2.1010873e-38
0.015804071 0.16848779 0.83025002 2.1380025e-38
0.013304071 0.17098778 0.83025002 1.5204348e-38
0.015804071 0.17098778 0.82775003 2.0735365e-38
0.015804071 0.17098778 0.83025002 2.0642092e-38
0.015804071 0.1734878 0.83025002 2.045878e-38
0.01830407 0.16598779 0.82775003 2.1381463e-38
0.01830407 0.16598779 0.83025002 2.1105239e-38
0.01830407 0.16848779 0.82775003 2.0921205e-38
0.01830407 0.16848779 0.83025002 2.0921924e-38
0.020804072 0.16598779 0.82775003 2.0366236e-38
0.01830407 0.1734878 0.83025002 2.0091092e-38
0.013304071 0.16598779 0.83275002 1.5480214e-38
0.013304071 0.16848779 0.83275002 1.5389095e-38
0.013304071 0.16848779 0.83525002 1.5937965e-38
0.015804071 0.16848779 0.83275002 1.5847915e-38
0.013304071 0.17098778 0.83275002 1.5941913e-38
0.013304071 0.17098778 0.83525002 1.5574928e-38
0.013304071 0.1734878 0.83275002 1.5296899e-38
0.013304071 0.1734878 0.83525002 1.6034464e-38
0.015804071 0.17098778 0.83275002 2.0642811e-38
0.015804071 0.1734878 0.83275002 2.0549896e-38
0.015804071 0.1734878 0.83525002 2.0458785e-38
0.013304071 0.1734878 0.83775002 1.5661738e-38
0.01830407 0.1734878 0.83275002 2.0183287e-38
0.013304071 0.17598779 0.83525002 1.5662805e-38
0.013304071 0.17848779 0.83275002 1.4929559e-38
0.013304071 0.17848779 0.83525002 1.501925e-38
0.015804071 0.17598779 0.83525002 1.5941913e-38
0.015804071 0.17848779 0.83275002 1.5573856e-38
0.015804071 0.17848779 0.83525002 1.5757168e-38
0.013304071 0.17598779 0.83775002 1.5112152e-38
0.013304071 0.17848779 0.83775002 1.4560426e-38
0.015804071 0.17598779 0.83775002 1.621526e-38
0.015804071 0.17848779 0.83775002 1.5481293e-38
0.013304071 0.18098779 0.83275002 1.5203281e-38
0.013304071 0.18098779 0.83525002 1.5111448e-38
0.013304071 0.18348779 0.83525002 1.5296543e-38
0.015804071 0.18098779 0.83275002 1.5849369e-38
0.015804071 0.18098779 0.83525002 1.5849369e-38
0.015804071 0.18348779 0.83525002 1.5849014e-38
0.013304071 0.18098779 0.83775002 1.4928852e-38
0.013304071 0.18348779 0.83775002 1.6586579e-38
0.015804071 0.18098779 0.83775002 1.5848295e-38
0.015804071 0.18348779 0.83775002 1.6954638e-38
-0.019195929 0.10348779 0.84275007 1.6586579e-38
-0.011695929 0.10098779 0.84275007 1.6863496e-38
-0.021695929 0.10598779 0.84275007 2.0270434e-38
-0.021695929 0.10848779 0.84275007 2.0179321e-38
-0.021695929 0.11098779 0.84275007 1.9813416e-38
-0.021695929 0.17598779 0.84525007 1.6768432e-38
-0.021695929 0.17848779 0.84275007 1.6678752e-38
-0.021695929 0.17848779 0.84525007 1.6863496e-38
-0.019195929 0.17598779 0.84275007 1.713649e-38
-0.019195929 0.17848779 0.84275007 1.7045742e-38
-0.021695929 0.18098779 0.84275007 1.6495805e-38
-0.021695929 0.18098779 0.84525007 1.677095e-38
-0.021695929 0.18348779 0.84275007 1.7322333e-38
-0.021695929 0.18348779 0.84525007 1.7413448e-38
-0.019195929 0.18098779 0.84275007 1.7229407e-38
-0.019195929 0.18098779 0.84525007 1.7136137e-38
-0.019195929 0.18348779 0.84275007 1.732125e-38
-0.019195929 0.18348779 0.84525007 1.7505996e-38
-0.021695929 0.18348779 0.84775007 1.7598916e-38
-0.004195929 0.1584878 0.84275007 1.2440977e-38
-0.006695929 0.16348779 0.84275007 1.299127e-38
-0.004195929 0.16098779 0.84275007 1.280797e-38
-0.004195929 0.16348779 0.84275007 1.3083481e-38
-0.004195929 0.16348779 0.84525007 1.2991283e-38
-0.001695929 0.1584878 0.84275007 1.2530311e-38
-0.001695929 0.16098779 0.84275007 1.2805469e-38
-0.001695929 0.16348779 0.84275007 1.3173876e-38
-0.0091959294 0.1734878 0.84275007 1.0686767e-38
-0.01669593 0.17848779 0.84275007 1.6861348e-38
-0.014195929 0.17848779 0.84275007 1.7414152e-38
-0.01669593 0.18098779 0.84275007 1.7046095e-38
-0.01669593 0.18348779 0.84275007 1.7599269e-38
-0.01669593 0.18348779 0.84525007 1.7506715e-38
-0.014195929 0.18098779 0.84275007 1.6953544e-38
-0.014195929 0.18348779 0.84275007 1.7507796e-38
-0.011695929 0.17848779 0.84275007 1.5113246e-38
-0.0091959294 0.17598779 0.84275007 1.077896e-38
-0.0091959294 0.17598779 0.84525007 1.1148093e-38
-0.0091959294 0.17848779 0.84275007 9.6737042e-39
-0.0091959294 0.17848779 0.84525007 1.123919e-38
-0.011695929 0.18098779 0.84275007 1.5664973e-38
-0.011695929 0.18348779 0.84275007 1.6861345e-38
-0.011695929 0.18348779 0.84525007 1.5756802e-38
-0.0091959294 0.18098779 0.84275007 1.0042467e-38
-0.0091959294 0.18098779 0.84525007 1.0225789e-38
-0.0091959294 0.18348779 0.84275007 9.673686e-39
-0.0091959294 0.18348779 0.84525007 1.0501652e-38
-0.0091959294 0.18098779 0.84775007 1.1790199e-38
-0.0091959294 0.18348779 0.84775007 1.1238824e-38
-0.0091959294 0.18348779 0.85025007 1.1331038e-38
-0.006695929 0.16598779 0.84275007 1.37274e-38
-0.006695929 0.16848779 0.84275007 1.409619e-38
-0.004195929 0.16598779 0.84275007 1.3728864e-38
-0.004195929 0.16598779 0.84525007 1.3452636e-38
-0.004195929 0.16848779 0.84275007 1.446463e-38
-0.004195929 0.16848779 0.84525007 1.4096208e-38
-0.006695929 0.17098778 0.84275007 1.4372772e-38
-0.006695929 0.1734878 0.84275007 1.418947e-38
-0.006695929 0.1734878 0.84525007 1.4098006e-38
-0.004195929 0.17098778 0.84275007 1.4557535e-38
-0.004195929 0.17098778 0.84525007 1.4742281e-38
-0.004195929 0.1734878 0.84525007 1.4649732e-38
-0.004195929 0.17098778 0.84775007 1.4649359e-38
-0.004195929 0.1734878 0.84775007 1.4741209e-38
-0.001695929 0.16598779 0.84275007 1.3268592e-38
-0.001695929 0.16598779 0.84525007 1.3360788e-38
-0.001695929 0.16848779 0.84275007 1.35441e-38
-0.001695929 0.16848779 0.84525007 1.372885e-38
0.00080407097 0.16598779 0.84275007 1.363667e-38
0.00080407097 0.16848779 0.84275007 1.4095852e-38
-0.001695929 0.17098778 0.84275007 1.4188754e-38
-0.001695929 0.17098778 0.84525007 1.4189826e-38
-0.001695929 0.1734878 0.84525007 1.4188757e-38
0.00080407097 0.17098778 0.84275007 1.4464633e-38
0.00080407097 0.1734878 0.84275007 1.4372811e-38
0.00080407097 0.1734878 0.84525007 1.4649028e-38
-0.001695929 0.17098778 0.84775007 1.4279873e-38
-0.001695929 0.1734878 0.84775007 1.4464983e-38
-0.006695929 0.17598779 0.84275007 1.4466417e-38
-0.006695929 0.17598779 0.84525007 1.4649712e-38
-0.006695929 0.17848779 0.84525007 1.5202883e-38
-0.004195929 0.17598779 0.84525007 1.492524e-38
-0.006695929 0.17598779 0.84775007 1.4649712e-38
-0.006695929 0.17848779 0.84775007 1.5111406e-38
-0.004195929 0.17598779 0.84775007 1.4741562e-38
-0.004195929 0.17598779 0.85025007 1.4926672e-38
-0.004195929 0.17848779 0.84775007 1.4834839e-38
-0.004195929 0.17848779 0.85025007 1.501994e-38
-0.006695929 0.18098779 0.84525007 1.5112855e-38
-0.006695929 0.18098779 0.84775007 1.5019584e-38
-0.006695929 0.18098779 0.85025007 1.4741206e-38
-0.006695929 0.18348779 0.84775007 1.5203255e-38
-0.006695929 0.18348779 0.85025007 1.5111041e-38
-0.004195929 0.18098779 0.84775007 1.5477337e-38
-0.004195929 0.18098779 0.85025007 1.4926675e-38
-0.004195929 0.18348779 0.85025007 1.5293652e-38
-0.001695929 0.17598779 0.84525007 1.4925593e-38
-0.001695929 0.17848779 0.84525007 1.4650082e-38
0.00080407097 0.17598779 0.84275007 1.5018883e-38
0.00080407097 0.17598779 0.84525007 1.5109283e-38
0.00080407097 0.17848779 0.84275007 1.5201829e-38
0.00080407097 0.17848779 0.84525007 1.5294745e-38
-0.001695929 0.17598779 0.84775007 1.4649732e-38
-0.001695929 0.17598779 0.85025007 1.4466414e-38
-0.001695929 0.17848779 0.84775007 1.5017791e-38
-0.001695929 0.17848779 0.85025007 1.4649732e-38
0.00080407097 0.17598779 0.84775007 1.5295101e-38
0.00080407097 0.17848779 0.84775007 1.5386941e-38
-0.001695929 0.18098779 0.84525007 1.5386931e-38
0.00080407097 0.18098779 0.84275007 1.6030867e-38
0.00080407097 0.18098779 0.84525007 1.6030148e-38
0.00080407097 0.18348779 0.84275007 1.6583322e-38
0.00080407097 0.18348779 0.84525007 1.640037e-38
-0.001695929 0.18098779 0.84775007 1.5384776e-38
-0.001695929 0.18098779 0.85025007 1.5292583e-38
-0.001695929 0.18348779 0.84775007 1.5753558e-38
-0.001695929 0.18348779 0.85025007 1.529258e-38
0.00080407097 0.18098779 0.84775007 1.6490768e-38
0.00080407097 0.18348779 0.84775007 1.6676236e-38
-0.004195929 0.18098779 0.85275006 1.5479843e-38
-0.004195929 0.18348779 0.85275006 1.5477337e-38
-0.001695929 0.18098779 0.85275006 1.5295449e-38
-0.001695929 0.18348779 0.85275006 1.5108537e-38
0.003304071 0.16848779 0.84275007 1.5109634e-38
0.003304071 0.17098778 0.84275007 1.5936525e-38
0.003304071 0.1734878 0.84275007 1.6397151e-38
0.003304071 0.17598779 0.84275007 1.5939394e-38
0.003304071 0.17598779 0.84525007 1.6490052e-38
0.003304071 0.18098779 0.84525007 1.7412001e-38
0.003304071 0.18348779 0.84275007 1.6860982e-38
0.003304071 0.18348779 0.84525007 1.7230489e-38
0.003304071 0.18348779 0.84775007 1.7689311e-38
0.003304071 0.18598779 0.84025007 1.7230837e-38
0.003304071 0.1884878 0.84025007 1.7598895e-38
0.0058040712 0.18598779 0.84025007 1.7323038e-38
0.0058040712 0.1884878 0.84025007 1.732233e-38
0.0083040707 0.18598779 0.83775002 1.7505999e-38
0.0083040707 0.18598779 0.84025007 1.7230484e-38
0.0083040707 0.1884878 0.84025007 1.732233e-38
0.010804071 0.18598779 0.83775002 1.7137935e-38
0.010804071 0.18598779 0.84025007 1.750672e-38
0.010804071 0.1884878 0.83775002 1.6861351e-38
0.010804071 0.1884878 0.84025007 1.6861351e-38
0.010804071 0.1909878 0.84025007 1.7229051e-38
0.010804071 0.19348779 0.84025007 1.7045374e-38
0.013304071 0.18598779 0.83525002 1.8890005e-38
0.013304071 0.1884878 0.83525002 1.8889283e-38
0.015804071 0.18598779 0.83525002 1.8523396e-38
0.015804071 0.1884878 0.83525002 1.8523043e-38
0.013304071 0.18598779 0.83775002 1.8523027e-38
0.013304071 0.1884878 0.83775002 1.8981482e-38
0.013304071 0.1884878 0.84025007 1.8704888e-38
0.015804071 0.18598779 0.83775002 1.8983652e-38
0.015804071 0.1884878 0.83775002 1.9074414e-38
0.015804071 0.1884878 0.84025007 1.9256292e-38
0.013304071 0.1909878 0.83775002 1.9073677e-38
0.013304071 0.1909878 0.84025007 1.8704891e-38
0.013304071 0.19348779 0.84025007 1.6676218e-38
0.015804071 0.1909878 0.83775002 1.8890746e-38
-0.024195928 0.18598779 0.84775007 1.6863143e-38
-0.024195928 0.1884878 0.84775007 1.7048243e-38
-0.024195928 0.1884878 0.85025007 1.73216e-38
-0.024195928 0.1909878 0.84775007 1.7138291e-38
-0.024195928 0.1909878 0.85025007 1.6860978e-38
-0.024195928 0.19348779 0.85025007 1.7598916e-38
-0.021695929 0.18598779 0.84525007 1.7507812e-38
-0.021695929 0.1884878 0.84525007 1.7692929e-38
-0.019195929 0.18598779 0.84525007 1.7599269e-38
-0.019195929 0.1884878 0.84525007 1.7691462e-38
-0.021695929 0.18598779 0.84775007 1.7324121e-38
-0.021695929 0.1884878 0.84775007 1.7416667e-38
-0.019195929 0.18598779 0.84775007 1.7599269e-38
-0.019195929 0.1884878 0.84775007 1.7690743e-38
-0.021695929 0.1909878 0.84525007 1.815244e-38
-0.019195929 0.1909878 0.84525007 1.815172e-38
-0.021695929 0.1909878 0.84775007 1.7693616e-38
-0.021695929 0.1909878 0.85025007 1.8151717e-38
-0.021695929 0.19348779 0.85025007 1.8520872e-38
-0.019195929 0.1909878 0.84775007 1.769039e-38
-0.019195929 0.1909878 0.85025007 1.8977166e-38
-0.019195929 0.19348779 0.84775007 1.6954976e-38
-0.019195929 0.19348779 0.85025007 1.8337184e-38
-0.024195928 0.1884878 0.85275006 1.6677332e-38
-0.024195928 0.1909878 0.85275006 1.6770947e-38
-0.024195928 0.1909878 0.85525006 1.6861726e-38
-0.01669593 0.18598779 0.84275007 1.7506717e-38
-0.01669593 0.18598779 0.84525007 1.7599269e-38
-0.01669593 0.1884878 0.84525007 1.7966975e-38
-0.014195929 0.18598779 0.84275007 1.7598913e-38
-0.014195929 0.18598779 0.84525007 1.7507794e-38
-0.014195929 0.1884878 0.84525007 1.8059168e-38
-0.01669593 0.1884878 0.84775007 1.769039e-38
-0.014195929 0.1884878 0.84775007 1.7966975e-38
-0.01669593 0.1909878 0.84525007 1.8059521e-38
