# .PCD v0.7 - Point Cloud Data file format
VERSION 0.7
FIELDS x y z rgb
SIZE 4 4 4 4
TYPE F F F F
COUNT 1 1 1 1
WIDTH 976
HEIGHT 1
VIEWPOINT 0 0 0 1 0 0 0
POINTS 976
DATA ascii
-0.026837714 0.10599755 0.84475005 5.7039167e-39
-0.024337715 0.10349756 0.84475005 1.3820359e-38
-0.019337714 0.10349756 0.84475005 2.1192031e-38
-0.019337714 0.10349756 0.84725004 2.1282425e-38
-0.019337714 0.10349756 0.84975004 2.1558656e-38
-0.036837716 0.12349756 0.83475006 6.9056647e-39
-0.036837716 0.12349756 0.83725005 7.5495725e-39
-0.036837716 0.12599756 0.83475006 7.2722836e-39
-0.036837716 0.12599756 0.83725005 7.1808068e-39
-0.036837716 0.12849756 0.83475006 7.5488691e-39
-0.036837716 0.13099755 0.83475006 7.4566735e-39
-0.036837716 0.13349755 0.83475006 7.4566735e-39
-0.036837716 0.13849756 0.83475006 7.2722836e-39
-0.036837716 0.14099756 0.83475006 7.9194285e-39
-0.016837714 0.11099756 0.82225007 9.307458e-39
-0.016837714 0.11099756 0.82475007 9.0315816e-39
-0.016837714 0.10849756 0.82975006 8.6436573e-39
-0.016837714 0.10849756 0.83225006 7.5445012e-39
-0.016837714 0.11099756 0.82975006 4.0576671e-39
-0.016837714 0.11099756 0.83225006 3.8729171e-39
-0.014337714 0.10849756 0.83225006 1.492524e-38
-0.014337714 0.11099756 0.82975006 6.7208881e-39
-0.014337714 0.11099756 0.83225006 6.6315469e-39
-0.011837714 0.10849756 0.83225006 1.382288e-38
-0.011837714 0.11099756 0.82975006 1.2439555e-38
-0.011837714 0.11099756 0.83225006 1.3175654e-38
-0.0093377139 0.10849756 0.83225006 1.6218519e-38
-0.0093377139 0.11099756 0.82975006 1.6403597e-38
-0.0093377139 0.11099756 0.83225006 1.6494697e-38
-0.016837714 0.11349756 0.81975007 5.9865825e-39
-0.016837714 0.11349756 0.82225007 6.2592233e-39
-0.016837714 0.11599756 0.81975007 1.1331784e-38
-0.016837714 0.11599756 0.82225007 5.5256239e-39
-0.014337714 0.11349756 0.81975007 5.7099956e-39
-0.014337714 0.11349756 0.82225007 6.6290848e-39
-0.014337714 0.11599756 0.81975007 5.7107242e-39
-0.014337714 0.11599756 0.82225007 6.6290848e-39
-0.016837714 0.11849756 0.81975007 6.3560937e-39
-0.016837714 0.11849756 0.82225007 6.263189e-39
-0.016837714 0.12099756 0.81975007 6.263189e-39
-0.014337714 0.11849756 0.81975007 6.0787977e-39
-0.014337714 0.11849756 0.82225007 6.263898e-39
-0.014337714 0.12099756 0.81975007 6.263189e-39
-0.014337714 0.12099756 0.82225007 6.3557433e-39
-0.016837714 0.11349756 0.82475007 6.7219839e-39
-0.016837714 0.11349756 0.82725006 6.3514189e-39
-0.014337714 0.11349756 0.82725006 6.3514189e-39
-0.014337714 0.11599756 0.82475007 6.0780788e-39
-0.014337714 0.11599756 0.82725006 6.079148e-39
-0.016837714 0.11349756 0.82975006 5.2508349e-39
-0.014337714 0.11349756 0.82975006 5.9883999e-39
-0.014337714 0.11349756 0.83225006 7.0028952e-39
-0.014337714 0.11599756 0.82975006 7.2751759e-39
-0.014337714 0.11599756 0.83225006 6.5415583e-39
-0.014337714 0.11849756 0.82475007 6.4446921e-39
-0.014337714 0.11849756 0.82725006 6.263898e-39
-0.014337714 0.12099756 0.82475007 5.7993227e-39
-0.014337714 0.12099756 0.82725006 6.9971569e-39
-0.014337714 0.11849756 0.82975006 7.2755262e-39
-0.014337714 0.11849756 0.83225006 6.6330505e-39
-0.014337714 0.12099756 0.82975006 5.9851377e-39
-0.014337714 0.12099756 0.83225006 6.9096276e-39
-0.011837714 0.11349756 0.82975006 9.8566507e-39
-0.011837714 0.11349756 0.83225006 1.308528e-38
-0.011837714 0.11599756 0.82975006 9.4907549e-39
-0.011837714 0.11599756 0.83225006 9.8562948e-39
-0.0093377139 0.11349756 0.82975006 1.6494733e-38
-0.0093377139 0.11349756 0.83225006 1.6496158e-38
-0.0093377139 0.11599756 0.83225006 1.6403244e-38
-0.011837714 0.11849756 0.82975006 9.4911052e-39
-0.011837714 0.11849756 0.83225006 9.8570038e-39
-0.011837714 0.12099756 0.83225006 9.9491995e-39
-0.0043377141 0.10599755 0.82975006 1.7968772e-38
-0.006837714 0.10849756 0.83225006 1.5758969e-38
-0.006837714 0.11099756 0.82975006 1.6033758e-38
-0.006837714 0.11099756 0.83225006 1.5018886e-38
-0.0043377141 0.10849756 0.82975006 1.8243919e-38
-0.0043377141 0.10849756 0.83225006 1.8519071e-38
-0.0043377141 0.11099756 0.82975006 1.806097e-38
-0.0043377141 0.11099756 0.83225006 1.7875503e-38
-0.0018377141 0.10599755 0.82975006 1.9258441e-38
-0.0018377141 0.10849756 0.82975006 1.9811614e-38
-0.0018377141 0.10849756 0.83225006 1.9074768e-38
-0.0018377141 0.11099756 0.82975006 1.981341e-38
-0.0018377141 0.11099756 0.83225006 1.9720137e-38
0.00066228583 0.11099756 0.83225006 1.9535018e-38
-0.006837714 0.11349756 0.82975006 1.6402185e-38
-0.006837714 0.11349756 0.83225006 1.5019954e-38
-0.0043377141 0.11349756 0.83225006 1.7600361e-38
-0.0018377141 0.11349756 0.83225006 1.8983645e-38
-0.0018377141 0.11599756 0.83225006 1.9996357e-38
0.00066228583 0.11349756 0.83225006 1.9534305e-38
0.00066228583 0.11599756 0.83225006 1.9626854e-38
-0.016837714 0.12349756 0.81975007 6.4486592e-39
-0.016837714 0.12349756 0.82225007 6.5412052e-39
-0.016837714 0.12599756 0.81975007 1.1331784e-38
-0.016837714 0.12599756 0.82225007 1.1517611e-38
-0.016837714 0.12849756 0.81975007 1.1241383e-38
-0.016837714 0.12849756 0.82225007 1.1239588e-38
-0.016837714 0.13099755 0.81975007 1.1793838e-38
-0.016837714 0.13099755 0.82225007 1.1699487e-38
-0.016837714 0.12599756 0.82475007 6.6334008e-39
-0.016837714 0.12599756 0.82725006 7.0021763e-39
-0.014337714 0.12349756 0.82725006 7.0907804e-39
-0.014337714 0.12599756 0.82725006 6.9063906e-39
-0.016837714 0.12599756 0.82975006 7.0021819e-39
-0.014337714 0.12349756 0.82975006 6.9074626e-39
-0.014337714 0.12349756 0.83225006 6.1709933e-39
-0.014337714 0.12599756 0.82975006 7.272299e-39
-0.014337714 0.12599756 0.83225006 6.9060402e-39
-0.016837714 0.12849756 0.82475007 1.1516172e-38
-0.016837714 0.12849756 0.82725006 7.3680904e-39
-0.016837714 0.13099755 0.82475007 1.1884955e-38
-0.016837714 0.13099755 0.82725006 7.3673813e-39
-0.016837714 0.12849756 0.82975006 7.9205397e-39
-0.016837714 0.13099755 0.82975006 7.7354282e-39
-0.014337714 0.12849756 0.82975006 7.0900756e-39
-0.014337714 0.12849756 0.83225006 6.5386898e-39
-0.014337714 0.13099755 0.82975006 6.8149166e-39
-0.014337714 0.13099755 0.83225006 5.8954854e-39
-0.016837714 0.13349755 0.81975007 1.1793838e-38
-0.016837714 0.13349755 0.82225007 1.1794557e-38
-0.016837714 0.13599756 0.82225007 1.2345577e-38
-0.016837714 0.13849756 0.82225007 8.0148863e-39
-0.016837714 0.13349755 0.82475007 1.1702005e-38
-0.016837714 0.13349755 0.82725006 7.4599357e-39
-0.016837714 0.13599756 0.82475007 1.1978219e-38
-0.016837714 0.13599756 0.82725006 7.8301419e-39
-0.016837714 0.13349755 0.82975006 6.6330505e-39
-0.016837714 0.13599756 0.82975006 7.6453975e-39
-0.016837714 0.13599756 0.83225006 7.0947475e-39
-0.014337714 0.13349755 0.82975006 6.6337694e-39
-0.014337714 0.13349755 0.83225006 5.3419585e-39
-0.014337714 0.13599756 0.82975006 5.4352262e-39
-0.014337714 0.13599756 0.83225006 6.6298009e-39
-0.016837714 0.13849756 0.82475007 7.2802108e-39
-0.016837714 0.14099756 0.82725006 7.2805611e-39
-0.016837714 0.13849756 0.82975006 7.9230564e-39
-0.016837714 0.14099756 0.82975006 7.9230564e-39
-0.016837714 0.14099756 0.83225006 7.9230564e-39
-0.014337714 0.13849756 0.82975006 5.6210439e-39
-0.014337714 0.14099756 0.82975006 6.1716996e-39
-0.016837714 0.10599755 0.83475006 1.4097598e-38
-0.016837714 0.10599755 0.83725005 1.4003614e-38
-0.014337714 0.10599755 0.83725005 1.446315e-38
-0.016837714 0.10349756 0.83975005 1.7230136e-38
-0.016837714 0.10349756 0.84225005 1.6679836e-38
-0.016837714 0.10599755 0.83975005 1.4924536e-38
-0.014337714 0.10349756 0.83975005 1.2447877e-38
-0.014337714 0.10349756 0.84225005 1.3729218e-38
-0.014337714 0.10599755 0.83975005 1.5298363e-38
-0.016837714 0.10849756 0.83475006 8.4682666e-39
-0.014337714 0.10849756 0.83475006 1.4098353e-38
-0.014337714 0.10849756 0.83725005 1.5851865e-38
-0.014337714 0.11099756 0.83475006 7.1843774e-39
-0.011837714 0.10599755 0.83725005 1.1525896e-38
-0.0093377139 0.10599755 0.83725005 1.1065276e-38
-0.011837714 0.10349756 0.83975005 7.6543883e-39
-0.011837714 0.10349756 0.84225005 8.2983101e-39
-0.011837714 0.10599755 0.83975005 1.1801043e-38
-0.0093377139 0.10349756 0.83975005 9.2224146e-39
-0.0093377139 0.10349756 0.84225005 9.4053611e-39
-0.0093377139 0.10599755 0.83975005 1.2537514e-38
-0.011837714 0.10849756 0.83475006 1.4282764e-38
-0.011837714 0.10849756 0.83725005 1.4932468e-38
-0.011837714 0.11099756 0.83475006 1.2716844e-38
-0.0093377139 0.10849756 0.83475006 1.557602e-38
-0.0093377139 0.10849756 0.83725005 1.6218872e-38
-0.0093377139 0.11099756 0.83475006 1.6128082e-38
-0.0093377139 0.10849756 0.83975005 1.5298361e-38
-0.016837714 0.10349756 0.84475005 1.732233e-38
-0.011837714 0.10349756 0.84475005 7.7476377e-39
-0.0093377139 0.10349756 0.84475005 8.2082599e-39
-0.014337714 0.11599756 0.83475006 6.910331e-39
-0.014337714 0.11849756 0.83475006 6.9099807e-39
-0.014337714 0.12099756 0.83475006 7.2748228e-39
-0.011837714 0.11349756 0.83475006 1.2900533e-38
-0.011837714 0.11599756 0.83475006 1.2900533e-38
-0.0093377139 0.11349756 0.83475006 1.612738e-38
-0.0093377139 0.11599756 0.83475006 1.6311771e-38
-0.011837714 0.11849756 0.83475006 9.3985592e-39
-0.011837714 0.11849756 0.83725005 1.3175681e-38
-0.011837714 0.12099756 0.83475006 9.2148784e-39
-0.011837714 0.12099756 0.83725005 9.948496e-39
-0.0093377139 0.11849756 0.83475006 1.6311421e-38
-0.0093377139 0.11849756 0.83725005 1.6678755e-38
-0.0093377139 0.12099756 0.83475006 1.6496161e-38
-0.0093377139 0.12099756 0.83725005 1.6954623e-38
-0.011837714 0.12099756 0.83975005 1.3451189e-38
-0.0093377139 0.12099756 0.83975005 1.6126312e-38
-0.006837714 0.10599755 0.83475006 1.3828603e-38
-0.006837714 0.10599755 0.83725005 1.4381067e-38
-0.0043377141 0.10599755 0.83475006 1.8519427e-38
-0.0043377141 0.10599755 0.83725005 1.8061692e-38
-0.006837714 0.10349756 0.83975005 1.3000991e-38
-0.006837714 0.10349756 0.84225005 1.3186828e-38
-0.006837714 0.10599755 0.83975005 1.3921865e-38
-0.0043377141 0.10349756 0.83975005 1.5850073e-38
-0.0043377141 0.10599755 0.83975005 1.787874e-38
-0.006837714 0.10849756 0.83475006 1.4836659e-38
-0.006837714 0.10849756 0.83725005 1.4928136e-38
-0.006837714 0.11099756 0.83475006 1.5111083e-38
-0.006837714 0.11099756 0.83725005 1.5019606e-38
-0.0043377141 0.10849756 0.83475006 1.7692558e-38
-0.0043377141 0.10849756 0.83725005 1.815172e-38
-0.0043377141 0.11099756 0.83475006 1.7875503e-38
-0.0018377141 0.10849756 0.83475006 1.9257005e-38
-0.0018377141 0.11099756 0.83475006 1.9075848e-38
0.00066228583 0.11099756 0.83475006 1.971905e-38
-0.006837714 0.11349756 0.83475006 1.5204348e-38
-0.006837714 0.11599756 0.83475006 1.5020685e-38
-0.006837714 0.11599756 0.83725005 1.5112149e-38
-0.0043377141 0.11349756 0.83475006 1.7600714e-38
-0.0043377141 0.11349756 0.83725005 1.5111433e-38
-0.0043377141 0.11599756 0.83475006 1.7785459e-38
-0.0043377141 0.11599756 0.83725005 1.7969493e-38
-0.006837714 0.11849756 0.83475006 1.5204704e-38
-0.006837714 0.11849756 0.83725005 1.5203629e-38
-0.006837714 0.12099756 0.83475006 1.5203629e-38
-0.006837714 0.12099756 0.83725005 1.6676964e-38
-0.0043377141 0.11849756 0.83475006 1.5569887e-38
-0.0043377141 0.11849756 0.83725005 1.4834123e-38
-0.0043377141 0.12099756 0.83725005 1.5109631e-38
-0.006837714 0.12099756 0.83975005 1.5570256e-38
-0.0043377141 0.11849756 0.83975005 1.7968775e-38
-0.0043377141 0.12099756 0.83975005 1.7875503e-38
-0.0018377141 0.11349756 0.83475006 1.9812683e-38
-0.0018377141 0.11349756 0.83725005 1.962902e-38
-0.0018377141 0.11599756 0.83475006 1.9720487e-38
-0.0018377141 0.11599756 0.83725005 1.9443902e-38
0.00066228583 0.11349756 0.83475006 1.9535374e-38
0.00066228583 0.11599756 0.83475006 1.8981485e-38
-0.0018377141 0.11599756 0.83975005 1.9536456e-38
0.00066228583 0.11599756 0.83975005 1.9442826e-38
-0.0018377141 0.11849756 0.83475006 1.9442828e-38
-0.0018377141 0.11849756 0.83725005 1.9168044e-38
-0.0018377141 0.12099756 0.83725005 1.9534668e-38
0.00066228583 0.11849756 0.83475006 1.9442826e-38
-0.0018377141 0.11849756 0.83975005 1.9444623e-38
-0.0018377141 0.11849756 0.84225005 1.962902e-38
-0.0018377141 0.12099756 0.83975005 1.9720137e-38
-0.0018377141 0.12099756 0.84225005 1.9719062e-38
0.00066228583 0.11849756 0.83975005 1.9442828e-38
0.00066228583 0.11849756 0.84225005 1.9442823e-38
0.00066228583 0.12099756 0.83975005 1.9442828e-38
0.00066228583 0.12099756 0.84225005 1.9534305e-38
-0.016837714 0.12599756 0.83725005 6.6334008e-39
-0.014337714 0.12349756 0.83475006 7.3673715e-39
-0.014337714 0.12349756 0.83725005 6.8170816e-39
-0.014337714 0.12599756 0.83475006 6.3568125e-39
-0.014337714 0.12599756 0.83725005 6.6330505e-39
-0.014337714 0.12349756 0.83975005 6.6330505e-39
-0.014337714 0.12599756 0.83975005 7.0025449e-39
-0.014337714 0.12849756 0.83475006 6.2646113e-39
-0.014337714 0.12849756 0.83725005 7.0014729e-39
-0.014337714 0.13099755 0.83475006 5.8969078e-39
-0.014337714 0.13099755 0.83725005 6.3524937e-39
-0.014337714 0.12849756 0.83975005 7.0014729e-39
-0.014337714 0.13099755 0.83975005 6.5408549e-39
-0.011837714 0.12349756 0.83475006 9.9491995e-39
-0.011837714 0.12349756 0.83725005 9.4907549e-39
-0.011837714 0.12599756 0.83725005 1.3729921e-38
-0.0093377139 0.12349756 0.83725005 1.6679834e-38
-0.0093377139 0.12599756 0.83725005 1.6588006e-38
-0.011837714 0.12349756 0.83975005 1.3268595e-38
-0.011837714 0.12599756 0.83975005 1.3268595e-38
-0.0093377139 0.12349756 0.83975005 1.6034464e-38
-0.0093377139 0.12599756 0.83975005 1.6311048e-38
-0.011837714 0.12849756 0.83725005 9.6729825e-39
-0.011837714 0.12849756 0.83975005 1.3360788e-38
-0.011837714 0.13099755 0.83975005 1.363702e-38
-0.011837714 0.13099755 0.84225005 1.3821766e-38
-0.0093377139 0.12849756 0.83975005 1.6034467e-38
-0.0093377139 0.13099755 0.83975005 1.6495086e-38
-0.0093377139 0.13099755 0.84225005 1.6310692e-38
-0.016837714 0.13599756 0.83725005 7.1872963e-39
-0.014337714 0.13349755 0.83475006 6.1695472e-39
-0.014337714 0.13349755 0.83725005 6.7216364e-39
-0.014337714 0.13599756 0.83475006 6.9053144e-39
-0.014337714 0.13599756 0.83725005 5.8040031e-39
-0.014337714 0.13349755 0.83975005 6.9067633e-39
-0.014337714 0.13599756 0.83975005 5.9876811e-39
-0.014337714 0.13599756 0.84225005 6.6330505e-39
-0.014337714 0.14099756 0.83725005 6.6315987e-39
-0.016837714 0.13849756 0.83975005 7.0961796e-39
-0.016837714 0.13849756 0.84225005 7.3727595e-39
-0.016837714 0.14099756 0.83975005 7.8304923e-39
-0.016837714 0.14099756 0.84225005 7.9223376e-39
-0.014337714 0.13849756 0.83975005 5.8054408e-39
-0.014337714 0.13849756 0.84225005 7.4599357e-39
-0.014337714 0.14099756 0.83975005 6.1716996e-39
-0.014337714 0.14099756 0.84225005 6.1709807e-39
-0.011837714 0.13349755 0.83975005 1.0225436e-38
-0.011837714 0.13349755 0.84225005 1.3545905e-38
-0.011837714 0.13599756 0.83975005 9.583654e-39
-0.011837714 0.13599756 0.84225005 1.4189473e-38
-0.0093377139 0.13349755 0.83975005 1.6588001e-38
-0.0093377139 0.13349755 0.84225005 1.6125956e-38
-0.0093377139 0.13599756 0.83975005 1.6127383e-38
-0.0093377139 0.13599756 0.84225005 1.5848998e-38
-0.011837714 0.13849756 0.84225005 9.7673488e-39
-0.0093377139 0.13849756 0.84225005 1.6494736e-38
-0.014337714 0.13599756 0.84475005 7.3673715e-39
-0.016837714 0.13849756 0.84475005 7.7379463e-39
-0.016837714 0.14099756 0.84475005 7.2798422e-39
-0.016837714 0.14099756 0.84725004 5.6206908e-39
-0.014337714 0.13849756 0.84475005 6.9096276e-39
-0.014337714 0.14099756 0.84475005 6.9092828e-39
-0.014337714 0.14099756 0.84725004 7.0936755e-39
-0.014337714 0.14099756 0.84975004 7.4599357e-39
-0.011837714 0.13599756 0.84475005 1.363702e-38
-0.0093377139 0.13349755 0.84475005 1.6309989e-38
-0.0093377139 0.13599756 0.84475005 1.6033761e-38
-0.011837714 0.13849756 0.84475005 1.3913962e-38
-0.011837714 0.13849756 0.84725004 1.409763e-38
-0.011837714 0.14099756 0.84475005 1.3821413e-38
-0.011837714 0.14099756 0.84725004 1.3913609e-38
-0.0093377139 0.13849756 0.84475005 1.6311048e-38
-0.0093377139 0.13849756 0.84725004 1.7140087e-38
-0.0093377139 0.14099756 0.84475005 1.6494017e-38
-0.0093377139 0.14099756 0.84725004 1.6310692e-38
-0.011837714 0.14099756 0.84975004 1.409763e-38
-0.0093377139 0.14099756 0.84975004 1.6310695e-38
-0.006837714 0.12349756 0.83725005 1.5019954e-38
-0.006837714 0.12599756 0.83725005 1.4743738e-38
-0.0043377141 0.12349756 0.83725005 1.4465711e-38
-0.0043377141 0.12599756 0.83725005 1.4926334e-38
-0.006837714 0.12349756 0.83975005 1.4835921e-38
-0.006837714 0.12599756 0.83975005 1.5020309e-38
-0.0043377141 0.12349756 0.83975005 1.815209e-38
-0.0043377141 0.12599756 0.83975005 1.8245364e-38
-0.0043377141 0.12599756 0.84225005 1.8244282e-38
-0.006837714 0.12849756 0.83975005 1.5296543e-38
-0.006837714 0.13099755 0.83975005 1.5480214e-38
-0.006837714 0.13099755 0.84225005 1.5204716e-38
-0.0043377141 0.12849756 0.83975005 1.7968419e-38
-0.0043377141 0.12849756 0.84225005 1.806097e-38
-0.0043377141 0.13099755 0.83975005 1.5940468e-38
-0.0043377141 0.13099755 0.84225005 1.7968424e-38
-0.0018377141 0.12349756 0.83975005 1.9811258e-38
-0.0018377141 0.12349756 0.84225005 1.9626864e-38
-0.0018377141 0.12599756 0.83975005 1.9626867e-38
-0.0018377141 0.12599756 0.84225005 1.9719062e-38
0.00066228583 0.12349756 0.84225005 1.9533949e-38
0.00066228583 0.12599756 0.84225005 1.971762e-38
-0.0018377141 0.12849756 0.83975005 1.9258441e-38
-0.0018377141 0.12849756 0.84225005 1.9442122e-38
-0.0018377141 0.13099755 0.83975005 1.916769e-38
-0.0018377141 0.13099755 0.84225005 1.9351359e-38
0.00066228583 0.12849756 0.84225005 1.9257361e-38
-0.0018377141 0.12349756 0.84475005 1.9811978e-38
-0.0018377141 0.12599756 0.84475005 1.9535753e-38
0.00066228583 0.12349756 0.84475005 1.9442828e-38
0.00066228583 0.12599756 0.84475005 1.9258437e-38
-0.0018377141 0.13099755 0.84475005 1.9626869e-38
-0.006837714 0.13349755 0.83975005 1.5388389e-38
-0.006837714 0.13349755 0.84225005 1.5388391e-38
-0.006837714 0.13599756 0.83975005 1.5205066e-38
-0.006837714 0.13599756 0.84225005 1.5664605e-38
-0.0043377141 0.13349755 0.83975005 1.6030867e-38
-0.0043377141 0.13349755 0.84225005 1.806062e-38
-0.0043377141 0.13599756 0.83975005 1.8427955e-38
-0.0043377141 0.13599756 0.84225005 1.7785106e-38
-0.006837714 0.13849756 0.83975005 1.5296899e-38
-0.006837714 0.13849756 0.84225005 1.5389098e-38
-0.0043377141 0.13849756 0.83975005 1.806097e-38
-0.0043377141 0.13849756 0.84225005 1.7969493e-38
-0.0018377141 0.13349755 0.83975005 1.9536103e-38
-0.0018377141 0.13349755 0.84225005 1.9443554e-38
-0.0018377141 0.13599756 0.83975005 1.9166611e-38
-0.0018377141 0.13599756 0.84225005 1.8706355e-38
-0.0018377141 0.13849756 0.83975005 1.9166609e-38
-0.0018377141 0.13849756 0.84225005 1.916769e-38
-0.0043377141 0.13349755 0.84475005 1.8336115e-38
-0.0043377141 0.13599756 0.84475005 1.8336115e-38
-0.006837714 0.13849756 0.84475005 1.5389092e-38
-0.006837714 0.14099756 0.84475005 1.5664255e-38
-0.006837714 0.14099756 0.84725004 1.5389098e-38
-0.0043377141 0.13849756 0.84475005 1.8427955e-38
-0.0043377141 0.13849756 0.84725004 1.8153163e-38
-0.0043377141 0.14099756 0.84475005 1.8427955e-38
-0.0043377141 0.14099756 0.84725004 1.5571338e-38
-0.006837714 0.14099756 0.84975004 1.5481293e-38
-0.0043377141 0.13849756 0.84975004 1.8245364e-38
-0.0043377141 0.14099756 0.84975004 1.8245011e-38
-0.0018377141 0.13349755 0.84475005 1.9626869e-38
-0.0018377141 0.13599756 0.84475005 1.9534671e-38
-0.0018377141 0.14099756 0.84475005 1.9626867e-38
-0.0018377141 0.14099756 0.84725004 1.9443201e-38
-0.0018377141 0.13849756 0.84975004 1.9720137e-38
-0.0018377141 0.14099756 0.84975004 1.9443554e-38
-0.0018377141 0.14099756 0.8547501 1.9166965e-38
-0.034337714 0.14349756 0.82725006 1.5942269e-38
-0.036837716 0.14349756 0.82975006 1.3817094e-38
-0.036837716 0.14349756 0.83225006 1.4186954e-38
-0.036837716 0.14599755 0.82975006 1.3817094e-38
-0.036837716 0.14599755 0.83225006 1.3909982e-38
-0.034337714 0.14349756 0.82975006 1.5480587e-38
-0.034337714 0.14349756 0.83225006 1.5574209e-38
-0.034337714 0.14599755 0.82975006 1.5756815e-38
-0.034337714 0.14599755 0.83225006 1.612666e-38
-0.036837716 0.14849755 0.83225006 1.4001844e-38
-0.034337714 0.14849755 0.82975006 1.6032679e-38
-0.034337714 0.14849755 0.83225006 1.5941913e-38
-0.031837713 0.14349756 0.82725006 1.5757156e-38
-0.031837713 0.14599755 0.82725006 1.5480587e-38
-0.029337713 0.14349756 0.82475007 1.4097652e-38
-0.029337713 0.14349756 0.82725006 1.4373881e-38
-0.029337713 0.14599755 0.82725006 1.3635595e-38
-0.031837713 0.14349756 0.82975006 1.5480211e-38
-0.031837713 0.14599755 0.82975006 1.5941565e-38
-0.031837713 0.14599755 0.83225006 1.5941913e-38
-0.029337713 0.14599755 0.82975006 1.4374214e-38
-0.031837713 0.14849755 0.82975006 1.6217073e-38
-0.031837713 0.14849755 0.83225006 1.6402891e-38
-0.031837713 0.15099756 0.82975006 1.5849014e-38
-0.031837713 0.15099756 0.83225006 1.5756452e-38
-0.029337713 0.14849755 0.82975006 1.3450838e-38
-0.029337713 0.14849755 0.83225006 1.5109631e-38
-0.029337713 0.15099756 0.82975006 1.345228e-38
-0.029337713 0.15099756 0.83225006 1.4742644e-38
-0.031837713 0.15349756 0.83225006 1.5848998e-38
-0.029337713 0.15349756 0.82975006 1.3913258e-38
-0.029337713 0.15349756 0.83225006 1.4096946e-38
-0.029337713 0.15599756 0.83225006 1.511108e-38
-0.026837714 0.14349756 0.82475007 1.3452283e-38
-0.026837714 0.14349756 0.82725006 1.3085633e-38
-0.026837714 0.14599755 0.82725006 1.3635595e-38
-0.024337715 0.14349756 0.82475007 1.5665326e-38
-0.024337715 0.14349756 0.82725006 1.5848648e-38
-0.024337715 0.14599755 0.82475007 1.557135e-38
-0.024337715 0.14599755 0.82725006 1.5386591e-38
-0.026837714 0.14849755 0.82725006 1.3544456e-38
-0.024337715 0.14849755 0.82725006 1.6582619e-38
-0.024337715 0.15099756 0.82725006 1.5849735e-38
-0.026837714 0.14849755 0.82975006 1.3543034e-38
-0.026837714 0.15099756 0.82975006 1.3267889e-38
-0.024337715 0.14849755 0.82975006 1.5940115e-38
-0.024337715 0.15099756 0.82975006 1.6123455e-38
-0.021837715 0.14349756 0.82475007 1.6033385e-38
-0.021837715 0.14349756 0.82725006 1.6494723e-38
-0.021837715 0.14599755 0.82475007 1.548129e-38
-0.021837715 0.14599755 0.82725006 1.5849351e-38
-0.019337714 0.14349756 0.82475007 1.6495455e-38
-0.019337714 0.14349756 0.82725006 1.1978949e-38
-0.019337714 0.14599755 0.82725006 1.2071867e-38
-0.021837715 0.14349756 0.82975006 1.6401822e-38
-0.021837715 0.14599755 0.82975006 1.6402172e-38
-0.019337714 0.14349756 0.82975006 1.640254e-38
-0.019337714 0.14349756 0.83225006 1.2439558e-38
-0.019337714 0.14599755 0.82975006 1.2255166e-38
-0.019337714 0.14599755 0.83225006 1.2529608e-38
-0.021837715 0.14849755 0.82725006 1.6032666e-38
-0.021837715 0.15099756 0.82725006 1.6217073e-38
-0.019337714 0.14849755 0.82725006 1.2807617e-38
-0.021837715 0.14849755 0.82975006 1.6493284e-38
-0.021837715 0.14849755 0.83225006 1.7227988e-38
-0.021837715 0.15099756 0.82975006 1.6032666e-38
-0.021837715 0.15099756 0.83225006 1.6124862e-38
-0.019337714 0.14849755 0.82975006 1.6128474e-38
-0.019337714 0.14849755 0.83225006 1.2624322e-38
-0.019337714 0.15099756 0.82975006 1.6034477e-38
-0.019337714 0.15099756 0.83225006 1.5943362e-38
-0.026837714 0.15349756 0.82975006 1.317499e-38
-0.026837714 0.15349756 0.83225006 1.3542693e-38
-0.026837714 0.15599756 0.82975006 1.4190924e-38
-0.026837714 0.15599756 0.83225006 1.4742296e-38
-0.024337715 0.15349756 0.82975006 1.6124551e-38
-0.024337715 0.15349756 0.83225006 1.631037e-38
-0.024337715 0.15599756 0.82975006 1.6124524e-38
-0.024337715 0.15599756 0.83225006 1.5848297e-38
-0.026837714 0.15849756 0.83225006 1.5203629e-38
-0.024337715 0.15849756 0.83225006 1.6309253e-38
-0.021837715 0.15349756 0.82975006 1.5849351e-38
-0.021837715 0.15349756 0.83225006 1.6033385e-38
-0.021837715 0.15599756 0.82975006 1.5849354e-38
-0.021837715 0.15599756 0.83225006 1.6033382e-38
-0.019337714 0.15349756 0.82975006 1.2900186e-38
-0.019337714 0.15349756 0.83225006 1.5760038e-38
-0.019337714 0.15599756 0.82975006 1.6311424e-38
-0.019337714 0.15599756 0.83225006 1.289983e-38
-0.021837715 0.15849756 0.83225006 1.6034461e-38
-0.054337714 0.14349756 0.84225005 1.6862092e-38
-0.051837713 0.14349756 0.84225005 1.5021035e-38
-0.049337715 0.14349756 0.84225005 1.548129e-38
-0.049337715 0.14599755 0.84225005 1.4834845e-38
-0.056837715 0.14349756 0.84725004 1.6864613e-38
-0.056837715 0.14599755 0.84725004 1.9169131e-38
-0.054337714 0.14349756 0.84475005 1.6494751e-38
-0.054337714 0.14349756 0.84725004 1.6494739e-38
-0.054337714 0.14599755 0.84475005 1.9261324e-38
-0.054337714 0.14599755 0.84725004 1.9443567e-38
-0.056837715 0.14349756 0.84975004 1.6772412e-38
-0.056837715 0.14599755 0.84975004 1.8708876e-38
-0.054337714 0.14349756 0.84975004 1.6496184e-38
-0.054337714 0.14599755 0.84975004 1.9075863e-38
-0.054337714 0.14849755 0.84725004 1.9630466e-38
-0.054337714 0.15099756 0.84725004 1.9169128e-38
-0.056837715 0.14849755 0.84975004 2.0552065e-38
-0.056837715 0.15099756 0.84975004 2.0644614e-38
-0.054337714 0.14849755 0.84975004 1.9261327e-38
-0.054337714 0.15099756 0.84975004 1.9169128e-38
-0.051837713 0.14349756 0.84475005 1.5021035e-38
-0.051837713 0.14349756 0.84725004 1.5482013e-38
-0.051837713 0.14599755 0.84475005 1.4377481e-38
-0.051837713 0.14599755 0.84725004 1.4558631e-38
-0.049337715 0.14349756 0.84475005 1.511e-38
-0.049337715 0.14349756 0.84725004 1.57568e-38
-0.049337715 0.14599755 0.84475005 1.6492565e-38
-0.049337715 0.14599755 0.84725004 1.6217058e-38
-0.051837713 0.14349756 0.84975004 1.5114318e-38
-0.051837713 0.14599755 0.84975004 1.7232304e-38
-0.051837713 0.14849755 0.84475005 1.5849717e-38
-0.051837713 0.14849755 0.84725004 1.557206e-38
-0.051837713 0.15099756 0.84725004 1.5296899e-38
-0.049337715 0.14849755 0.84475005 1.6309975e-38
-0.049337715 0.14849755 0.84725004 1.6310695e-38
-0.049337715 0.15099756 0.84475005 1.6126663e-38
-0.049337715 0.15099756 0.84725004 1.6401819e-38
-0.051837713 0.14849755 0.84975004 1.5388394e-38
-0.051837713 0.15099756 0.84975004 1.5204716e-38
-0.049337715 0.14849755 0.84975004 1.6309622e-38
-0.049337715 0.15099756 0.84975004 1.6217426e-38
-0.056837715 0.15349756 0.84975004 2.036695e-38
-0.056837715 0.15599756 0.84975004 2.0366953e-38
-0.054337714 0.15349756 0.84975004 1.9354596e-38
-0.054337714 0.15599756 0.84975004 1.9353521e-38
-0.056837715 0.15849756 0.84975004 1.9720867e-38
-0.056837715 0.16099755 0.84975004 1.9721586e-38
-0.054337714 0.15849756 0.84975004 1.9260961e-38
-0.054337714 0.16099755 0.84975004 1.926168e-38
-0.051837713 0.15349756 0.84975004 1.5388391e-38
-0.051837713 0.15599756 0.84975004 1.5388389e-38
-0.049337715 0.15349756 0.84975004 1.6401466e-38
-0.049337715 0.15599756 0.84975004 1.6494014e-38
-0.051837713 0.15849756 0.84975004 1.5847918e-38
-0.051837713 0.16099755 0.84975004 1.5665326e-38
-0.049337715 0.15849756 0.84975004 1.5756802e-38
-0.049337715 0.16099755 0.84975004 1.5940471e-38
-0.046837714 0.14349756 0.84225005 1.5758969e-38
-0.046837714 0.14599755 0.84225005 1.6126677e-38
-0.044337716 0.14349756 0.83975005 1.1609456e-38
-0.044337716 0.14349756 0.84225005 1.1516908e-38
-0.044337716 0.14599755 0.84225005 1.4651542e-38
-0.039337713 0.14349756 0.83475006 7.3698728e-39
-0.039337713 0.14349756 0.83725005 7.1851228e-39
-0.041837715 0.14349756 0.84225005 7.8286944e-39
-0.041837715 0.14599755 0.84225005 8.1059875e-39
-0.039337713 0.14349756 0.83975005 7.4602706e-39
-0.039337713 0.14599755 0.83975005 7.4624174e-39
-0.039337713 0.14599755 0.84225005 8.1956818e-39
-0.041837715 0.14849755 0.84225005 7.0965033e-39
-0.039337713 0.14849755 0.83975005 7.1887004e-39
-0.046837714 0.14349756 0.84475005 1.5942281e-38
-0.046837714 0.14599755 0.84475005 1.5851165e-38
-0.046837714 0.14599755 0.84725004 1.6127393e-38
-0.044337716 0.14349756 0.84475005 1.1793488e-38
-0.044337716 0.14599755 0.84475005 1.1702011e-38
-0.044337716 0.14599755 0.84725004 1.1977872e-38
-0.046837714 0.14849755 0.84475005 1.5943362e-38
-0.046837714 0.14849755 0.84725004 1.6311424e-38
-0.046837714 0.15099756 0.84475005 1.6127383e-38
-0.046837714 0.15099756 0.84725004 1.6127398e-38
-0.044337716 0.14849755 0.84475005 1.2529252e-38
-0.044337716 0.14849755 0.84725004 1.1795278e-38
-0.044337716 0.15099756 0.84475005 1.2439926e-38
-0.044337716 0.15099756 0.84725004 1.2255535e-38
-0.046837714 0.15099756 0.84975004 1.6219228e-38
-0.044337716 0.15099756 0.84975004 1.207187e-38
-0.041837715 0.14349756 0.84475005 7.3677373e-39
-0.041837715 0.14599755 0.84475005 7.7357785e-39
-0.041837715 0.14599755 0.84725004 7.92089e-39
-0.039337713 0.14599755 0.84475005 7.5524662e-39
-0.041837715 0.14849755 0.84475005 7.6446619e-39
-0.041837715 0.14849755 0.84725004 7.0011071e-39
-0.041837715 0.15099756 0.84475005 7.6457535e-39
-0.041837715 0.15099756 0.84725004 8.2889397e-39
-0.039337713 0.14849755 0.84475005 7.8286944e-39
-0.039337713 0.14849755 0.84725004 7.7375778e-39
-0.039337713 0.15099756 0.84475005 8.6563055e-39
-0.039337713 0.15099756 0.84725004 8.3811353e-39
-0.044337716 0.15349756 0.84725004 1.2532122e-38
-0.046837714 0.15349756 0.84975004 1.6219238e-38
-0.046837714 0.15599756 0.84975004 1.6219594e-38
-0.044337716 0.15349756 0.84975004 1.2532122e-38
-0.044337716 0.15599756 0.84975004 1.2808706e-38
-0.046837714 0.15849756 0.84975004 1.6495808e-38
-0.046837714 0.16099755 0.84975004 1.6403244e-38
-0.044337716 0.15849756 0.84975004 1.3362593e-38
-0.044337716 0.16099755 0.84975004 1.3362587e-38
-0.041837715 0.15349756 0.84725004 7.6457535e-39
-0.039337713 0.15349756 0.84725004 8.8414226e-39
-0.041837715 0.15349756 0.84975004 8.1956818e-39
-0.041837715 0.15599756 0.84975004 8.011271e-39
-0.039337713 0.15349756 0.84975004 8.6566586e-39
-0.039337713 0.15599756 0.84975004 8.6566404e-39
-0.041837715 0.15849756 0.84975004 8.0109361e-39
-0.041837715 0.16099755 0.84975004 7.8283441e-39
-0.039337713 0.15849756 0.84975004 9.0240034e-39
-0.039337713 0.16099755 0.84975004 8.8413904e-39
-0.054337714 0.14849755 0.8547501 1.7694361e-38
-0.054337714 0.15099756 0.8547501 1.8061692e-38
-0.051837713 0.15099756 0.8547501 1.538766e-38
-0.054337714 0.15349756 0.8547501 1.8429042e-38
-0.054337714 0.15599756 0.8547501 1.7970941e-38
-0.054337714 0.15849756 0.8547501 1.7969866e-38
-0.054337714 0.16099755 0.8547501 1.8152813e-38
-0.051837713 0.15349756 0.8547501 1.5479142e-38
-0.051837713 0.15599756 0.8547501 1.548166e-38
-0.049337715 0.15599756 0.8547501 1.6770231e-38
-0.051837713 0.15849756 0.8547501 1.5757168e-38
-0.051837713 0.16099755 0.8547501 1.5939767e-38
-0.049337715 0.15849756 0.8547501 1.6678399e-38
-0.049337715 0.16099755 0.8547501 1.6494723e-38
-0.046837714 0.15599756 0.8547501 1.4835921e-38
-0.046837714 0.15849756 0.8547501 1.4835921e-38
-0.046837714 0.16099755 0.8547501 1.4744444e-38
-0.044337716 0.15849756 0.8547501 1.3545555e-38
-0.044337716 0.16099755 0.8547501 1.3546619e-38
-0.041837715 0.15849756 0.8547501 8.1938826e-39
-0.041837715 0.16099755 0.8547501 7.9180216e-39
-0.039337713 0.16099755 0.8547501 8.2874907e-39
-0.039337713 0.16349755 0.84975004 9.7644523e-39
-0.039337713 0.16599756 0.84975004 9.9459751e-39
-0.054337714 0.16349755 0.8547501 1.7968775e-38
-0.054337714 0.16349755 0.85725009 1.7785825e-38
-0.054337714 0.16599756 0.8547501 1.7693983e-38
-0.054337714 0.16599756 0.85725009 1.7692911e-38
-0.054337714 0.16849756 0.8547501 1.7508162e-38
-0.054337714 0.16849756 0.85725009 1.7599639e-38
-0.054337714 0.17099756 0.85725009 1.7693279e-38
-0.054337714 0.16849756 0.85975009 1.8428689e-38
-0.054337714 0.16849756 0.86225009 1.824645e-38
-0.054337714 0.17099756 0.85975009 1.7416342e-38
-0.054337714 0.17099756 0.86225009 1.8063507e-38
-0.051837713 0.16349755 0.8547501 1.6124862e-38
-0.051837713 0.16349755 0.85725009 1.5757521e-38
-0.051837713 0.16599756 0.8547501 1.5942266e-38
-0.051837713 0.16599756 0.85725009 1.6217779e-38
-0.049337715 0.16349755 0.8547501 1.6678036e-38
-0.049337715 0.16349755 0.85725009 1.6770947e-38
-0.049337715 0.16599756 0.8547501 1.6217776e-38
-0.049337715 0.16599756 0.85725009 1.677095e-38
-0.051837713 0.16849756 0.8547501 1.6125228e-38
-0.051837713 0.16849756 0.85725009 1.6032313e-38
-0.051837713 0.17099756 0.85725009 1.5757519e-38
-0.049337715 0.16849756 0.8547501 1.6218132e-38
-0.049337715 0.16849756 0.85725009 1.6678399e-38
-0.049337715 0.17099756 0.85725009 1.695319e-38
-0.051837713 0.16849756 0.85975009 1.6033032e-38
-0.051837713 0.17099756 0.85975009 1.5480234e-38
-0.051837713 0.17099756 0.86225009 1.6676613e-38
-0.049337715 0.16849756 0.85975009 1.6125584e-38
-0.049337715 0.17099756 0.85975009 1.6678399e-38
-0.049337715 0.17099756 0.86225009 1.713759e-38
-0.054337714 0.17099756 0.86475009 1.7970222e-38
-0.054337714 0.17349756 0.85975009 1.7785478e-38
-0.054337714 0.17349756 0.86225009 1.7786178e-38
-0.054337714 0.17599756 0.85975009 1.7878021e-38
-0.054337714 0.17599756 0.86225009 1.797057e-38
-0.054337714 0.17849755 0.85975009 1.5939019e-38
-0.054337714 0.17849755 0.86225009 1.6125565e-38
-0.054337714 0.18099757 0.85975009 1.3543034e-38
-0.051837713 0.17349756 0.85725009 1.5757521e-38
-0.049337715 0.17349756 0.85725009 1.6772032e-38
-0.051837713 0.17349756 0.85975009 1.5849369e-38
-0.051837713 0.17349756 0.86225009 1.5942266e-38
-0.051837713 0.17599756 0.85975009 1.5941913e-38
-0.051837713 0.17599756 0.86225009 1.6034817e-38
-0.049337715 0.17349756 0.85975009 1.6863146e-38
-0.049337715 0.17349756 0.86225009 1.6863143e-38
-0.049337715 0.17599756 0.85975009 1.6770947e-38
-0.049337715 0.17599756 0.86225009 1.6771303e-38
-0.051837713 0.17849755 0.85975009 1.6308162e-38
-0.051837713 0.17849755 0.86225009 1.621813e-38
-0.051837713 0.18099757 0.85975009 1.6216707e-38
-0.051837713 0.18099757 0.86225009 1.6310322e-38
-0.049337715 0.17849755 0.86225009 1.6494718e-38
-0.049337715 0.18099757 0.86225009 1.6402877e-38
-0.056837715 0.17599756 0.86475009 1.8891087e-38
-0.054337714 0.17349756 0.86475009 1.7048992e-38
-0.054337714 0.17349756 0.86725008 1.7415613e-38
-0.054337714 0.17599756 0.86475009 1.8430476e-38
-0.054337714 0.17599756 0.86725008 1.7784023e-38
-0.054337714 0.17349756 0.86975008 1.7140456e-38
-0.054337714 0.17599756 0.86975008 1.7509614e-38
-0.056837715 0.17849755 0.86475009 1.7230837e-38
-0.054337714 0.17849755 0.86475009 1.6033733e-38
-0.054337714 0.17849755 0.86725008 1.7046445e-38
-0.054337714 0.18099757 0.86475009 1.4189104e-38
-0.054337714 0.18099757 0.86725008 1.5756423e-38
-0.056837715 0.17849755 0.86975008 1.7138641e-38
-0.056837715 0.18099757 0.87225008 1.6306006e-38
-0.054337714 0.17849755 0.86975008 1.6679458e-38
-0.054337714 0.18099757 0.86975008 1.5848974e-38
-0.051837713 0.17349756 0.86475009 1.6676611e-38
-0.051837713 0.17599756 0.86475009 1.585007e-38
-0.051837713 0.17599756 0.86725008 1.6309259e-38
-0.049337715 0.17599756 0.86475009 1.6587635e-38
-0.051837713 0.17849755 0.86475009 1.6125581e-38
-0.051837713 0.17849755 0.86725008 1.6492571e-38
-0.051837713 0.18099757 0.86475009 1.6402877e-38
-0.051837713 0.18099757 0.86725008 1.6127366e-38
-0.049337715 0.17849755 0.86475009 1.6126657e-38
-0.049337715 0.17849755 0.86725008 1.6860995e-38
-0.049337715 0.18099757 0.86475009 1.6218483e-38
-0.049337715 0.18099757 0.86725008 1.6034812e-38
-0.051837713 0.17849755 0.86975008 1.6492571e-38
-0.051837713 0.18099757 0.86975008 1.5849351e-38
-0.046837714 0.16349755 0.8547501 1.492884e-38
-0.046837714 0.16349755 0.85725009 1.6863146e-38
-0.046837714 0.16599756 0.8547501 1.5111802e-38
-0.046837714 0.16599756 0.85725009 1.6954988e-38
-0.044337716 0.16349755 0.8547501 1.3823211e-38
-0.044337716 0.16349755 0.85725009 1.4099428e-38
-0.044337716 0.16599756 0.8547501 1.3823211e-38
-0.044337716 0.16599756 0.85725009 1.428239e-38
-0.046837714 0.16849756 0.8547501 1.5019236e-38
-0.046837714 0.16849756 0.85725009 1.5389098e-38
-0.046837714 0.17099756 0.85725009 1.5481293e-38
-0.044337716 0.16849756 0.8547501 1.4559328e-38
-0.044337716 0.16849756 0.85725009 1.4284542e-38
-0.044337716 0.17099756 0.85725009 1.4744797e-38
-0.046837714 0.16849756 0.85975009 1.6679836e-38
-0.046837714 0.17099756 0.85975009 1.6495086e-38
-0.041837715 0.16349755 0.8547501 8.1027828e-39
-0.041837715 0.16349755 0.85725009 8.3833003e-39
-0.041837715 0.16599756 0.8547501 8.011271e-39
-0.041837715 0.16599756 0.85725009 8.3833003e-39
-0.039337713 0.16349755 0.8547501 1.0131087e-38
-0.039337713 0.16599756 0.8547501 8.9353783e-39
-0.041837715 0.16849756 0.8547501 7.7346841e-39
-0.041837715 0.16849756 0.85725009 8.5647979e-39
-0.041837715 0.17099756 0.8547501 8.2896585e-39
-0.041837715 0.17099756 0.85725009 8.0098669e-39
-0.039337713 0.16849756 0.8547501 9.3020098e-39
-0.039337713 0.17099756 0.8547501 8.565151e-39
-0.039337713 0.17099756 0.85725009 9.0261235e-39
-0.041837715 0.17099756 0.85975009 8.6581075e-39
-0.046837714 0.17349756 0.85725009 1.5481293e-38
-0.044337716 0.17349756 0.85725009 1.483736e-38
-0.044337716 0.17599756 0.85725009 1.5205417e-38
-0.046837714 0.17349756 0.85975009 1.5389092e-38
-0.046837714 0.17349756 0.86225009 1.6770597e-38
-0.046837714 0.17599756 0.85975009 1.5205069e-38
-0.046837714 0.17599756 0.86225009 1.6495808e-38
-0.044337716 0.17349756 0.85975009 1.4653329e-38
-0.044337716 0.17599756 0.85975009 1.492919e-38
-0.044337716 0.17599756 0.86225009 1.4560782e-38
-0.046837714 0.17849755 0.85975009 1.5296899e-38
-0.046837714 0.17849755 0.86225009 1.5480943e-38
-0.046837714 0.18099757 0.85975009 1.5389095e-38
-0.046837714 0.18099757 0.86225009 1.5389448e-38
-0.044337716 0.17849755 0.85975009 1.5390167e-38
-0.044337716 0.17849755 0.86225009 1.57568e-38
-0.044337716 0.18099757 0.85975009 1.5390167e-38
-0.044337716 0.18099757 0.86225009 1.5481293e-38
-0.041837715 0.17349756 0.85725009 7.7350372e-39
-0.041837715 0.17599756 0.85725009 9.3974508e-39
-0.039337713 0.17349756 0.85725009 9.2101491e-39
-0.039337713 0.17599756 0.85725009 9.1179534e-39
-0.041837715 0.17349756 0.85975009 8.2889397e-39
-0.041837715 0.17349756 0.86225009 8.2882362e-39
-0.041837715 0.17599756 0.85975009 9.0286697e-39
-0.041837715 0.17599756 0.86225009 8.012343e-39
-0.039337713 0.17349756 0.85975009 9.6718741e-39
-0.039337713 0.17349756 0.86225009 1.0225063e-38
-0.039337713 0.17599756 0.85975009 9.3942082e-39
-0.039337713 0.17599756 0.86225009 8.9332076e-39
-0.039337713 0.17849755 0.85725009 8.7459269e-39
-0.039337713 0.18099757 0.85725009 8.376071e-39
-0.041837715 0.17849755 0.85975009 9.4896464e-39
-0.041837715 0.17849755 0.86225009 8.5629986e-39
-0.041837715 0.18099757 0.85975009 9.6740391e-39
-0.041837715 0.18099757 0.86225009 8.5626497e-39
-0.039337713 0.17849755 0.85975009 9.208368e-39
-0.039337713 0.17849755 0.86225009 8.3789395e-39
-0.039337713 0.18099757 0.85975009 8.4715331e-39
-0.039337713 0.18099757 0.86225009 7.9165166e-39
-0.046837714 0.17599756 0.86475009 1.6772032e-38
-0.046837714 0.17849755 0.86475009 1.5481293e-38
-0.046837714 0.18099757 0.86475009 1.6034817e-38
-0.044337716 0.17849755 0.86475009 9.1205122e-39
-0.044337716 0.18099757 0.86475009 9.3048993e-39
-0.044337716 0.18099757 0.86725008 9.9502715e-39
-0.041837715 0.17599756 0.86475009 8.28929e-39
-0.039337713 0.17599756 0.86475009 9.3030818e-39
-0.041837715 0.17849755 0.86475009 8.0116241e-39
-0.041837715 0.18099757 0.86475009 8.2896585e-39
-0.041837715 0.18099757 0.86725008 8.5647979e-39
-0.039337713 0.17849755 0.86475009 9.2094484e-39
-0.039337713 0.18099757 0.86475009 8.1949364e-39
-0.036837716 0.14349756 0.83475006 7.2712046e-39
-0.036837716 0.14349756 0.83725005 7.6417682e-39
-0.036837716 0.14599755 0.83475006 1.4002563e-38
-0.036837716 0.14599755 0.83725005 7.5485188e-39
-0.034337714 0.14599755 0.83475006 1.6402891e-38
-0.036837716 0.14599755 0.83975005 7.3673561e-39
-0.036837716 0.14599755 0.84225005 7.6392669e-39
-0.036837716 0.14849755 0.83475006 1.3911447e-38
-0.036837716 0.14849755 0.83725005 1.3911447e-38
-0.036837716 0.15099756 0.83475006 1.4185494e-38
-0.036837716 0.15099756 0.83725005 1.3268927e-38
-0.034337714 0.14849755 0.83475006 1.5941913e-38
-0.034337714 0.15099756 0.83475006 1.6127383e-38
-0.034337714 0.15099756 0.83725005 1.5942631e-38
-0.036837716 0.14849755 0.83975005 7.916574e-39
-0.036837716 0.14849755 0.84225005 7.7339652e-39
-0.036837716 0.15099756 0.83975005 1.37274e-38
-0.036837716 0.15099756 0.84225005 7.9183719e-39
-0.031837713 0.15099756 0.83475006 1.5941913e-38
-0.031837713 0.15099756 0.83725005 1.5849367e-38
-0.036837716 0.14599755 0.84475005 7.6399703e-39
-0.036837716 0.14849755 0.84475005 7.8247119e-39
-0.036837716 0.14849755 0.84725004 7.5506529e-39
-0.036837716 0.15099756 0.84475005 8.0087696e-39
-0.036837716 0.15099756 0.84725004 8.1020275e-39
-0.036837716 0.15349756 0.83725005 1.4002542e-38
-0.034337714 0.15349756 0.83475006 1.5573856e-38
-0.034337714 0.15349756 0.83725005 1.5941913e-38
-0.034337714 0.15599756 0.83725005 1.5757168e-38
-0.036837716 0.15349756 0.83975005 1.4095457e-38
-0.036837716 0.15599756 0.83975005 1.3912144e-38
-0.034337714 0.15349756 0.83975005 1.5942631e-38
-0.034337714 0.15349756 0.84225005 1.6034464e-38
-0.034337714 0.15599756 0.83975005 1.5941913e-38
-0.034337714 0.15599756 0.84225005 1.6310692e-38
-0.036837716 0.15849756 0.84225005 1.3450087e-38
-0.036837716 0.16099755 0.84225005 1.3542642e-38
-0.034337714 0.15849756 0.83975005 1.6310695e-38
-0.034337714 0.15849756 0.84225005 1.5941913e-38
-0.034337714 0.16099755 0.83975005 1.6309609e-38
-0.034337714 0.16099755 0.84225005 1.612666e-38
-0.031837713 0.15349756 0.83475006 1.5664603e-38
-0.031837713 0.15349756 0.83725005 1.5850436e-38
-0.031837713 0.15599756 0.83475006 1.630853e-38
-0.031837713 0.15599756 0.83725005 1.5941913e-38
-0.029337713 0.15349756 0.83475006 1.5480211e-38
-0.029337713 0.15599756 0.83475006 1.4836294e-38
-0.029337713 0.15599756 0.83725005 1.5481293e-38
-0.031837713 0.15599756 0.83975005 1.5665326e-38
-0.029337713 0.15599756 0.83975005 1.5757519e-38
-0.031837713 0.15849756 0.83725005 1.5757156e-38
-0.029337713 0.15849756 0.83475006 1.5479861e-38
-0.029337713 0.15849756 0.83725005 1.6307458e-38
-0.029337713 0.16099755 0.83475006 1.5664605e-38
-0.029337713 0.16099755 0.83725005 1.548129e-38
-0.031837713 0.15849756 0.83975005 1.6674811e-38
-0.031837713 0.16099755 0.83975005 1.6399672e-38
-0.029337713 0.15849756 0.83975005 1.57568e-38
-0.029337713 0.16099755 0.83975005 1.5572407e-38
-0.036837716 0.15349756 0.84475005 1.3451536e-38
-0.036837716 0.15349756 0.84725004 1.4094403e-38
-0.036837716 0.15599756 0.84475005 1.3727403e-38
-0.036837716 0.15599756 0.84725004 1.3635583e-38
-0.034337714 0.15599756 0.84475005 1.6034464e-38
-0.036837716 0.15349756 0.84975004 1.3544441e-38
-0.036837716 0.15599756 0.84975004 1.381888e-38
-0.036837716 0.15849756 0.84475005 1.3634488e-38
-0.036837716 0.15849756 0.84725004 1.3634488e-38
-0.036837716 0.16099755 0.84475005 1.4275891e-38
-0.036837716 0.16099755 0.84725004 1.3909977e-38
-0.034337714 0.15849756 0.84475005 1.5574209e-38
-0.034337714 0.16099755 0.84475005 1.5848271e-38
-0.036837716 0.15849756 0.84975004 8.194586e-39
-0.036837716 0.16099755 0.84975004 8.467566e-39
-0.019337714 0.14349756 0.83475006 1.2348084e-38
-0.019337714 0.14849755 0.83475006 1.2898734e-38
-0.019337714 0.15099756 0.83475006 1.280835e-38
-0.026837714 0.15849756 0.83475006 1.5479495e-38
-0.026837714 0.15849756 0.83725005 1.5387665e-38
-0.026837714 0.16099755 0.83475006 1.4928487e-38
-0.026837714 0.16099755 0.83725005 1.5753934e-38
-0.024337715 0.15849756 0.83475006 1.621706e-38
-0.024337715 0.15849756 0.83725005 1.612523e-38
-0.024337715 0.16099755 0.83475006 1.6034833e-38
-0.024337715 0.16099755 0.83725005 1.7228704e-38
-0.021837715 0.15349756 0.83475006 1.5849351e-38
-0.021837715 0.15599756 0.83475006 1.6217776e-38
-0.019337714 0.15349756 0.83475006 1.2624668e-38
-0.019337714 0.15349756 0.83725005 1.2993448e-38
-0.019337714 0.15599756 0.83475006 1.2624668e-38
-0.019337714 0.15599756 0.83725005 1.2992381e-38
-0.021837715 0.15849756 0.83475006 1.6034467e-38
-0.021837715 0.15849756 0.83725005 1.6495086e-38
-0.021837715 0.16099755 0.83475006 1.6127383e-38
-0.021837715 0.16099755 0.83725005 1.667913e-38
-0.019337714 0.15849756 0.83475006 1.2808339e-38
-0.019337714 0.15849756 0.83725005 1.290018e-38
-0.019337714 0.16099755 0.83725005 1.3177844e-38
-0.021837715 0.15849756 0.83975005 1.6494736e-38
-0.021837715 0.16099755 0.83975005 1.6403241e-38
-0.019337714 0.15849756 0.83975005 1.2808703e-38
-0.019337714 0.16099755 0.83975005 1.2900536e-38
-0.019337714 0.16099755 0.84225005 1.2807983e-38
-0.034337714 0.16349755 0.83975005 1.6493287e-38
-0.034337714 0.16349755 0.84225005 1.5388744e-38
-0.034337714 0.16599756 0.83975005 1.6770244e-38
-0.034337714 0.16599756 0.84225005 1.6770953e-38
-0.034337714 0.16849756 0.83975005 1.6956065e-38
-0.034337714 0.16849756 0.84225005 1.6679836e-38
-0.034337714 0.17099756 0.83975005 1.6772032e-38
-0.034337714 0.17099756 0.84225005 1.7138657e-38
-0.029337713 0.16349755 0.83725005 1.5849354e-38
-0.031837713 0.16349755 0.83975005 1.6400726e-38
-0.031837713 0.16599756 0.83975005 1.6676231e-38
-0.031837713 0.16599756 0.84225005 1.6309972e-38
-0.029337713 0.16349755 0.83975005 1.6215976e-38
-0.029337713 0.16599756 0.83975005 1.6307458e-38
-0.031837713 0.16849756 0.83975005 1.6585114e-38
-0.031837713 0.16849756 0.84225005 1.6402525e-38
-0.031837713 0.17099756 0.83975005 1.6677666e-38
-0.031837713 0.17099756 0.84225005 1.7229039e-38
-0.029337713 0.16849756 0.83975005 1.6307455e-38
-0.029337713 0.16849756 0.84225005 1.6033029e-38
-0.029337713 0.17099756 0.83975005 1.6675515e-38
-0.029337713 0.17099756 0.84225005 1.6310328e-38
-0.036837716 0.16349755 0.84475005 1.3267128e-38
-0.036837716 0.16349755 0.84725004 1.345009e-38
-0.036837716 0.16599756 0.84475005 1.326893e-38
-0.036837716 0.16599756 0.84725004 1.3174579e-38
-0.034337714 0.16349755 0.84475005 1.5571691e-38
-0.034337714 0.16599756 0.84475005 1.5756802e-38
-0.034337714 0.16599756 0.84725004 1.5388391e-38
-0.036837716 0.16349755 0.84975004 1.3908182e-38
-0.036837716 0.16599756 0.84975004 8.8417379e-39
-0.036837716 0.16849756 0.84475005 1.3634834e-38
-0.036837716 0.16849756 0.84725004 1.3635207e-38
-0.036837716 0.17099756 0.84725004 1.363519e-38
-0.034337714 0.16849756 0.84475005 1.6034467e-38
-0.034337714 0.16849756 0.84725004 1.548094e-38
-0.034337714 0.17099756 0.84475005 1.6033029e-38
-0.034337714 0.17099756 0.84725004 1.6033385e-38
-0.036837716 0.16849756 0.84975004 8.7488388e-39
-0.036837716 0.17099756 0.84975004 1.3267128e-38
-0.034337714 0.17099756 0.84975004 1.5849704e-38
-0.031837713 0.17099756 0.84475005 1.7230136e-38
-0.034337714 0.17349756 0.84225005 1.7230854e-38
-0.034337714 0.17599756 0.84225005 1.686278e-38
-0.034337714 0.17849755 0.84225005 1.7321956e-38
-0.031837713 0.17349756 0.84225005 1.7045724e-38
-0.031837713 0.17599756 0.84225005 1.6953175e-38
-0.029337713 0.17349756 0.83975005 1.6677314e-38
-0.029337713 0.17349756 0.84225005 1.6769136e-38
-0.029337713 0.17599756 0.83975005 1.6768429e-38
-0.029337713 0.17599756 0.84225005 1.6860978e-38
-0.031837713 0.17849755 0.84225005 1.6953178e-38
-0.029337713 0.17849755 0.84225005 1.7045374e-38
-0.036837716 0.17349756 0.84725004 1.3727031e-38
-0.036837716 0.17599756 0.84725004 1.4000727e-38
-0.034337714 0.17349756 0.84475005 1.5940115e-38
-0.034337714 0.17349756 0.84725004 1.6863499e-38
-0.034337714 0.17599756 0.84475005 1.5572041e-38
-0.034337714 0.17599756 0.84725004 1.6955697e-38
-0.036837716 0.17349756 0.84975004 1.3543345e-38
-0.036837716 0.17599756 0.84975004 1.3816687e-38
-0.034337714 0.17349756 0.84975004 1.6124862e-38
-0.034337714 0.17599756 0.84975004 1.5572763e-38
-0.036837716 0.18099757 0.84725004 1.4094696e-38
-0.034337714 0.17849755 0.84475005 1.6863499e-38
-0.034337714 0.17849755 0.84725004 1.6679483e-38
-0.034337714 0.18099757 0.84475005 1.6863499e-38
-0.034337714 0.18099757 0.84725004 1.6863146e-38
-0.036837716 0.17849755 0.84975004 1.390781e-38
-0.036837716 0.18099757 0.84975004 1.3633737e-38
-0.034337714 0.17849755 0.84975004 1.5481293e-38
-0.034337714 0.18099757 0.84975004 1.67706e-38
-0.031837713 0.17349756 0.84475005 1.7046095e-38
-0.031837713 0.17599756 0.84475005 1.6678019e-38
-0.029337713 0.17599756 0.84475005 1.6678019e-38
-0.031837713 0.17849755 0.84475005 1.6862054e-38
-0.031837713 0.17849755 0.84725004 1.7045374e-38
-0.031837713 0.18099757 0.84475005 1.6953897e-38
-0.031837713 0.18099757 0.84725004 1.6861345e-38
-0.029337713 0.17849755 0.84475005 1.6862054e-38
-0.029337713 0.17849755 0.84725004 1.667767e-38
