# .PCD v0.7 - Point Cloud Data file format
VERSION 0.7
FIELDS x y z rgb
SIZE 4 4 4 4
TYPE F F F F
COUNT 1 1 1 1
WIDTH 1002
HEIGHT 1
VIEWPOINT 0 0 0 1 0 0 0
POINTS 1002
DATA ascii
-0.19586581 0.09828838 0.87425005 1.548166e-38
-0.19836581 0.095788382 0.87675005 1.520542e-38
-0.19836581 0.09828838 0.87675005 1.5113209e-38
-0.19836581 0.09828838 0.87925005 1.5480211e-38
-0.19586581 0.09828838 0.87675005 1.5021051e-38
-0.19836581 0.10078838 0.87675005 1.5849702e-38
-0.19836581 0.10078838 0.87925005 1.5850055e-38
-0.19836581 0.10328838 0.87925005 1.5757153e-38
-0.19586581 0.10078838 0.87675005 1.5389816e-38
-0.19586581 0.10078838 0.87925005 1.5482013e-38
-0.19586581 0.10328838 0.87675005 1.492884e-38
-0.19586581 0.10328838 0.87925005 1.4928487e-38
-0.19336581 0.095788382 0.87175006 1.4468227e-38
-0.19336581 0.095788382 0.87425005 1.4651174e-38
-0.19336581 0.09828838 0.87175006 1.5020682e-38
-0.19336581 0.09828838 0.87425005 1.492884e-38
-0.19086581 0.095788382 0.87175006 1.5483083e-38
-0.19086581 0.095788382 0.87425005 1.5204e-38
-0.19086581 0.09828838 0.87175006 1.5482011e-38
-0.19086581 0.09828838 0.87425005 1.5482013e-38
-0.19336581 0.10078838 0.87425005 1.4928487e-38
-0.19086581 0.10078838 0.87175006 1.5204713e-38
-0.19086581 0.10078838 0.87425005 1.4928489e-38
-0.19086581 0.10328838 0.87425005 1.4835938e-38
-0.19336581 0.10078838 0.87675005 1.4928489e-38
-0.19336581 0.10328838 0.87675005 1.4928133e-38
-0.19336581 0.10328838 0.87925005 1.4928489e-38
-0.19086581 0.10328838 0.87675005 1.5942631e-38
-0.19086581 0.10328838 0.87925005 1.5757168e-38
-0.19836581 0.10078838 0.88175005 1.5850774e-38
-0.19836581 0.10328838 0.88175005 1.5389463e-38
-0.19836581 0.10328838 0.88425004 1.5757509e-38
-0.19586581 0.10328838 0.88175005 1.5019603e-38
-0.19586581 0.10578838 0.87925005 1.5479511e-38
-0.19336581 0.10578838 0.87675005 1.5205066e-38
-0.19336581 0.10578838 0.87925005 1.5203644e-38
-0.19336581 0.10828838 0.87925005 1.529584e-38
-0.19086581 0.10578838 0.87675005 1.6033029e-38
-0.19086581 0.10578838 0.87925005 1.5851165e-38
-0.19086581 0.10828838 0.87925005 1.529584e-38
-0.19836581 0.10578838 0.88175005 1.5757171e-38
-0.19836581 0.10578838 0.88425004 1.676878e-38
-0.19836581 0.10828838 0.88175005 1.5941212e-38
-0.19836581 0.10828838 0.88425004 1.5849367e-38
-0.19586581 0.10578838 0.88175005 1.5296193e-38
-0.19586581 0.10578838 0.88425004 1.5111446e-38
-0.19586581 0.10828838 0.88175005 1.5296193e-38
-0.19586581 0.10828838 0.88425004 1.5296193e-38
-0.19836581 0.11078838 0.88425004 1.5942281e-38
-0.19836581 0.11328838 0.88425004 1.631179e-38
-0.19586581 0.11078838 0.88175005 1.511395e-38
-0.19586581 0.11078838 0.88425004 1.5296912e-38
-0.19586581 0.11328838 0.88425004 1.5389816e-38
-0.19836581 0.11078838 0.88675004 1.5758966e-38
-0.19836581 0.11328838 0.88675004 1.6220295e-38
-0.19586581 0.11328838 0.88675004 1.5204716e-38
-0.19336581 0.10578838 0.88175005 1.5204348e-38
-0.19336581 0.10828838 0.88175005 1.5296196e-38
-0.19086581 0.10578838 0.88175005 1.5848651e-38
-0.19086581 0.10828838 0.88175005 1.6033029e-38
-0.19086581 0.10828838 0.88425004 1.5941928e-38
-0.19336581 0.11078838 0.88175005 1.5664619e-38
-0.19336581 0.11078838 0.88425004 1.5203994e-38
-0.19336581 0.11328838 0.88175005 1.5205066e-38
-0.19336581 0.11328838 0.88425004 1.4835924e-38
-0.19086581 0.11078838 0.88175005 1.5942269e-38
-0.19086581 0.11078838 0.88425004 1.6127383e-38
-0.19086581 0.11328838 0.88175005 1.5389113e-38
-0.19086581 0.11328838 0.88425004 1.6127033e-38
-0.1883658 0.095788382 0.87175006 1.5575301e-38
-0.1883658 0.095788382 0.87425005 1.5481676e-38
-0.1883658 0.09828838 0.87175006 1.5759319e-38
-0.1883658 0.09828838 0.87425005 1.5758616e-38
-0.1858658 0.095788382 0.87175006 1.5666417e-38
-0.1858658 0.095788382 0.87425005 1.6309994e-38
-0.1858658 0.09828838 0.87175006 1.5574222e-38
-0.1858658 0.09828838 0.87425005 1.6219591e-38
-0.1883658 0.10078838 0.87175006 1.6034464e-38
-0.1883658 0.10078838 0.87425005 1.6217779e-38
-0.1883658 0.10328838 0.87425005 1.6033758e-38
-0.1858658 0.10078838 0.87425005 1.6494739e-38
-0.1883658 0.10328838 0.87675005 1.6035186e-38
-0.1883658 0.10328838 0.87925005 1.5941913e-38
-0.1858658 0.10078838 0.87675005 1.6032679e-38
-0.1858658 0.10328838 0.87675005 1.640254e-38
-0.1858658 0.10328838 0.87925005 1.640219e-38
-0.18336581 0.095788382 0.87175006 1.5668941e-38
-0.18336581 0.095788382 0.87425005 1.5944802e-38
-0.18336581 0.09828838 0.87175006 1.5761137e-38
-0.18336581 0.09828838 0.87425005 1.576114e-38
-0.18086581 0.095788382 0.87425005 1.188892e-38
-0.18086581 0.09828838 0.87425005 1.2257347e-38
-0.18336581 0.095788382 0.87675005 1.2072586e-38
-0.18336581 0.09828838 0.87675005 1.2440289e-38
-0.18086581 0.095788382 0.87675005 7.8355593e-39
-0.18086581 0.095788382 0.87925005 6.4504571e-39
-0.18086581 0.09828838 0.87675005 1.0594958e-38
-0.18086581 0.09828838 0.87925005 1.0227251e-38
-0.18336581 0.10078838 0.87425005 1.5667866e-38
-0.18086581 0.10078838 0.87425005 1.1333951e-38
-0.18336581 0.10078838 0.87675005 1.2717955e-38
-0.18336581 0.10078838 0.87925005 1.2625041e-38
-0.18336581 0.10328838 0.87675005 1.2717955e-38
-0.18336581 0.10328838 0.87925005 1.2994193e-38
-0.18086581 0.10078838 0.87675005 1.0044671e-38
-0.18086581 0.10078838 0.87925005 9.860629e-39
-0.18086581 0.10328838 0.87675005 1.11492e-38
-0.18086581 0.10328838 0.87925005 1.11492e-38
-0.18336581 0.095788382 0.88425004 8.4787736e-39
-0.18336581 0.09828838 0.88425004 8.5706259e-39
-0.18086581 0.095788382 0.88175005 5.6225069e-39
-0.18086581 0.095788382 0.88425004 5.9898517e-39
-0.18086581 0.09828838 0.88175005 6.8185334e-39
-0.18086581 0.09828838 0.88425004 6.3575706e-39
-0.18336581 0.095788382 0.88675004 8.2025342e-39
-0.18336581 0.095788382 0.88925004 7.651517e-39
-0.18336581 0.09828838 0.88675004 8.1121659e-39
-0.18336581 0.09828838 0.88925004 8.5705964e-39
-0.18086581 0.095788382 0.88675004 6.266426e-39
-0.18086581 0.095788382 0.88925004 5.6232132e-39
-0.18086581 0.09828838 0.88675004 6.54448e-39
-0.18086581 0.09828838 0.88925004 6.3582615e-39
-0.18336581 0.10078838 0.88425004 9.4922038e-39
-0.18336581 0.10328838 0.88175005 1.3455523e-38
-0.18086581 0.10078838 0.88175005 7.7368799e-39
-0.18086581 0.10078838 0.88425004 6.8185306e-39
-0.18086581 0.10328838 0.88175005 1.1338265e-38
-0.18086581 0.10328838 0.88425004 8.2900635e-39
-0.18336581 0.10078838 0.88675004 9.8609793e-39
-0.18086581 0.10078838 0.88675004 7.0954706e-39
-0.18086581 0.10078838 0.88925004 7.3673561e-39
-0.18086581 0.10328838 0.88675004 8.2914956e-39
-0.18086581 0.10328838 0.88925004 8.1993e-39
-0.1883658 0.10578838 0.87675005 1.6309975e-38
-0.1883658 0.10578838 0.87925005 1.5941565e-38
-0.1883658 0.10828838 0.87925005 1.6033758e-38
-0.1858658 0.10578838 0.87925005 1.6402185e-38
-0.18336581 0.10578838 0.87925005 1.5667866e-38
-0.1883658 0.10578838 0.88175005 1.5574222e-38
-0.1883658 0.10828838 0.88175005 1.6402172e-38
-0.1883658 0.10828838 0.88425004 1.6124875e-38
-0.1858658 0.10578838 0.88175005 1.5576022e-38
-0.1858658 0.10828838 0.88175005 1.5943377e-38
-0.1858658 0.10828838 0.88425004 1.5943733e-38
-0.1883658 0.11078838 0.88175005 1.6034464e-38
-0.1883658 0.11078838 0.88425004 1.5941565e-38
-0.1883658 0.11328838 0.88175005 1.6034482e-38
-0.1883658 0.11328838 0.88425004 1.5666417e-38
-0.1858658 0.11078838 0.88175005 1.5944431e-38
-0.1858658 0.11078838 0.88425004 1.5668222e-38
-0.1858658 0.11328838 0.88425004 1.5668219e-38
-0.1883658 0.11078838 0.88675004 1.6033775e-38
-0.1858658 0.11078838 0.88675004 1.6036985e-38
-0.1858658 0.11328838 0.88675004 1.6035929e-38
-0.18336581 0.10578838 0.88175005 1.4008344e-38
-0.18336581 0.10578838 0.88425004 1.179889e-38
-0.18336581 0.10828838 0.88175005 1.4377831e-38
-0.18336581 0.10828838 0.88425004 1.1891085e-38
-0.18086581 0.10578838 0.88175005 1.2164078e-38
-0.18086581 0.10578838 0.88425004 7.1894613e-39
-0.18086581 0.10828838 0.88175005 1.2442094e-38
-0.18086581 0.10828838 0.88425004 7.2813038e-39
-0.18336581 0.10578838 0.88675004 1.1890369e-38
-0.18336581 0.10828838 0.88675004 1.2074751e-38
-0.18336581 0.10828838 0.88925004 1.2349545e-38
-0.18086581 0.10578838 0.88675004 7.3731337e-39
-0.18086581 0.10578838 0.88925004 7.4660538e-39
-0.18086581 0.10828838 0.88675004 7.8315937e-39
-0.18086581 0.10828838 0.88925004 7.6493632e-39
-0.18336581 0.11078838 0.88175005 1.5022473e-38
-0.18336581 0.11078838 0.88425004 1.2351343e-38
-0.18336581 0.11328838 0.88425004 1.6221392e-38
-0.18086581 0.11078838 0.88175005 1.2718684e-38
-0.18086581 0.11078838 0.88425004 7.649366e-39
-0.18086581 0.11328838 0.88425004 7.7397638e-39
-0.18336581 0.11078838 0.88675004 1.2259501e-38
-0.18336581 0.11328838 0.88675004 1.4103028e-38
-0.18086581 0.11078838 0.88675004 7.5557327e-39
-0.18086581 0.11078838 0.88925004 7.3731337e-39
-0.18086581 0.11328838 0.88675004 7.5575179e-39
-0.18086581 0.11328838 0.88925004 7.7411959e-39
-0.18336581 0.095788382 0.89175004 7.8359223e-39
-0.18336581 0.095788382 0.89425004 8.0181289e-39
-0.18086581 0.095788382 0.89175004 6.7284677e-39
-0.18086581 0.095788382 0.89425004 7.2787856e-39
-0.18086581 0.09828838 0.89175004 7.1883444e-39
-0.18086581 0.09828838 0.89425004 7.6450444e-39
-0.18336581 0.10328838 0.89425004 7.8301573e-39
-0.18086581 0.10078838 0.89175004 7.7368351e-39
-0.18086581 0.10078838 0.89425004 8.0109262e-39
-0.18086581 0.10328838 0.89175004 7.646101e-39
-0.18086581 0.10328838 0.89425004 8.0127353e-39
-0.18336581 0.10328838 0.89675003 7.8290882e-39
-0.18086581 0.10328838 0.89675003 8.7528087e-39
-0.18336581 0.10578838 0.89175004 1.2072233e-38
-0.18336581 0.10578838 0.89425004 7.8312405e-39
-0.18336581 0.10828838 0.89425004 7.3727805e-39
-0.18086581 0.10578838 0.89175004 7.4660538e-39
-0.18086581 0.10578838 0.89425004 7.8297888e-39
-0.18086581 0.10828838 0.89175004 7.3731337e-39
-0.18086581 0.10828838 0.89425004 7.2805611e-39
-0.18336581 0.10828838 0.89675003 8.1993028e-39
-0.18086581 0.10578838 0.89675003 8.567707e-39
-0.18086581 0.10828838 0.89675003 8.3836688e-39
-0.18336581 0.11078838 0.89425004 7.1891053e-39
-0.18336581 0.11328838 0.89425004 7.466051e-39
-0.18086581 0.11078838 0.89175004 7.739761e-39
-0.18086581 0.11078838 0.89425004 8.0152591e-39
-0.18086581 0.11328838 0.89175004 7.2816597e-39
-0.18086581 0.11328838 0.89425004 7.9255746e-39
-0.18336581 0.11078838 0.89675003 7.7397638e-39
-0.18336581 0.11328838 0.89675003 7.466051e-39
-0.18086581 0.11078838 0.89675003 7.8305077e-39
-0.18086581 0.11328838 0.89675003 7.0968929e-39
-0.18336581 0.10828838 0.90175003 8.012385e-39
-0.18086581 0.10828838 0.90175003 8.1078078e-39
-0.18336581 0.11078838 0.90175003 7.5571522e-39
-0.18336581 0.11328838 0.90175003 7.5564459e-39
-0.18086581 0.11078838 0.90175003 1.0502017e-38
-0.18086581 0.11328838 0.90175003 7.0958265e-39
-0.18336581 0.11078838 0.90675008 8.0156122e-39
-0.18336581 0.11328838 0.90675008 7.5564459e-39
-0.18086581 0.11078838 0.90675008 7.556799e-39
-0.18086581 0.11328838 0.90675008 9.8570038e-39
-0.19836581 0.11578839 0.88425004 1.6219947e-38
-0.19586581 0.11578839 0.88425004 1.5482013e-38
-0.19586581 0.11828838 0.88425004 1.5482011e-38
-0.19836581 0.11578839 0.88675004 1.6220295e-38
-0.19836581 0.11578839 0.88925004 1.6127033e-38
-0.19836581 0.11828838 0.88675004 1.6311774e-38
-0.19836581 0.11828838 0.88925004 1.5667121e-38
-0.19586581 0.11578839 0.88675004 1.5480587e-38
-0.19586581 0.11828838 0.88675004 1.5574928e-38
-0.19586581 0.12078838 0.88425004 1.5574206e-38
-0.19836581 0.12078838 0.88675004 1.6311771e-38
-0.19836581 0.12078838 0.88925004 1.612738e-38
-0.19836581 0.12328839 0.88925004 1.6127377e-38
-0.19586581 0.12078838 0.88675004 1.5666758e-38
-0.19586581 0.12078838 0.88925004 1.5297618e-38
-0.19586581 0.12328839 0.88675004 1.5574206e-38
-0.19586581 0.12328839 0.88925004 1.5574557e-38
-0.19336581 0.11578839 0.88175005 1.5389814e-38
-0.19336581 0.11578839 0.88425004 1.5480214e-38
-0.19336581 0.11828838 0.88175005 1.511395e-38
-0.19336581 0.11828838 0.88425004 1.5206145e-38
-0.19086581 0.11578839 0.88175005 1.548094e-38
-0.19086581 0.11578839 0.88425004 1.5942637e-38
-0.19086581 0.11828838 0.88175005 1.5664953e-38
-0.19086581 0.11828838 0.88425004 1.6494368e-38
-0.19086581 0.11828838 0.88675004 1.5942631e-38
-0.19336581 0.12078838 0.88425004 1.4929193e-38
-0.19086581 0.12078838 0.88425004 1.5849354e-38
-0.19086581 0.12328839 0.88425004 1.5664973e-38
-0.19336581 0.12078838 0.88675004 1.4652249e-38
-0.19336581 0.12328839 0.88675004 1.4283818e-38
-0.19336581 0.12328839 0.88925004 1.4557906e-38
-0.19086581 0.12078838 0.88675004 1.4834473e-38
-0.19086581 0.12328839 0.88675004 1.5573859e-38
-0.19586581 0.12578838 0.88925004 1.5482727e-38
-0.19336581 0.12578838 0.88675004 1.4374587e-38
-0.19336581 0.12578838 0.88925004 1.4006158e-38
-0.19086581 0.12578838 0.88675004 1.5574562e-38
-0.19086581 0.12578838 0.88925004 1.5481644e-38
-0.1883658 0.11578839 0.88175005 1.6126309e-38
-0.1883658 0.11578839 0.88425004 1.5850811e-38
-0.1883658 0.11828838 0.88425004 1.6125956e-38
-0.1858658 0.11578839 0.88425004 1.5944446e-38
-0.1858658 0.11828838 0.88425004 1.5941928e-38
-0.1883658 0.11828838 0.88675004 1.6125956e-38
-0.1858658 0.11578839 0.88675004 1.5944083e-38
-0.1858658 0.11828838 0.88675004 1.6679846e-38
-0.1858658 0.11828838 0.88925004 1.6772043e-38
-0.1883658 0.12078838 0.88425004 1.5757168e-38
-0.1883658 0.12328839 0.88425004 1.5849016e-38
-0.1858658 0.12078838 0.88425004 1.5942284e-38
-0.1858658 0.12328839 0.88425004 1.6034126e-38
-0.1883658 0.12078838 0.88675004 1.5848651e-38
-0.1883658 0.12328839 0.88675004 1.5849717e-38
-0.1858658 0.12078838 0.88675004 1.6035186e-38
-0.1858658 0.12078838 0.88925004 1.6588354e-38
-0.1858658 0.12328839 0.88675004 1.6035186e-38
-0.1858658 0.12328839 0.88925004 1.6680197e-38
-0.18336581 0.11578839 0.88425004 1.6129196e-38
-0.18336581 0.11828838 0.88425004 1.6589087e-38
-0.18086581 0.11578839 0.88425004 7.8319594e-39
-0.18336581 0.11578839 0.88675004 1.4378555e-38
-0.18336581 0.11828838 0.88675004 1.6496537e-38
-0.18336581 0.11828838 0.88925004 1.5391631e-38
-0.18086581 0.11578839 0.88925004 8.1074673e-39
-0.18086581 0.11828838 0.88675004 8.5688056e-39
-0.18086581 0.11828838 0.88925004 7.0968985e-39
-0.18336581 0.12078838 0.88425004 1.6679127e-38
-0.18336581 0.12328839 0.88425004 1.6679496e-38
-0.18336581 0.12078838 0.88675004 1.6680197e-38
-0.18336581 0.12078838 0.88925004 1.529908e-38
-0.18336581 0.12328839 0.88675004 1.6772752e-38
-0.18336581 0.12328839 0.88925004 1.5300159e-38
-0.18086581 0.12078838 0.88675004 8.9375811e-39
-0.18086581 0.12078838 0.88925004 6.729202e-39
-0.18086581 0.12328839 0.88675004 9.0308501e-39
-0.18086581 0.12328839 0.88925004 9.6747804e-39
-0.1883658 0.12578838 0.88675004 1.566642e-38
-0.1883658 0.12578838 0.88925004 1.5851167e-38
-0.1883658 0.12828839 0.88925004 1.5759691e-38
-0.1858658 0.12578838 0.88675004 1.5944083e-38
-0.1858658 0.12578838 0.88925004 1.6404336e-38
-0.1858658 0.12828839 0.88925004 1.566677e-38
-0.18336581 0.12578838 0.88675004 1.622067e-38
-0.18336581 0.12578838 0.88925004 1.5576022e-38
-0.18086581 0.12578838 0.88675004 7.5571648e-39
-0.18086581 0.12578838 0.88925004 1.1519415e-38
-0.19836581 0.11578839 0.89175004 1.6309989e-38
-0.19836581 0.11828838 0.89175004 1.5944068e-38
-0.19836581 0.12078838 0.89175004 1.6219576e-38
-0.19836581 0.12328839 0.89175004 1.6127013e-38
-0.19586581 0.12328839 0.89175004 1.6033385e-38
-0.19836581 0.12578838 0.89175004 1.5851868e-38
-0.19836581 0.12578838 0.89425004 1.6587638e-38
-0.19836581 0.12828839 0.89425004 1.6309975e-38
-0.19586581 0.12578838 0.89175004 1.6310325e-38
-0.19586581 0.12828839 0.89175004 1.557491e-38
-0.19586581 0.12828839 0.89425004 1.4560047e-38
-0.19836581 0.12828839 0.89675003 1.649579e-38
-0.19586581 0.13078839 0.89425004 1.5850789e-38
-0.19586581 0.13328838 0.89425004 1.5574206e-38
-0.19836581 0.13078839 0.89675003 1.6403227e-38
-0.19836581 0.13328838 0.89675003 1.612738e-38
-0.19586581 0.13078839 0.89675003 1.5574578e-38
-0.19586581 0.13328838 0.89675003 1.5574206e-38
-0.19336581 0.12578838 0.89175004 1.4005804e-38
-0.19336581 0.12828839 0.89175004 1.4650082e-38
-0.19336581 0.12828839 0.89425004 1.3915412e-38
-0.19086581 0.12828839 0.89175004 1.6218872e-38
-0.19086581 0.12828839 0.89425004 1.5760771e-38
-0.19336581 0.13078839 0.89175004 1.5389463e-38
-0.19336581 0.13078839 0.89425004 1.5388757e-38
-0.19336581 0.13328838 0.89425004 1.5481307e-38
-0.19086581 0.13078839 0.89175004 1.5851165e-38
-0.19086581 0.13078839 0.89425004 1.5944083e-38
-0.19086581 0.13328838 0.89425004 1.6035186e-38
-0.19336581 0.13078839 0.89675003 1.5296912e-38
-0.19336581 0.13328838 0.89675003 1.5574209e-38
-0.19086581 0.13328838 0.89675003 1.5941565e-38
-0.19836581 0.13328838 0.90175003 1.5942631e-38
-0.19586581 0.13328838 0.90175003 1.5574209e-38
-0.18336581 0.11578839 0.89425004 8.1092526e-39
-0.18336581 0.11828838 0.89175004 1.5207966e-38
-0.18336581 0.11828838 0.89425004 8.5695273e-39
-0.18086581 0.11578839 0.89175004 8.1085463e-39
-0.18086581 0.11578839 0.89425004 7.3738399e-39
-0.18086581 0.11828838 0.89175004 8.7528367e-39
-0.18086581 0.11828838 0.89425004 7.0983446e-39
-0.18336581 0.11578839 0.89675003 7.9223544e-39
-0.18336581 0.11828838 0.89675003 8.4780323e-39
-0.18086581 0.11578839 0.89675003 7.0968985e-39
-0.18086581 0.11828838 0.89675003 7.2816373e-39
-0.18336581 0.12078838 0.89175004 1.5391278e-38
-0.18336581 0.12078838 0.89425004 9.0297795e-39
-0.18336581 0.12328839 0.89175004 1.5761137e-38
-0.18336581 0.12328839 0.89425004 9.0319347e-39
-0.18086581 0.12078838 0.89175004 8.9375811e-39
-0.18086581 0.12078838 0.89425004 6.9142995e-39
-0.18086581 0.12328839 0.89175004 9.6762223e-39
-0.18086581 0.12328839 0.89425004 7.3734868e-39
-0.18336581 0.12078838 0.89675003 8.4773162e-39
-0.18336581 0.12328839 0.89675003 9.0308501e-39
-0.18086581 0.12078838 0.89675003 7.0968985e-39
-0.18086581 0.12328839 0.89675003 7.0028952e-39
-0.1858658 0.11578839 0.90675008 7.9248585e-39
-0.1858658 0.11828838 0.90675008 8.1081708e-39
-0.1858658 0.12078838 0.90675008 8.2918459e-39
-0.1858658 0.12328839 0.90925008 8.3847661e-39
-0.18336581 0.11578839 0.90175003 7.6493478e-39
-0.18336581 0.11828838 0.90175003 7.0068483e-39
-0.18086581 0.11578839 0.90175003 7.3738399e-39
-0.18086581 0.11828838 0.90175003 7.3731365e-39
-0.18336581 0.11578839 0.90675008 7.0968985e-39
-0.18336581 0.11828838 0.90675008 7.464602e-39
-0.18086581 0.11578839 0.90675008 9.3938719e-39
-0.18086581 0.11828838 0.90675008 9.1179997e-39
-0.18336581 0.12078838 0.90175003 7.7426182e-39
-0.18336581 0.12328839 0.90175003 7.3731337e-39
-0.18086581 0.12078838 0.90175003 7.557871e-39
-0.18086581 0.12328839 0.90175003 6.7299082e-39
-0.18336581 0.12078838 0.90675008 7.0968985e-39
-0.18336581 0.12078838 0.90925008 7.8344635e-39
-0.18336581 0.12328839 0.90675008 7.0057931e-39
-0.18336581 0.12328839 0.90925008 7.2812898e-39
-0.18086581 0.12078838 0.90675008 8.2000006e-39
-0.18086581 0.12328839 0.90675008 7.0064951e-39
-0.18086581 0.12328839 0.90925008 8.0156122e-39
-0.1883658 0.12828839 0.89175004 1.603448e-38
-0.1883658 0.12828839 0.89425004 1.5574222e-38
-0.1858658 0.12578838 0.89175004 1.6221376e-38
-0.1858658 0.12828839 0.89175004 1.5849367e-38
-0.1858658 0.12828839 0.89425004 1.6126312e-38
-0.1883658 0.13078839 0.89175004 1.5944068e-38
-0.1883658 0.13078839 0.89425004 1.5849369e-38
-0.1883658 0.13328838 0.89425004 1.5941928e-38
-0.1858658 0.13078839 0.89175004 1.6035186e-38
-0.1858658 0.13078839 0.89425004 1.6309989e-38
-0.1858658 0.13328838 0.89425004 1.6494739e-38
-0.1883658 0.13078839 0.89675003 1.5758969e-38
-0.1883658 0.13328838 0.89675003 1.6126663e-38
-0.1858658 0.13078839 0.89675003 1.6312143e-38
-0.1858658 0.13328838 0.89675003 1.6495102e-38
-0.18336581 0.12578838 0.89175004 1.5761137e-38
-0.18336581 0.12578838 0.89425004 1.0414869e-38
-0.18336581 0.12828839 0.89175004 1.5483471e-38
-0.18336581 0.12828839 0.89425004 1.1518343e-38
-0.18086581 0.12578838 0.89175004 1.05989e-38
-0.18086581 0.12578838 0.89425004 7.006149e-39
-0.18086581 0.12828839 0.89175004 1.1243548e-38
-0.18086581 0.12828839 0.89425004 9.3081615e-39
-0.18336581 0.12578838 0.89675003 9.3077957e-39
-0.18336581 0.12828839 0.89675003 1.1428298e-38
-0.18086581 0.12578838 0.89675003 7.3731337e-39
-0.18086581 0.12828839 0.89675003 7.651517e-39
-0.18336581 0.13078839 0.89425004 1.557495e-38
-0.18336581 0.13328838 0.89425004 1.5944449e-38
-0.18086581 0.13078839 0.89425004 8.6628215e-39
-0.18336581 0.13078839 0.89675003 1.262469e-38
-0.18336581 0.13328838 0.89675003 1.2256258e-38
-0.18086581 0.13078839 0.89675003 8.8497043e-39
-0.18086581 0.12578838 0.90175003 6.9139464e-39
-0.18086581 0.12828839 0.90175003 7.2812898e-39
-0.18336581 0.12578838 0.90675008 7.1905403e-39
-0.18336581 0.12578838 0.90925008 7.3745714e-39
-0.18336581 0.12828839 0.90675008 6.729202e-39
-0.18336581 0.12828839 0.90925008 7.280938e-39
-0.18086581 0.12578838 0.90675008 6.8213976e-39
-0.18086581 0.12578838 0.90925008 7.5575053e-39
-0.18086581 0.12828839 0.90675008 6.729202e-39
-0.18086581 0.12828839 0.90925008 8.0148863e-39
-0.18336581 0.13078839 0.90175003 1.2256627e-38
-0.18336581 0.13328838 0.90175003 9.1244989e-39
-0.18336581 0.13078839 0.90675008 7.0954706e-39
-0.18336581 0.13078839 0.90925008 6.4529878e-39
-0.18336581 0.13328838 0.90675008 7.6490101e-39
-0.18336581 0.13328838 0.90925008 7.2798814e-39
-0.18086581 0.13078839 0.90675008 7.7372428e-39
-0.18086581 0.13078839 0.90925008 7.5564459e-39
-0.18086581 0.13328838 0.90675008 7.7404897e-39
-0.18086581 0.13328838 0.90925008 8.0156122e-39
-0.2183658 0.13578838 0.90675008 1.5664619e-38
-0.2183658 0.13578838 0.90925008 1.5481293e-38
-0.2183658 0.13828838 0.90675008 1.5757171e-38
-0.2183658 0.13828838 0.90925008 1.5666054e-38
-0.21586581 0.13578838 0.90925008 1.5849367e-38
-0.21586581 0.13828838 0.90925008 1.5941913e-38
-0.2183658 0.14078838 0.90925008 1.6033758e-38
-0.21586581 0.14078838 0.90925008 1.5941562e-38
-0.21586581 0.14328839 0.90925008 1.5941562e-38
-0.21336581 0.13578838 0.90925008 1.557674e-38
-0.21336581 0.13828838 0.90925008 1.6495442e-38
-0.21086581 0.13578838 0.90925008 1.0232288e-38
-0.21336581 0.14078838 0.90925008 1.640254e-38
-0.21336581 0.14328839 0.90925008 1.6494736e-38
-0.21586581 0.14578839 0.90925008 1.5757168e-38
-0.21336581 0.14578839 0.90925008 1.6126309e-38
-0.20836581 0.13578838 0.90925008 5.0693345e-39
-0.20836581 0.13828838 0.90925008 5.5288637e-39
-0.20586582 0.13578838 0.90675008 6.8123522e-39
-0.20586582 0.13578838 0.90925008 6.2609861e-39
-0.20586582 0.13828838 0.90675008 6.9023885e-39
-0.20586582 0.13828838 0.90925008 6.5350283e-39
-0.20836581 0.14078838 0.90925008 5.9901992e-39
-0.20586582 0.14078838 0.90925008 6.6308154e-39
-0.20586582 0.14328839 0.90925008 8.197795e-39
-0.20086581 0.13578838 0.90175003 1.6770229e-38
-0.20086581 0.13828838 0.90175003 1.6586932e-38
-0.2033658 0.13578838 0.90675008 1.1516137e-38
-0.2033658 0.13828838 0.90675008 1.2530324e-38
-0.20086581 0.13578838 0.90675008 1.6862777e-38
-0.20086581 0.13828838 0.90675008 1.6678389e-38
-0.20086581 0.14078838 0.90175003 1.6679831e-38
-0.20086581 0.14328839 0.90175003 1.6863484e-38
-0.2033658 0.14078838 0.90675008 1.2162245e-38
-0.2033658 0.14328839 0.90675008 1.225192e-38
-0.2033658 0.14328839 0.90925008 1.1794516e-38
-0.20086581 0.14078838 0.90675008 1.7046799e-38
-0.20086581 0.14328839 0.90675008 1.7230484e-38
-0.20086581 0.14328839 0.90925008 1.6955682e-38
-0.20586582 0.14578839 0.90925008 6.5422772e-39
-0.20586582 0.14828838 0.90925008 6.9993093e-39
-0.20086581 0.14578839 0.90175003 1.6771638e-38
-0.2033658 0.14578839 0.90675008 1.0408345e-38
-0.2033658 0.14578839 0.90925008 1.1238489e-38
-0.2033658 0.14828838 0.90675008 9.2119651e-39
-0.2033658 0.14828838 0.90925008 1.0224692e-38
-0.20086581 0.14578839 0.90675008 1.6954979e-38
-0.20086581 0.14578839 0.90925008 1.6770932e-38
-0.20086581 0.14828838 0.90675008 1.6772026e-38
-0.20086581 0.14828838 0.90925008 1.6402871e-38
-0.2033658 0.15078838 0.90925008 9.1176003e-39
-0.2033658 0.15328838 0.90925008 8.1034862e-39
-0.20086581 0.15078838 0.90675008 1.704826e-38
-0.20086581 0.15078838 0.90925008 1.6494325e-38
-0.20086581 0.15328838 0.90675008 1.6587638e-38
-0.20086581 0.15328838 0.90925008 1.6035183e-38
-0.20086581 0.15578838 0.90675008 1.5849348e-38
-0.20086581 0.15578838 0.90925008 1.5942266e-38
-0.20086581 0.15828839 0.90675008 1.612447e-38
-0.20086581 0.15828839 0.90925008 1.5849704e-38
-0.20086581 0.16078839 0.90925008 1.5017786e-38
-0.19836581 0.13578838 0.89675003 1.5851515e-38
-0.19836581 0.13828838 0.89675003 1.6128102e-38
-0.19586581 0.13578838 0.89675003 1.5482732e-38
-0.19586581 0.13828838 0.89675003 1.5574928e-38
-0.19586581 0.14078838 0.89675003 1.5757521e-38
-0.19586581 0.14328839 0.89675003 1.5573859e-38
-0.19336581 0.13578838 0.89425004 1.5389814e-38
-0.19086581 0.13578838 0.89425004 1.6033408e-38
-0.19336581 0.13578838 0.89675003 1.5850083e-38
-0.19336581 0.13828838 0.89675003 1.5022123e-38
-0.19086581 0.13578838 0.89675003 1.6034467e-38
-0.19086581 0.13828838 0.89675003 1.566677e-38
-0.19336581 0.14078838 0.89675003 1.5204363e-38
-0.19336581 0.14328839 0.89675003 1.5388394e-38
-0.19086581 0.14078838 0.89675003 1.5758966e-38
-0.19086581 0.14328839 0.89675003 1.5849014e-38
-0.19836581 0.13578838 0.90175003 1.5758969e-38
-0.19836581 0.13828838 0.90175003 1.5943712e-38
-0.19586581 0.13578838 0.90175003 1.5480587e-38
-0.19586581 0.13828838 0.90175003 1.5757519e-38
-0.19836581 0.14078838 0.90175003 1.6495086e-38
-0.19836581 0.14328839 0.90175003 1.6860995e-38
-0.19586581 0.14078838 0.90175003 1.5664619e-38
-0.19586581 0.14328839 0.90175003 1.6031594e-38
-0.19836581 0.14328839 0.90675008 1.649544e-38
-0.19336581 0.13578838 0.90175003 1.5757519e-38
-0.19336581 0.13828838 0.90175003 1.5665323e-38
-0.19086581 0.13578838 0.90175003 1.6217779e-38
-0.19086581 0.13828838 0.90175003 1.5941913e-38
-0.19336581 0.14078838 0.90175003 1.492884e-38
-0.19336581 0.14328839 0.90175003 1.5204348e-38
-0.19086581 0.14078838 0.90175003 1.5666052e-38
-0.19086581 0.14328839 0.90175003 1.5848998e-38
-0.19086581 0.14578839 0.89675003 1.5851871e-38
-0.19836581 0.14578839 0.90175003 1.5850436e-38
-0.19836581 0.14828838 0.90175003 1.6034467e-38
-0.19586581 0.14578839 0.90175003 1.538911e-38
-0.19586581 0.14828838 0.90175003 1.5757519e-38
-0.19836581 0.14578839 0.90675008 1.5850439e-38
-0.19836581 0.14828838 0.90675008 1.6126657e-38
-0.19836581 0.15078838 0.90175003 1.6309975e-38
-0.19586581 0.15078838 0.90175003 1.5941913e-38
-0.19586581 0.15328838 0.90175003 1.6032682e-38
-0.19836581 0.15078838 0.90675008 1.5850073e-38
-0.19836581 0.15328838 0.90675008 1.5666402e-38
-0.19836581 0.15328838 0.90925008 1.5757874e-38
-0.19586581 0.15078838 0.90675008 1.5575281e-38
-0.19586581 0.15328838 0.90675008 1.5759675e-38
-0.19586581 0.15328838 0.90925008 1.5667124e-38
-0.19336581 0.14578839 0.90175003 1.5020329e-38
-0.19336581 0.14828838 0.90175003 1.5112149e-38
-0.19086581 0.14578839 0.90175003 1.5849364e-38
-0.19086581 0.14828838 0.90175003 1.6034482e-38
-0.19336581 0.15078838 0.90175003 1.4651192e-38
-0.19336581 0.15328838 0.90175003 1.4559334e-38
-0.19086581 0.15078838 0.90175003 1.6034126e-38
-0.19086581 0.15328838 0.90175003 1.5850073e-38
-0.19336581 0.15078838 0.90675008 1.5019954e-38
-0.19336581 0.15328838 0.90675008 1.4376382e-38
-0.19086581 0.15078838 0.90675008 1.6034461e-38
-0.19086581 0.15328838 0.90675008 1.5760394e-38
-0.1883658 0.13578838 0.89425004 1.6125956e-38
-0.1883658 0.13828838 0.89425004 1.6309992e-38
-0.1883658 0.13578838 0.89675003 1.6033761e-38
-0.1883658 0.13828838 0.89675003 1.5941565e-38
-0.1858658 0.13578838 0.89675003 1.6494739e-38
-0.1858658 0.13828838 0.89675003 1.6402185e-38
-0.1883658 0.14078838 0.89675003 1.6124877e-38
-0.1883658 0.14328839 0.89675003 1.5941565e-38
-0.1858658 0.14078838 0.89675003 1.6401466e-38
-0.1858658 0.14328839 0.89675003 1.5758616e-38
-0.18336581 0.13578838 0.89675003 1.2901983e-38
-0.18336581 0.13828838 0.89675003 1.3915779e-38
-0.18086581 0.13578838 0.89675003 1.114885e-38
-0.18086581 0.13828838 0.89675003 1.1518711e-38
-0.18336581 0.14078838 0.89675003 1.4560429e-38
-0.18336581 0.14328839 0.89675003 1.4836659e-38
-0.1883658 0.13828838 0.90175003 1.6311071e-38
-0.1858658 0.13578838 0.90175003 1.6404341e-38
-0.1858658 0.13828838 0.90175003 1.622067e-38
-0.1883658 0.14078838 0.90175003 1.5942281e-38
-0.1883658 0.14328839 0.90175003 1.6125959e-38
-0.1858658 0.14078838 0.90175003 1.5944083e-38
-0.1858658 0.14328839 0.90175003 1.594408e-38
-0.18336581 0.13578838 0.90175003 1.11492e-38
-0.18336581 0.13828838 0.90175003 1.3085659e-38
-0.18336581 0.13578838 0.90675008 8.1085687e-39
-0.18336581 0.13578838 0.90925008 8.5670231e-39
-0.18336581 0.13828838 0.90675008 1.1333598e-38
-0.18336581 0.13828838 0.90925008 9.1198144e-39
-0.18086581 0.13578838 0.90675008 8.29296e-39
-0.18086581 0.13578838 0.90925008 8.2910878e-39
-0.18086581 0.13828838 0.90675008 8.8446694e-39
-0.18336581 0.14078838 0.90175003 1.3732815e-38
-0.18336581 0.14328839 0.90175003 1.4746256e-38
-0.18336581 0.14078838 0.90675008 1.2164431e-38
-0.18336581 0.14078838 0.90925008 8.9372308e-39
-0.18336581 0.14328839 0.90675008 1.2074756e-38
-0.18336581 0.14328839 0.90925008 1.2074751e-38
-0.1883658 0.14578839 0.89675003 1.5941928e-38
-0.1858658 0.14578839 0.89675003 1.5849732e-38
-0.1883658 0.14578839 0.90175003 1.6034477e-38
-0.1883658 0.14828838 0.90175003 1.5851167e-38
-0.1858658 0.14578839 0.90175003 1.5941928e-38
-0.1858658 0.14828838 0.90175003 1.6127398e-38
-0.1858658 0.14578839 0.90675008 1.6218875e-38
-0.1858658 0.14828838 0.90675008 1.6403985e-38
-0.1858658 0.14828838 0.90925008 1.5851888e-38
-0.1883658 0.15078838 0.90175003 1.5759675e-38
-0.1883658 0.15328838 0.90175003 1.5851167e-38
-0.1858658 0.15078838 0.90175003 1.5851871e-38
-0.1858658 0.15328838 0.90175003 1.631179e-38
-0.1883658 0.15078838 0.90675008 1.5759672e-38
-0.1883658 0.15328838 0.90675008 1.5759319e-38
-0.1883658 0.15328838 0.90925008 1.6036276e-38
-0.1858658 0.15078838 0.90675008 1.649724e-38
-0.1858658 0.15078838 0.90925008 1.6404341e-38
-0.1858658 0.15328838 0.90675008 1.6588734e-38
-0.1858658 0.15328838 0.90925008 1.6497254e-38
-0.18336581 0.14578839 0.90175003 1.50232e-38
-0.18336581 0.14828838 0.90175003 1.6495805e-38
-0.18336581 0.14578839 0.90675008 1.2812318e-38
-0.18336581 0.14578839 0.90925008 8.5698776e-39
-0.18336581 0.14828838 0.90675008 1.4377101e-38
-0.18336581 0.14828838 0.90925008 9.3067013e-39
-0.18086581 0.14828838 0.90675008 9.2134295e-39
-0.18336581 0.15078838 0.90675008 9.5829505e-39
-0.18336581 0.15078838 0.90925008 9.3978432e-39
-0.18336581 0.15328838 0.90675008 9.4904017e-39
-0.18336581 0.15328838 0.90925008 9.4907577e-39
-0.18086581 0.15078838 0.90675008 1.0043931e-38
-0.18086581 0.15078838 0.90925008 8.2050355e-39
-0.18086581 0.15328838 0.90675008 9.8595206e-39
-0.18086581 0.15328838 0.90925008 9.2173728e-39
-0.19836581 0.15578838 0.90675008 1.5942266e-38
-0.19836581 0.15578838 0.90925008 1.5850423e-38
-0.19836581 0.15828839 0.90675008 1.6769483e-38
-0.19836581 0.15828839 0.90925008 1.6125931e-38
-0.19586581 0.15578838 0.90675008 1.5021388e-38
-0.19586581 0.15578838 0.90925008 1.5482364e-38
-0.19586581 0.15828839 0.90675008 1.5941913e-38
-0.19586581 0.15828839 0.90925008 1.5389445e-38
-0.19836581 0.16078839 0.90675008 1.6217761e-38
-0.19836581 0.16078839 0.90925008 1.6310676e-38
-0.19586581 0.16078839 0.90675008 1.6034464e-38
-0.19586581 0.16078839 0.90925008 1.5755719e-38
-0.19586581 0.16328838 0.90675008 1.5849354e-38
-0.19586581 0.16328838 0.90925008 1.5481288e-38
-0.19336581 0.15578838 0.90675008 1.5389448e-38
-0.19336581 0.15828839 0.90675008 1.5481288e-38
-0.19336581 0.15828839 0.90925008 1.5849364e-38
-0.19086581 0.15578838 0.90675008 1.5942281e-38
-0.19086581 0.15828839 0.90675008 1.6034467e-38
-0.19086581 0.15828839 0.90925008 1.6309972e-38
-0.19336581 0.16078839 0.90675008 1.5112149e-38
-0.19336581 0.16078839 0.90925008 1.5849348e-38
-0.19336581 0.16328838 0.90675008 1.5849354e-38
-0.19336581 0.16328838 0.90925008 1.6402522e-38
-0.19086581 0.16078839 0.90675008 1.6034464e-38
-0.19086581 0.16078839 0.90925008 1.6034467e-38
-0.19086581 0.16328838 0.90675008 1.5943712e-38
-0.19086581 0.16328838 0.90925008 1.6495808e-38
-0.19586581 0.16578838 0.90925008 1.5205417e-38
-0.19336581 0.16578838 0.90675008 1.5297262e-38
-0.19336581 0.16578838 0.90925008 1.6863499e-38
-0.19086581 0.16578838 0.90675008 1.6864948e-38
-0.19086581 0.16578838 0.90925008 1.6679127e-38
-0.19086581 0.16828838 0.90675008 1.686637e-38
-0.1883658 0.15578838 0.90175003 1.5943364e-38
-0.1883658 0.15578838 0.90675008 1.6219228e-38
-0.1883658 0.15578838 0.90925008 1.6309989e-38
-0.1883658 0.15828839 0.90675008 1.6126663e-38
-0.1883658 0.15828839 0.90925008 1.6033758e-38
-0.1858658 0.15578838 0.90675008 1.6864961e-38
-0.1858658 0.15578838 0.90925008 1.7140108e-38
-0.1858658 0.15828839 0.90675008 1.6772032e-38
-0.1858658 0.15828839 0.90925008 1.6679127e-38
-0.1883658 0.16078839 0.90675008 1.5851532e-38
-0.1883658 0.16078839 0.90925008 1.6495086e-38
-0.1883658 0.16328838 0.90925008 1.603483e-38
-0.1858658 0.16078839 0.90675008 1.6220295e-38
-0.1858658 0.16078839 0.90925008 1.6402891e-38
-0.1858658 0.16328838 0.90675008 1.5759319e-38
-0.1858658 0.16328838 0.90925008 1.612738e-38
-0.18336581 0.15578838 0.90675008 8.6627949e-39
-0.18336581 0.15578838 0.90925008 9.2130918e-39
-0.18336581 0.15828839 0.90675008 1.0690733e-38
-0.18336581 0.15828839 0.90925008 1.0322674e-38
-0.18086581 0.15578838 0.90675008 8.5716754e-39
-0.18086581 0.15578838 0.90925008 7.9270123e-39
-0.18086581 0.15828839 0.90675008 1.1060592e-38
-0.18336581 0.16078839 0.90675008 1.6773468e-38
-0.18336581 0.16078839 0.90925008 1.557674e-38
-0.18336581 0.16328838 0.90675008 1.6861348e-38
-0.18336581 0.16328838 0.90925008 1.6679108e-38
-0.1883658 0.16578838 0.90675008 1.6034477e-38
-0.1883658 0.16578838 0.90925008 1.6125584e-38
-0.1883658 0.16828838 0.90675008 1.5575631e-38
-0.1858658 0.16578838 0.90925008 1.6033029e-38
-0.18336581 0.16578838 0.90925008 1.5386941e-38
-0.17836581 0.095788382 0.88925004 1.0506339e-38
-0.17836581 0.09828838 0.88925004 1.0687486e-38
-0.17836581 0.10328838 0.88425004 8.1956818e-39
-0.17836581 0.10578838 0.88425004 8.012385e-39
-0.17836581 0.095788382 0.89175004 1.0139346e-38
-0.17836581 0.095788382 0.89425004 1.1699837e-38
-0.17836581 0.09828838 0.89175004 9.952812e-39
-0.17836581 0.09828838 0.89425004 1.1790235e-38
-0.17586581 0.095788382 0.89425004 1.6586932e-38
-0.17586581 0.09828838 0.89425004 1.6771326e-38
-0.17836581 0.09828838 0.89675003 1.1606923e-38
-0.17586581 0.095788382 0.89675003 1.6588004e-38
-0.17586581 0.09828838 0.89675003 1.6679127e-38
-0.17836581 0.10078838 0.89425004 1.2157929e-38
-0.17836581 0.10328838 0.89425004 9.6740545e-39
-0.17586581 0.10078838 0.89425004 1.6680199e-38
-0.17586581 0.10328838 0.89425004 1.649544e-38
-0.17836581 0.10078838 0.89675003 1.2341597e-38
-0.17836581 0.10328838 0.89675003 1.4926675e-38
-0.17586581 0.10078838 0.89675003 1.6495808e-38
-0.17586581 0.10328838 0.89675003 1.649544e-38
-0.1733658 0.095788382 0.89425004 1.5941562e-38
-0.1733658 0.09828838 0.89425004 1.6033761e-38
-0.1708658 0.095788382 0.89425004 1.5756802e-38
-0.1733658 0.095788382 0.89675003 1.5664619e-38
-0.1733658 0.09828838 0.89675003 1.5757168e-38
-0.1708658 0.095788382 0.89675003 1.501853e-38
-0.1708658 0.09828838 0.89675003 1.5389463e-38
-0.1733658 0.10078838 0.89425004 1.6126657e-38
-0.1733658 0.10328838 0.89425004 1.6403244e-38
-0.1733658 0.10078838 0.89675003 1.6127027e-38
-0.1733658 0.10328838 0.89675003 1.6403244e-38
-0.1733658 0.09828838 0.90175003 1.5482011e-38
-0.1708658 0.095788382 0.90175003 1.7966972e-38
-0.1708658 0.09828838 0.90175003 1.7138641e-38
-0.1708658 0.09828838 0.90675008 1.695425e-38
-0.1733658 0.10078838 0.90175003 1.548166e-38
-0.1733658 0.10328838 0.90175003 1.6034464e-38
-0.1708658 0.10078838 0.90175003 1.6677666e-38
-0.1708658 0.10328838 0.90175003 1.4928487e-38
-0.1733658 0.10328838 0.90675008 1.5665323e-38
-0.1708658 0.10078838 0.90675008 1.658547e-38
-0.1708658 0.10328838 0.90675008 1.6583319e-38
-0.17836581 0.10578838 0.89425004 8.4762302e-39
-0.17836581 0.10828838 0.89425004 7.7415434e-39
-0.17836581 0.10578838 0.89675003 1.1054838e-38
-0.17836581 0.10828838 0.89675003 1.0594553e-38
-0.17586581 0.10578838 0.89675003 1.6127377e-38
-0.1733658 0.10578838 0.89675003 1.6496161e-38
-0.17836581 0.10578838 0.90175003 1.4558631e-38
-0.17836581 0.10828838 0.90175003 1.4743375e-38
-0.17586581 0.10578838 0.90175003 1.6035533e-38
-0.17586581 0.10828838 0.90175003 1.6496161e-38
-0.17836581 0.11078838 0.90175003 1.5111799e-38
-0.17836581 0.11328838 0.90175003 1.5296546e-38
-0.17586581 0.11078838 0.90175003 1.6495086e-38
-0.17586581 0.11328838 0.90175003 1.6311421e-38
-0.17836581 0.11078838 0.90675008 1.4836291e-38
-0.17836581 0.11328838 0.90675008 1.5020682e-38
-0.17586581 0.11078838 0.90675008 1.6219576e-38
-0.17586581 0.11328838 0.90675008 1.6219579e-38
-0.1733658 0.10578838 0.90175003 1.6127733e-38
-0.1733658 0.10828838 0.90175003 1.6220295e-38
-0.1708658 0.10578838 0.90175003 1.5664622e-38
-0.1708658 0.10828838 0.90175003 1.548059e-38
-0.1733658 0.10578838 0.90675008 1.5482008e-38
-0.1733658 0.10828838 0.90675008 1.5298698e-38
-0.1708658 0.10578838 0.90675008 1.6583319e-38
-0.1708658 0.10828838 0.90675008 1.6398928e-38
-0.1733658 0.11078838 0.90175003 1.6220297e-38
-0.1733658 0.11328838 0.90175003 1.6219947e-38
-0.1708658 0.11078838 0.90175003 1.5480587e-38
-0.1733658 0.11078838 0.90675008 1.5298701e-38
-0.1733658 0.11328838 0.90675008 1.5482023e-38
-0.1708658 0.11078838 0.90675008 1.5847915e-38
-0.1708658 0.11328838 0.90675008 1.5847565e-38
-0.16836581 0.095788382 0.89675003 2.0365854e-38
-0.16836581 0.095788382 0.90175003 2.0640646e-38
-0.16836581 0.09828838 0.90175003 2.0365135e-38
-0.16586581 0.095788382 0.90175003 1.9995656e-38
-0.16586581 0.09828838 0.90175003 1.9720867e-38
-0.16836581 0.09828838 0.90675008 1.9814129e-38
-0.16586581 0.09828838 0.90675008 1.9537541e-38
-0.16836581 0.10078838 0.90675008 2.0089996e-38
-0.16836581 0.10328838 0.90675008 2.0364078e-38
-0.16836581 0.10578838 0.90675008 2.045663e-38
-0.16836581 0.10578838 0.90925008 1.9996728e-38
-0.16836581 0.10828838 0.90675008 1.9441384e-38
-0.16836581 0.10828838 0.90925008 2.0088921e-38
-0.16586581 0.10578838 0.90675008 1.944427e-38
-0.16586581 0.10828838 0.90675008 1.9629018e-38
-0.16586581 0.10828838 0.90925008 1.9720137e-38
-0.16836581 0.11078838 0.90675008 2.0180391e-38
-0.16836581 0.11328838 0.90675008 1.9443551e-38
-0.16586581 0.11078838 0.90675008 1.9811967e-38
-0.16586581 0.11328838 0.90675008 1.9536456e-38
-0.17836581 0.11578839 0.90175003 1.4743372e-38
-0.17586581 0.11578839 0.90175003 1.6495805e-38
-0.17836581 0.11578839 0.90675008 1.5296899e-38
-0.17836581 0.11828838 0.90675008 1.547949e-38
-0.17586581 0.11578839 0.90675008 1.6679834e-38
-0.17586581 0.11828838 0.90675008 1.6954979e-38
-0.17586581 0.11828838 0.90925008 1.6679834e-38
-0.17836581 0.12078838 0.90675008 1.5480565e-38
-0.17836581 0.12328839 0.90675008 1.4835527e-38
-0.17836581 0.12328839 0.90925008 1.4836246e-38
-0.17586581 0.12078838 0.90675008 1.6955695e-38
-0.17586581 0.12078838 0.90925008 1.6494736e-38
-0.17586581 0.12328839 0.90675008 1.5849678e-38
-0.17586581 0.12328839 0.90925008 1.6311068e-38
-0.1733658 0.11578839 0.90175003 1.6036276e-38
-0.1733658 0.11578839 0.90675008 1.5666773e-38
-0.1733658 0.11828838 0.90675008 1.5758969e-38
-0.1708658 0.11578839 0.90675008 1.5664605e-38
-0.1708658 0.11828838 0.90675008 1.6033029e-38
-0.1708658 0.11828838 0.90925008 1.7416692e-38
-0.1733658 0.12078838 0.90675008 1.622067e-38
-0.1733658 0.12078838 0.90925008 1.5849367e-38
-0.1733658 0.12328839 0.90675008 1.6311424e-38
-0.1733658 0.12328839 0.90925008 1.5576726e-38
-0.1708658 0.12078838 0.90675008 1.6125584e-38
-0.1708658 0.12078838 0.90925008 1.7233726e-38
-0.1708658 0.12328839 0.90925008 1.7323418e-38
-0.17836581 0.12578838 0.90675008 1.0230478e-38
-0.17836581 0.12578838 0.90925008 1.317675e-38
-0.17836581 0.12828839 0.90925008 1.2440264e-38
-0.17586581 0.12578838 0.90925008 1.667948e-38
-0.17586581 0.12828839 0.90925008 1.5851142e-38
-0.17836581 0.13078839 0.90925008 1.1977841e-38
-0.17586581 0.13078839 0.90925008 1.5665306e-38
-0.16836581 0.11578839 0.90675008 1.9443907e-38
-0.16836581 0.11828838 0.90675008 1.8798888e-38
-0.16836581 0.11828838 0.90925008 1.8521947e-38
-0.16586581 0.11828838 0.90925008 1.9628666e-38
-0.16836581 0.12078838 0.90675008 1.8336834e-38
-0.16836581 0.12078838 0.90925008 1.8797809e-38
-0.16836581 0.12328839 0.90925008 1.79677e-38
-0.16586581 0.12078838 0.90925008 2.0088573e-38
-0.21086581 0.073288381 0.91175008 1.9446791e-38
-0.21086581 0.075788379 0.91175008 1.963082e-38
-0.19586581 0.070788383 0.91175008 1.7234061e-38
-0.19336581 0.070788383 0.91175008 1.907333e-38
-0.22336581 0.12328839 0.91425008 1.7508162e-38
-0.22336581 0.12828839 0.91175008 1.7233005e-38
-0.22086582 0.12578838 0.91175008 1.6494383e-38
-0.22086582 0.12828839 0.91175008 1.6588004e-38
-0.22086582 0.13078839 0.91175008 1.6864948e-38
-0.22086582 0.13328838 0.91175008 1.6402891e-38
-0.22086582 0.13578838 0.91175008 1.5758616e-38
-0.22086582 0.13828838 0.91175008 1.6311424e-38
-0.22086582 0.15078838 0.92175007 1.5297992e-38
-0.22086582 0.15078838 0.92425007 1.5482011e-38
-0.22086582 0.15328838 0.92175007 1.5480234e-38
-0.22086582 0.15328838 0.92425007 1.4928852e-38
-0.22336581 0.15328838 0.92675006 1.4191287e-38
-0.22336581 0.15328838 0.92925006 1.4283483e-38
-0.22086582 0.15078838 0.92675006 1.5482379e-38
-0.22086582 0.15328838 0.92675006 1.4929205e-38
-0.22336581 0.15328838 0.93175006 1.502212e-38
-0.22086582 0.15578838 0.92425007 1.6311771e-38
-0.22336581 0.15578838 0.92675006 1.6957512e-38
-0.22336581 0.15578838 0.92925006 1.7325922e-38
-0.22336581 0.15828839 0.92925006 1.6681298e-38
-0.22086582 0.15578838 0.92675006 1.6221745e-38
-0.22086582 0.15828839 0.92675006 1.6220648e-38
-0.22086582 0.15828839 0.92925006 1.631249e-38
-0.2183658 0.13328838 0.91175008 1.5941913e-38
-0.21586581 0.13328838 0.91175008 1.6401822e-38
-0.1858658 0.11828838 0.91175008 7.4639e-39
-0.1858658 0.12328839 0.91175008 7.006142e-39
-0.18336581 0.12328839 0.91175008 6.913952e-39
-0.18086581 0.12328839 0.91175008 8.1078022e-39
-0.1858658 0.12578838 0.91175008 7.188741e-39
-0.1858658 0.12828839 0.91175008 8.0177758e-39
-0.1858658 0.12828839 0.91425008 7.4671201e-39
-0.18336581 0.12578838 0.91175008 7.0965454e-39
-0.18336581 0.12578838 0.91425008 7.3752776e-39
-0.18336581 0.12828839 0.91175008 7.2798576e-39
-0.18336581 0.12828839 0.91425008 6.8217507e-39
-0.18086581 0.12578838 0.91175008 1.0228307e-38
-0.18086581 0.12828839 0.91175008 1.0324799e-38
-0.18086581 0.12828839 0.91425008 1.0138963e-38
-0.18336581 0.13078839 0.91175008 6.4526249e-39
-0.18336581 0.13078839 0.91425008 6.9117982e-39
-0.18336581 0.13328838 0.91175008 7.2809408e-39
-0.18336581 0.13328838 0.91425008 7.3720533e-39
-0.18086581 0.13078839 0.91175008 1.0508137e-38
-0.18086581 0.13078839 0.91425008 7.2808988e-39
-0.18086581 0.13328838 0.91175008 1.1057674e-38
-0.18086581 0.13328838 0.91425008 1.078398e-38
-0.18336581 0.13328838 0.91675007 8.6595593e-39
-0.18086581 0.13328838 0.91675007 1.0689263e-38
-0.2183658 0.13578838 0.91175008 1.5482029e-38
-0.2183658 0.13828838 0.91175008 1.5299433e-38
-0.2183658 0.13828838 0.91425008 1.6219591e-38
-0.21586581 0.13578838 0.91175008 1.6126677e-38
-0.21586581 0.13828838 0.91175008 1.6495086e-38
-0.21586581 0.13828838 0.91425008 1.6219591e-38
-0.2183658 0.14078838 0.91175008 1.5942281e-38
-0.2183658 0.14078838 0.91425008 1.6033758e-38
-0.21586581 0.14078838 0.91175008 1.6587638e-38
-0.21586581 0.14078838 0.91425008 1.640254e-38
-0.21586581 0.14328839 0.91175008 1.6495086e-38
-0.21586581 0.14328839 0.91425008 1.6403244e-38
-0.2183658 0.14078838 0.91675007 1.5941209e-38
-0.2183658 0.14328839 0.91675007 1.6034464e-38
-0.2183658 0.14328839 0.91925007 1.5848651e-38
-0.21586581 0.14328839 0.91675007 1.6218872e-38
-0.21586581 0.14328839 0.91925007 1.6310695e-38
-0.21336581 0.13578838 0.91175008 1.5668573e-38
-0.21336581 0.13828838 0.91175008 1.5760765e-38
-0.21086581 0.13578838 0.91175008 1.0047897e-38
-0.21086581 0.13828838 0.91175008 1.0785462e-38
-0.21336581 0.14078838 0.91175008 1.6036629e-38
-0.21336581 0.14078838 0.91425008 1.4283839e-38
-0.21336581 0.14328839 0.91175008 1.6128099e-38
-0.21336581 0.14328839 0.91425008 1.4560426e-38
-0.21086581 0.14078838 0.91175008 1.1798169e-38
-0.21086581 0.14078838 0.91425008 1.2439939e-38
-0.21086581 0.14328839 0.91175008 1.3549494e-38
-0.21086581 0.14328839 0.91425008 1.2995262e-38
-0.21336581 0.14328839 0.91675007 1.4469299e-38
-0.2183658 0.14578839 0.91425008 1.5849717e-38
-0.21586581 0.14578839 0.91175008 1.6402172e-38
-0.21586581 0.14578839 0.91425008 1.6495442e-38
-0.21586581 0.14828838 0.91175008 1.6220297e-38
-0.21586581 0.14828838 0.91425008 1.5942631e-38
-0.2183658 0.14578839 0.91675007 1.5849717e-38
-0.2183658 0.14578839 0.91925007 1.5848648e-38
-0.2183658 0.14828838 0.91675007 1.5849367e-38
-0.2183658 0.14828838 0.91925007 1.5574928e-38
-0.21586581 0.14578839 0.91675007 1.6404338e-38
-0.21586581 0.14578839 0.91925007 1.5850811e-38
-0.21586581 0.14828838 0.91675007 1.6219591e-38
-0.21586581 0.14828838 0.91925007 1.5943364e-38
-0.21586581 0.15078838 0.91675007 1.5760388e-38
-0.21586581 0.15078838 0.91925007 1.5851865e-38
-0.21586581 0.15328838 0.91925007 1.5852588e-38
-0.21336581 0.14578839 0.91175008 1.6219228e-38
-0.21336581 0.14578839 0.91425008 1.511395e-38
-0.21336581 0.14828838 0.91175008 1.6312493e-38
-0.21336581 0.14828838 0.91425008 1.5574925e-38
-0.21086581 0.14578839 0.91175008 1.4836294e-38
-0.21086581 0.14578839 0.91425008 1.3274007e-38
-0.21086581 0.14828838 0.91425008 1.4286007e-38
-0.21336581 0.14578839 0.91675007 1.4743738e-38
-0.21336581 0.14828838 0.91675007 1.5482026e-38
-0.21336581 0.14828838 0.91925007 1.4746965e-38
-0.21086581 0.14578839 0.91675007 1.3732833e-38
-0.21086581 0.14828838 0.91675007 9.1230331e-39
-0.21086581 0.14828838 0.91925007 9.2145281e-39
-0.21336581 0.15078838 0.91675007 1.529977e-38
-0.21336581 0.15078838 0.91925007 1.447038e-38
-0.21336581 0.15328838 0.91925007 1.4102324e-38
-0.21086581 0.15078838 0.91675007 1.004356e-38
-0.21086581 0.15078838 0.91925007 1.0044629e-38
-0.21086581 0.15328838 0.91675007 9.8609667e-39
-0.21086581 0.15328838 0.91925007 1.0137912e-38
-0.2183658 0.14828838 0.92175007 1.5667121e-38
-0.2183658 0.15078838 0.92175007 1.5574928e-38
-0.2183658 0.15078838 0.92425007 1.5665698e-38
-0.2183658 0.15328838 0.92175007 1.5391263e-38
-0.2183658 0.15328838 0.92425007 1.5758966e-38
-0.21586581 0.15078838 0.92175007 1.5759319e-38
-0.21586581 0.15328838 0.92175007 1.5851871e-38
-0.21586581 0.15328838 0.92425007 1.5760394e-38
-0.2183658 0.15328838 0.92675006 1.5482023e-38
-0.21336581 0.15078838 0.92175007 1.5482727e-38
-0.21336581 0.15328838 0.92175007 1.5759675e-38
-0.21086581 0.15078838 0.92175007 9.6758692e-39
-0.21086581 0.15328838 0.92175007 1.0044655e-38
-0.20836581 0.13578838 0.91175008 4.7930966e-39
-0.20836581 0.13828838 0.91175008 5.5303113e-39
-0.20836581 0.14078838 0.91175008 7.0961922e-39
-0.20836581 0.14078838 0.91425008 7.276985e-39
-0.20836581 0.14328839 0.91175008 7.4645838e-39
-0.20836581 0.14328839 0.91425008 7.0947419e-39
-0.20586582 0.14328839 0.91175008 9.3945641e-39
-0.20836581 0.14578839 0.91175008 6.7226635e-39
-0.20836581 0.14578839 0.91425008 6.4522143e-39
-0.20836581 0.14828838 0.91175008 7.6453975e-39
-0.20836581 0.14828838 0.91425008 7.5524816e-39
-0.20586582 0.14578839 0.91175008 6.8206367e-39
-0.20586582 0.14828838 0.91175008 6.6348231e-39
-0.20586582 0.14828838 0.91425008 6.4511605e-39
-0.20836581 0.14578839 0.91675007 6.6297588e-39
-0.20836581 0.14828838 0.91675007 7.0958013e-39
-0.20836581 0.15078838 0.91425008 8.1996503e-39
-0.20586582 0.15078838 0.91175008 5.5288609e-39
-0.20586582 0.15078838 0.91425008 5.3455319e-39
-0.20586582 0.15328838 0.91175008 3.8714976e-39
-0.20586582 0.15328838 0.91425008 5.0682415e-39
-0.20836581 0.15078838 0.91675007 6.913596e-39
-0.20836581 0.15078838 0.91925007 7.0043497e-39
-0.20836581 0.15328838 0.91675007 8.2954333e-39
-0.20836581 0.15328838 0.91925007 4.3303177e-39
-0.20586582 0.15078838 0.91675007 5.5288609e-39
