# .PCD v0.7 - Point Cloud Data file format
VERSION 0.7
FIELDS x y z rgb
SIZE 4 4 4 4
TYPE F F F F
COUNT 1 1 1 1
WIDTH 1015
HEIGHT 1
VIEWPOINT 0 0 0 1 0 0 0
POINTS 1015
DATA ascii
0.096975312 0.089463994 0.87925005 2.0826136e-38
0.094475307 0.091963992 0.87175006 1.5569893e-38
0.094475307 0.091963992 0.87425005 1.0410527e-38
0.094475307 0.094463997 0.87175006 1.5756802e-38
0.094475307 0.094463997 0.87425005 1.0686765e-38
0.096975312 0.091963992 0.87175006 2.1193466e-38
0.096975312 0.091963992 0.87425005 2.0641023e-38
0.096975312 0.094463997 0.87175006 2.1009432e-38
0.096975312 0.094463997 0.87425005 2.091724e-38
0.094475307 0.091963992 0.87675005 1.0410521e-38
0.094475307 0.094463997 0.87675005 1.0871156e-38
0.096975312 0.091963992 0.87675005 2.0181838e-38
0.096975312 0.094463997 0.87675005 2.0365504e-38
0.099475309 0.089463994 0.87675005 1.990312e-38
0.099475309 0.089463994 0.87925005 1.9627615e-38
0.10197531 0.086963996 0.87925005 7.5672639e-39
0.10197531 0.089463994 0.87675005 1.6311041e-38
0.10197531 0.089463994 0.87925005 1.612523e-38
0.099475309 0.091963992 0.87425005 1.5294042e-38
0.099475309 0.094463997 0.87425005 1.6031592e-38
0.10197531 0.091963992 0.87425005 1.4927388e-38
0.10197531 0.094463997 0.87425005 1.5019233e-38
0.099475309 0.091963992 0.87675005 1.9534318e-38
0.099475309 0.094463997 0.87675005 1.9443179e-38
0.10197531 0.091963992 0.87675005 1.5385875e-38
0.10197531 0.094463997 0.87675005 1.5663158e-38
0.091975309 0.081963994 0.88925004 1.6123416e-38
0.091975309 0.084463991 0.88925004 1.6030499e-38
0.091975309 0.079463996 0.89175004 1.6030145e-38
0.091975309 0.079463996 0.89425004 1.9074396e-38
0.091975309 0.079463996 0.89675003 1.8798535e-38
0.091975309 0.081963994 0.89425004 1.925699e-38
0.091975309 0.084463991 0.89175004 1.5845754e-38
0.091975309 0.081963994 0.89675003 1.9256274e-38
0.091975309 0.084463991 0.89675003 1.8980401e-38
0.091975309 0.086963996 0.88925004 1.5938303e-38
0.091975309 0.086963996 0.89675003 1.8521225e-38
0.094475307 0.081963994 0.88925004 1.446677e-38
0.094475307 0.084463991 0.88925004 1.345334e-38
0.094475307 0.079463996 0.89175004 1.4281671e-38
0.094475307 0.079463996 0.89425004 1.6401822e-38
0.094475307 0.076963991 0.89675003 1.7051159e-38
0.094475307 0.079463996 0.89675003 1.6494017e-38
0.096975312 0.076963991 0.89675003 1.8619927e-38
0.096975312 0.079463996 0.89675003 1.833793e-38
0.094475307 0.081963994 0.89425004 1.4281668e-38
0.094475307 0.084463991 0.89175004 1.3820694e-38
0.094475307 0.084463991 0.89425004 1.3361507e-38
0.096975312 0.081963994 0.89425004 9.5800414e-39
0.096975312 0.084463991 0.89425004 8.7517255e-39
0.094475307 0.081963994 0.89675003 1.3729568e-38
0.094475307 0.084463991 0.89675003 1.2995248e-38
0.096975312 0.081963994 0.89675003 9.3041776e-39
0.096975312 0.084463991 0.89675003 9.5804366e-39
0.099475309 0.076963991 0.89675003 1.7975649e-38
0.099475309 0.079463996 0.89675003 1.7232672e-38
0.10197531 0.076963991 0.89675003 1.290135e-38
0.10197531 0.079463996 0.89675003 6.9201219e-39
0.099475309 0.081963994 0.89425004 3.8729017e-39
0.099475309 0.084463991 0.89425004 1.6218522e-38
0.10197531 0.081963994 0.89425004 7.4566973e-39
0.10197531 0.084463991 0.89425004 1.4933579e-38
0.099475309 0.081963994 0.89675003 4.2413143e-39
0.099475309 0.084463991 0.89675003 1.6126326e-38
0.10197531 0.081963994 0.89675003 7.1797559e-39
0.096975312 0.089463994 0.88175005 2.1470073e-38
0.094475307 0.086963996 0.88925004 1.271829e-38
0.099475309 0.086963996 0.88175005 1.7972076e-38
0.099475309 0.089463994 0.88175005 1.9628666e-38
0.10197531 0.086963996 0.88175005 7.8449298e-39
0.099475309 0.086963996 0.88925004 1.8157539e-38
0.10197531 0.086963996 0.88925004 1.3639603e-38
0.094475307 0.086963996 0.89425004 1.2900902e-38
0.094475307 0.089463994 0.89425004 1.2626094e-38
0.094475307 0.086963996 0.89675003 1.3269314e-38
0.094475307 0.089463994 0.89675003 1.1889611e-38
0.096975312 0.086963996 0.89675003 7.7400945e-39
0.096975312 0.089463994 0.89675003 1.2068295e-38
0.099475309 0.086963996 0.89425004 1.9168428e-38
0.099475309 0.089463994 0.89425004 1.9720164e-38
0.10197531 0.086963996 0.89425004 1.5115064e-38
0.10197531 0.089463994 0.89175004 1.345736e-38
0.10197531 0.089463994 0.89425004 1.3547761e-38
0.099475309 0.086963996 0.89675003 1.9167374e-38
0.099475309 0.089463994 0.89675003 2.0825785e-38
0.10197531 0.086963996 0.89675003 1.5392357e-38
0.10197531 0.089463994 0.89675003 1.7512892e-38
0.099475309 0.091963992 0.89675003 2.0366246e-38
0.091975309 0.096963994 0.87425005 1.2164741e-38
0.091975309 0.096963994 0.87675005 1.1792739e-38
0.094475307 0.096963994 0.87175006 1.5111433e-38
0.094475307 0.096963994 0.87425005 1.1978923e-38
0.096975312 0.096963994 0.87425005 1.5110353e-38
0.096975312 0.099463992 0.87425005 1.7231954e-38
0.094475307 0.096963994 0.87675005 1.1702696e-38
0.094475307 0.099463992 0.87675005 1.2348413e-38
0.096975312 0.096963994 0.87675005 1.8059914e-38
0.096975312 0.099463992 0.87675005 1.7600013e-38
0.096975312 0.101964 0.87675005 1.7231598e-38
0.096975312 0.101964 0.87925005 1.6681298e-38
0.096975312 0.10446399 0.87675005 1.769508e-38
0.096975312 0.10446399 0.87925005 1.852269e-38
0.099475309 0.096963994 0.87425005 1.5939394e-38
0.099475309 0.099463992 0.87425005 1.6031947e-38
0.10197531 0.096963994 0.87425005 1.5388016e-38
0.10197531 0.099463992 0.87425005 1.5755719e-38
0.099475309 0.096963994 0.87675005 1.7966975e-38
0.099475309 0.099463992 0.87675005 1.778296e-38
0.10197531 0.096963994 0.87675005 1.5387312e-38
0.10197531 0.099463992 0.87675005 1.6030511e-38
0.099475309 0.101964 0.87675005 1.6957159e-38
0.099475309 0.101964 0.87925005 1.7970591e-38
0.099475309 0.10446399 0.87675005 1.7417045e-38
0.099475309 0.10446399 0.87925005 1.7416317e-38
0.10197531 0.101964 0.87675005 1.5847918e-38
0.10197531 0.10446399 0.87675005 1.5663899e-38
0.10197531 0.10446399 0.87925005 1.5756452e-38
0.10197531 0.10696399 0.87925005 1.5941562e-38
0.10197531 0.109464 0.87925005 1.6676234e-38
0.099475309 0.10446399 0.88175005 1.6957144e-38
0.099475309 0.10446399 0.88675004 1.7692204e-38
0.099475309 0.10696399 0.88175005 1.6589084e-38
0.099475309 0.10696399 0.88425004 1.6772032e-38
0.099475309 0.109464 0.88175005 1.6955697e-38
0.099475309 0.109464 0.88425004 1.6311771e-38
0.10197531 0.10696399 0.88175005 1.5941913e-38
0.10197531 0.109464 0.88175005 1.5941913e-38
0.10197531 0.109464 0.88425004 1.6308525e-38
0.099475309 0.10696399 0.88675004 1.6589084e-38
0.099475309 0.109464 0.88675004 1.704609e-38
0.099475309 0.11196399 0.88425004 1.6770597e-38
0.10197531 0.11196399 0.88175005 1.5942622e-38
0.10197531 0.11196399 0.88425004 1.5756802e-38
0.10197531 0.11446399 0.88425004 1.5203281e-38
0.099475309 0.11196399 0.88675004 1.6585114e-38
0.099475309 0.11196399 0.88925004 1.6401076e-38
0.099475309 0.11446399 0.88675004 1.5481268e-38
0.099475309 0.11446399 0.88925004 1.4464264e-38
0.10197531 0.11196399 0.88675004 1.5663511e-38
0.10197531 0.11446399 0.88675004 1.4003286e-38
0.096975312 0.109464 0.89675003 1.4928139e-38
0.096975312 0.11446399 0.89175004 1.9353526e-38
0.096975312 0.11446399 0.89425004 1.9995687e-38
0.096975312 0.11196399 0.89675003 1.8618475e-38
0.096975312 0.11446399 0.89675003 1.7690641e-38
0.099475309 0.109464 0.89175004 1.7140498e-38
0.099475309 0.109464 0.89425004 1.7234484e-38
0.099475309 0.109464 0.89675003 1.7510683e-38
0.099475309 0.11196399 0.89175004 1.8247182e-38
0.099475309 0.11196399 0.89425004 1.8062788e-38
0.099475309 0.11446399 0.89175004 1.8520917e-38
0.099475309 0.11196399 0.89675003 1.8708157e-38
0.10447531 0.084463991 0.87925005 8.7596736e-39
0.10697531 0.084463991 0.87925005 1.4383967e-38
0.10947531 0.084463991 0.87925005 1.4192366e-38
0.10447531 0.086963996 0.87675005 4.5247703e-39
0.10447531 0.086963996 0.87925005 9.2220685e-39
0.10447531 0.089463994 0.87675005 1.6222095e-38
0.10697531 0.086963996 0.87675005 1.4569799e-38
0.10697531 0.086963996 0.87925005 1.3652138e-38
0.10697531 0.089463994 0.87675005 1.6775269e-38
0.10447531 0.091963992 0.87425005 1.5389095e-38
0.10447531 0.094463997 0.87425005 1.548129e-38
0.10697531 0.091963992 0.87425005 1.5204701e-38
0.10697531 0.094463997 0.87425005 1.5664959e-38
0.10947531 0.086963996 0.87925005 1.4654806e-38
0.10947531 0.089463994 0.87675005 1.6501942e-38
0.10947531 0.089463994 0.87925005 1.7237339e-38
0.11197531 0.089463994 0.87925005 1.8435529e-38
0.10947531 0.091963992 0.87425005 1.5389092e-38
0.10947531 0.094463997 0.87425005 1.6033382e-38
0.10947531 0.091963992 0.87675005 1.4838792e-38
0.10947531 0.094463997 0.87675005 1.5849354e-38
0.11197531 0.091963992 0.87675005 1.3636299e-38
0.11197531 0.091963992 0.87925005 1.5297618e-38
0.11197531 0.094463997 0.87675005 1.3728497e-38
0.11447531 0.089463994 0.87925005 1.3456966e-38
0.11447531 0.091963992 0.87925005 1.3175681e-38
0.11447531 0.094463997 0.87925005 1.3083478e-38
0.10697531 0.084463991 0.88675004 1.4107005e-38
0.10697531 0.084463991 0.88925004 8.8497043e-39
0.10947531 0.084463991 0.88925004 1.5299455e-38
0.11197531 0.084463991 0.88925004 1.5944825e-38
0.10447531 0.076963991 0.89675003 1.5294688e-38
0.10447531 0.079463996 0.89675003 9.7622298e-39
0.10697531 0.076963991 0.89675003 1.6765606e-38
0.10697531 0.079463996 0.89675003 1.557065e-38
0.10447531 0.081963994 0.89425004 6.7209301e-39
0.10447531 0.084463991 0.89175004 9.0387997e-39
0.10447531 0.084463991 0.89425004 1.2631918e-38
0.10697531 0.081963994 0.89175004 1.0594569e-38
0.10697531 0.081963994 0.89425004 6.1699213e-39
0.10697531 0.084463991 0.89175004 9.2170449e-39
0.10697531 0.084463991 0.89425004 9.2206798e-39
0.10447531 0.081963994 0.89675003 5.5256239e-39
0.10447531 0.084463991 0.89675003 8.941963e-39
0.10697531 0.081963994 0.89675003 6.6319715e-39
0.10697531 0.084463991 0.89675003 5.4381703e-39
0.10947531 0.076963991 0.89175004 2.0917958e-38
0.10947531 0.076963991 0.89425004 2.1376063e-38
0.11197531 0.076963991 0.89175004 2.0917958e-38
0.11197531 0.076963991 0.89425004 1.5200029e-38
0.11197531 0.079463996 0.89425004 6.8166766e-39
0.10947531 0.076963991 0.89675003 1.5567064e-38
0.10947531 0.079463996 0.89675003 1.1421846e-38
0.11197531 0.076963991 0.89675003 1.4923801e-38
0.11197531 0.079463996 0.89675003 6.4478955e-39
0.10947531 0.081963994 0.89175004 1.1793112e-38
0.10947531 0.081963994 0.89425004 8.6638459e-39
0.10947531 0.084463991 0.89175004 1.5393428e-38
0.10947531 0.084463991 0.89425004 1.5575323e-38
0.11197531 0.081963994 0.89425004 5.4369988e-39
0.11197531 0.084463991 0.89175004 1.5762209e-38
0.11197531 0.084463991 0.89425004 1.5945175e-38
0.10947531 0.081963994 0.89675003 1.0870805e-38
0.11197531 0.081963994 0.89675003 1.2889255e-39
0.10447531 0.086963996 0.88175005 7.47476e-39
0.10447531 0.086963996 0.88425004 7.6573394e-39
0.10697531 0.086963996 0.88175005 1.4567263e-38
0.10697531 0.086963996 0.88425004 1.4294273e-38
0.10447531 0.086963996 0.88675004 8.0243199e-39
0.10447531 0.086963996 0.88925004 8.3002075e-39
0.10947531 0.086963996 0.88175005 1.3641366e-38
0.10947531 0.086963996 0.88425004 1.5392727e-38
0.11197531 0.086963996 0.88175005 1.4559724e-38
0.11197531 0.086963996 0.88425004 1.391758e-38
0.11197531 0.089463994 0.88175005 1.7605383e-38
0.10947531 0.086963996 0.88675004 1.5301231e-38
0.11197531 0.086963996 0.88675004 1.4376034e-38
0.11197531 0.086963996 0.88925004 1.4653344e-38
0.10447531 0.086963996 0.89175004 7.7481029e-39
0.10447531 0.086963996 0.89425004 9.4090718e-39
0.10697531 0.086963996 0.89425004 7.1963781e-39
0.11447531 0.084463991 0.88925004 1.6499774e-38
0.11697531 0.084463991 0.88925004 1.5759688e-38
0.11947531 0.084463991 0.88925004 1.6582953e-38
0.11447531 0.076963991 0.89175004 1.37285e-38
0.11447531 0.076963991 0.89425004 1.3636649e-38
0.11447531 0.079463996 0.89425004 8.1034862e-39
0.11697531 0.076963991 0.89425004 1.3084549e-38
0.11447531 0.076963991 0.89675003 1.3728848e-38
0.11447531 0.079463996 0.89675003 8.1953189e-39
0.11697531 0.076963991 0.89675003 1.3270043e-38
0.11697531 0.079463996 0.89675003 7.7354282e-39
0.11447531 0.081963994 0.89175004 4.5157866e-39
0.11447531 0.081963994 0.89425004 4.0551602e-39
0.11447531 0.084463991 0.89175004 1.6591969e-38
0.11447531 0.084463991 0.89425004 1.5391628e-38
0.11697531 0.081963994 0.89175004 2.4820891e-39
0.11697531 0.081963994 0.89425004 4.1430398e-39
0.11697531 0.084463991 0.89175004 1.3546606e-38
0.11447531 0.081963994 0.89675003 2.3020139e-39
0.11947531 0.076963991 0.89675003 1.3637763e-38
0.11947531 0.079463996 0.89675003 1.1699119e-38
0.12197531 0.076963991 0.89675003 1.3822177e-38
0.12197531 0.079463996 0.89675003 1.0316184e-38
0.11947531 0.081963994 0.89425004 4.5139299e-39
0.11947531 0.084463991 0.89175004 1.4649726e-38
0.11947531 0.084463991 0.89425004 1.4557179e-38
0.12197531 0.084463991 0.89175004 1.6400354e-38
0.12197531 0.084463991 0.89425004 1.5113614e-38
0.11947531 0.081963994 0.89675003 4.8813139e-39
0.12197531 0.081963994 0.89675003 1.2166146e-38
0.11447531 0.086963996 0.88175005 1.3268985e-38
0.11447531 0.086963996 0.88425004 1.3081327e-38
0.11447531 0.089463994 0.88175005 1.2807617e-38
0.11447531 0.089463994 0.88425004 1.2991298e-38
0.11697531 0.086963996 0.88425004 1.1055171e-38
0.11697531 0.089463994 0.88425004 1.151508e-38
0.11447531 0.086963996 0.88675004 1.3269687e-38
0.11447531 0.086963996 0.88925004 1.327041e-38
0.11697531 0.086963996 0.88675004 1.1422165e-38
0.11697531 0.086963996 0.88925004 1.2067898e-38
0.11697531 0.089463994 0.88675004 1.1424332e-38
0.11447531 0.091963992 0.88175005 1.3544807e-38
0.11447531 0.091963992 0.88425004 1.3174972e-38
0.11447531 0.094463997 0.88175005 1.3450823e-38
0.11447531 0.094463997 0.88425004 1.2900886e-38
0.11697531 0.091963992 0.88175005 1.1700894e-38
0.11697531 0.091963992 0.88425004 1.1515799e-38
0.11697531 0.094463997 0.88175005 1.0778587e-38
0.11697531 0.094463997 0.88425004 1.0594553e-38
0.11697531 0.091963992 0.88675004 1.1975689e-38
0.11697531 0.094463997 0.88675004 1.1055177e-38
0.11947531 0.086963996 0.88425004 7.000719e-39
0.11947531 0.089463994 0.88425004 7.9237627e-39
0.12197531 0.086963996 0.88425004 1.0133142e-38
0.12197531 0.089463994 0.88175005 1.1798479e-38
0.12197531 0.089463994 0.88425004 8.1074547e-39
0.11947531 0.086963996 0.88675004 6.5415289e-39
0.11947531 0.086963996 0.88925004 1.1512181e-38
0.11947531 0.089463994 0.88675004 9.3988942e-39
0.12197531 0.086963996 0.88675004 1.0040942e-38
0.12197531 0.086963996 0.88925004 1.105408e-38
0.12197531 0.089463994 0.88675004 7.3727595e-39
0.11947531 0.091963992 0.88425004 8.013429e-39
0.11947531 0.094463997 0.88425004 7.5531823e-39
0.12197531 0.091963992 0.88175005 1.2808706e-38
0.12197531 0.091963992 0.88425004 7.1897976e-39
0.12197531 0.094463997 0.88175005 1.3728497e-38
0.12197531 0.094463997 0.88425004 7.741549e-39
0.11947531 0.091963992 0.88675004 1.0410158e-38
0.11947531 0.094463997 0.88675004 9.1208681e-39
0.12197531 0.091963992 0.88675004 7.0964977e-39
0.12197531 0.094463997 0.88675004 8.5687818e-39
0.10447531 0.096963994 0.87425005 1.5756802e-38
0.10447531 0.099463992 0.87425005 1.603196e-38
0.10697531 0.096963994 0.87425005 1.5756802e-38
0.10697531 0.099463992 0.87425005 1.5939764e-38
0.10447531 0.096963994 0.87675005 1.6125584e-38
0.10447531 0.099463992 0.87675005 1.6033029e-38
0.10697531 0.096963994 0.87675005 1.5848998e-38
0.10697531 0.099463992 0.87675005 1.5848998e-38
0.10447531 0.101964 0.87675005 1.6308177e-38
0.10447531 0.10446399 0.87675005 1.6034464e-38
0.10447531 0.10446399 0.87925005 1.6217429e-38
0.10697531 0.101964 0.87675005 1.6031592e-38
0.10697531 0.10446399 0.87675005 1.5942269e-38
0.10697531 0.10446399 0.87925005 1.640037e-38
0.10947531 0.096963994 0.87425005 1.6124862e-38
0.10947531 0.099463992 0.87425005 1.6676236e-38
0.10947531 0.096963994 0.87675005 1.6124859e-38
0.10947531 0.099463992 0.87675005 1.6584038e-38
0.11197531 0.096963994 0.87675005 1.5571691e-38
0.11197531 0.096963994 0.87925005 1.5755719e-38
0.11197531 0.099463992 0.87675005 1.5571691e-38
0.11197531 0.099463992 0.87925005 1.6030511e-38
0.10947531 0.101964 0.87675005 1.6124862e-38
0.10947531 0.10446399 0.87675005 1.6033029e-38
0.10947531 0.10446399 0.87925005 1.6583322e-38
0.11197531 0.101964 0.87675005 1.5664603e-38
0.11197531 0.101964 0.87925005 1.5572407e-38
0.11197531 0.10446399 0.87675005 1.5480211e-38
0.11197531 0.10446399 0.87925005 1.5204701e-38
0.10447531 0.10696399 0.87925005 1.6034464e-38
0.10447531 0.109464 0.87925005 1.5850073e-38
0.10697531 0.10696399 0.87925005 1.6034464e-38
0.10697531 0.109464 0.87925005 1.6034464e-38
0.10947531 0.10696399 0.87925005 1.6034461e-38
0.10947531 0.109464 0.87925005 1.5941913e-38
0.11197531 0.10696399 0.87925005 1.5203979e-38
0.11447531 0.096963994 0.87925005 1.280797e-38
0.11447531 0.099463992 0.87925005 1.3819614e-38
0.11447531 0.101964 0.87925005 1.2162613e-38
0.11447531 0.10446399 0.87925005 1.3637374e-38
0.10447531 0.109464 0.88175005 1.6495086e-38
0.10697531 0.109464 0.88175005 1.6034464e-38
0.10447531 0.11196399 0.88175005 1.6678399e-38
0.10447531 0.11196399 0.88425004 1.6403591e-38
0.10447531 0.11446399 0.88425004 1.677095e-38
0.10697531 0.11196399 0.88175005 1.6311048e-38
0.10697531 0.11196399 0.88425004 1.6678755e-38
0.10697531 0.11446399 0.88425004 1.6861345e-38
0.10447531 0.11446399 0.88675004 1.5481991e-38
0.10947531 0.10696399 0.88175005 1.5849354e-38
0.10947531 0.109464 0.88175005 1.5664603e-38
0.11197531 0.10696399 0.88175005 1.5479511e-38
0.11197531 0.109464 0.88175005 1.5388369e-38
0.11197531 0.109464 0.88425004 1.4926687e-38
0.10947531 0.11196399 0.88175005 1.6953544e-38
0.10947531 0.11196399 0.88425004 1.6403244e-38
0.10947531 0.11446399 0.88425004 1.713794e-38
0.11197531 0.11196399 0.88425004 1.640037e-38
0.11197531 0.11446399 0.88425004 1.6308525e-38
0.11197531 0.11196399 0.88675004 1.5019589e-38
0.11197531 0.11196399 0.88925004 1.547949e-38
0.11197531 0.11446399 0.88675004 1.5019233e-38
0.11197531 0.11446399 0.88925004 1.5019233e-38
0.11447531 0.096963994 0.88175005 1.3267871e-38
0.11447531 0.099463992 0.88175005 1.2532119e-38
0.11697531 0.096963994 0.88175005 1.0502721e-38
0.11697531 0.096963994 0.88425004 1.0594198e-38
0.11697531 0.099463992 0.88425004 9.7662502e-39
0.11697531 0.099463992 0.88675004 9.7658816e-39
0.11447531 0.101964 0.88175005 1.2347728e-38
0.11447531 0.101964 0.88425004 1.2623945e-38
0.11447531 0.10446399 0.88175005 1.2623939e-38
0.11447531 0.10446399 0.88425004 1.2532828e-38
0.11697531 0.101964 0.88425004 9.6740545e-39
0.11697531 0.101964 0.88675004 9.9502715e-39
0.11697531 0.101964 0.88925004 9.7658816e-39
0.11697531 0.10446399 0.88675004 9.3974508e-39
0.11697531 0.10446399 0.88925004 9.5811372e-39
0.11947531 0.096963994 0.88425004 7.3709462e-39
0.11947531 0.099463992 0.88425004 7.0014603e-39
0.12197531 0.096963994 0.88175005 1.4653698e-38
0.12197531 0.096963994 0.88425004 8.9357706e-39
0.12197531 0.099463992 0.88425004 8.8453701e-39
0.11947531 0.096963994 0.88675004 7.462046e-39
0.11947531 0.099463992 0.88675004 7.277687e-39
0.11947531 0.099463992 0.88925004 8.2918207e-39
0.12197531 0.096963994 0.88675004 8.8432177e-39
0.12197531 0.099463992 0.88675004 9.7651585e-39
0.12197531 0.099463992 0.88925004 7.7386469e-39
0.11947531 0.101964 0.88925004 8.2000034e-39
0.12197531 0.101964 0.88675004 9.9491841e-39
0.12197531 0.101964 0.88925004 9.9491841e-39
0.12197531 0.10446399 0.88925004 1.0132512e-38
0.11697531 0.10446399 0.89175004 9.2134323e-39
0.11947531 0.101964 0.89175004 7.6493478e-39
0.11947531 0.101964 0.89425004 8.7510248e-39
0.11947531 0.10446399 0.89175004 7.2808932e-39
0.11947531 0.10446399 0.89425004 7.3734475e-39
0.12197531 0.101964 0.89175004 6.727037e-39
0.12197531 0.10446399 0.89175004 1.0962976e-38
0.12197531 0.10446399 0.89425004 6.820271e-39
0.11447531 0.10696399 0.88175005 1.3636652e-38
0.11447531 0.10696399 0.88425004 1.3819991e-38
0.11447531 0.10696399 0.88675004 1.3728497e-38
0.11447531 0.109464 0.88675004 1.3544456e-38
0.11447531 0.109464 0.88925004 1.3819611e-38
0.11697531 0.10696399 0.88675004 1.2255517e-38
0.11697531 0.10696399 0.88925004 9.0293886e-39
0.11697531 0.109464 0.88925004 1.2438462e-38
0.11447531 0.11196399 0.88675004 1.3451542e-38
0.11447531 0.11196399 0.88925004 1.3636655e-38
0.11447531 0.11446399 0.88925004 1.3818895e-38
0.11697531 0.10696399 0.89175004 8.9357706e-39
0.11697531 0.109464 0.89175004 9.0279691e-39
0.11447531 0.11196399 0.89175004 1.3819611e-38
0.11447531 0.11446399 0.89175004 1.3451908e-38
0.11447531 0.11446399 0.89425004 1.3635936e-38
0.11697531 0.11196399 0.89175004 1.2162954e-38
0.11697531 0.11196399 0.89425004 1.2346279e-38
0.11697531 0.11446399 0.89175004 1.1795611e-38
0.11697531 0.11446399 0.89425004 1.197857e-38
0.11697531 0.11446399 0.89675003 1.1977851e-38
0.11947531 0.10696399 0.89425004 7.7400567e-39
0.11947531 0.109464 0.89425004 8.8424736e-39
0.12197531 0.10696399 0.89175004 1.1607273e-38
0.12197531 0.10696399 0.89425004 1.1423601e-38
0.12197531 0.109464 0.89175004 1.0777165e-38
0.12197531 0.109464 0.89425004 1.0961556e-38
0.11947531 0.10696399 0.89675003 7.9230004e-39
0.11947531 0.109464 0.89675003 7.2809142e-39
0.12197531 0.10696399 0.89675003 9.0304227e-39
0.12197531 0.109464 0.89675003 9.7658606e-39
0.11947531 0.11196399 0.89425004 8.4747686e-39
0.11947531 0.11446399 0.89425004 8.2907487e-39
0.12197531 0.11196399 0.89175004 1.1238869e-38
0.12197531 0.11196399 0.89425004 1.1054838e-38
0.12197531 0.11446399 0.89425004 1.1054838e-38
0.11947531 0.11196399 0.89675003 7.8311957e-39
0.11947531 0.11446399 0.89675003 7.8311957e-39
0.12197531 0.11196399 0.89675003 1.0320481e-38
0.12197531 0.11446399 0.89675003 1.0320478e-38
0.091975309 0.086963996 0.90175009 1.8336834e-38
0.091975309 0.089463994 0.90175009 1.8336481e-38
0.091975309 0.091963992 0.90175009 1.8243929e-38
0.091975309 0.094463997 0.90175009 1.8428664e-38
0.091975309 0.091963992 0.90675008 1.7508518e-38
0.091975309 0.094463997 0.90675008 1.7875503e-38
0.091975309 0.089463994 0.91175008 1.9994204e-38
0.091975309 0.091963992 0.91175008 1.9902012e-38
0.091975309 0.094463997 0.91175008 1.9073324e-38
0.094475307 0.086963996 0.90175009 1.2349876e-38
0.094475307 0.089463994 0.90175009 1.1707378e-38
0.096975312 0.089463994 0.90175009 8.2039439e-39
0.094475307 0.086963996 0.90675008 1.5938671e-38
0.094475307 0.089463994 0.90675008 1.5202551e-38
0.094475307 0.091963992 0.90175009 1.1516152e-38
0.094475307 0.094463997 0.90175009 1.4740128e-38
0.096975312 0.091963992 0.90175009 8.1096225e-39
0.096975312 0.094463997 0.90175009 1.1242084e-38
0.094475307 0.091963992 0.90675008 1.4558259e-38
0.094475307 0.094463997 0.90675008 1.4557535e-38
0.096975312 0.091963992 0.90675008 8.9375461e-39
0.096975312 0.094463997 0.90675008 8.7531744e-39
0.096975312 0.094463997 0.90925008 9.2141512e-39
0.099475309 0.091963992 0.90175009 1.4095855e-38
0.099475309 0.091963992 0.90675008 1.4279164e-38
0.094475307 0.089463994 0.91175008 1.842903e-38
0.094475307 0.091963992 0.91175008 1.8336834e-38
0.094475307 0.094463997 0.91175008 1.815209e-38
0.091975309 0.096963994 0.90675008 1.7506717e-38
0.091975309 0.096963994 0.90925008 1.824321e-38
0.091975309 0.099463992 0.90675008 1.7230136e-38
0.091975309 0.099463992 0.90925008 1.8336481e-38
0.089475311 0.101964 0.90675008 2.0457336e-38
0.089475311 0.101964 0.90925008 2.0181117e-38
0.089475311 0.10446399 0.90675008 2.0365138e-38
0.089475311 0.10446399 0.90925008 2.0365138e-38
0.091975309 0.101964 0.90675008 1.6217058e-38
0.091975309 0.101964 0.90925008 1.8336478e-38
0.091975309 0.10446399 0.90675008 1.5941562e-38
0.091975309 0.10446399 0.90925008 1.8058818e-38
0.091975309 0.099463992 0.91425008 1.8427604e-38
0.089475311 0.101964 0.91175008 2.0365138e-38
0.089475311 0.10446399 0.91175008 2.0181117e-38
0.089475311 0.10446399 0.91425008 2.0087472e-38
0.091975309 0.101964 0.91175008 1.833828e-38
0.091975309 0.101964 0.91425008 1.8243216e-38
0.091975309 0.10446399 0.91175008 1.8151734e-38
0.091975309 0.10446399 0.91425008 1.8151364e-38
0.091975309 0.10446399 0.91675007 1.8151015e-38
0.089475311 0.10696399 0.90675008 2.0365504e-38
0.089475311 0.10696399 0.90925008 2.0272939e-38
0.089475311 0.109464 0.90675008 1.9996722e-38
0.089475311 0.109464 0.90925008 2.0181826e-38
0.091975309 0.10696399 0.90675008 1.5849354e-38
0.091975309 0.10696399 0.90925008 1.7230856e-38
0.091975309 0.109464 0.90675008 1.5205422e-38
0.091975309 0.109464 0.90925008 1.7138657e-38
0.089475311 0.11196399 0.90675008 1.990488e-38
0.089475311 0.11196399 0.90925008 1.990416e-38
0.089475311 0.11446399 0.90675008 1.9259513e-38
0.089475311 0.11446399 0.90925008 1.9443907e-38
0.091975309 0.11196399 0.90675008 1.5754282e-38
0.091975309 0.11196399 0.90925008 1.6585837e-38
0.091975309 0.11446399 0.90675008 1.5019233e-38
0.091975309 0.11446399 0.90925008 1.6216332e-38
0.089475311 0.10696399 0.91175008 1.9903807e-38
0.089475311 0.10696399 0.91425008 1.990488e-38
0.089475311 0.109464 0.91175008 1.9720131e-38
0.091975309 0.10696399 0.91175008 1.7691111e-38
0.091975309 0.10696399 0.91425008 1.7876575e-38
0.091975309 0.109464 0.91175008 1.6862427e-38
0.091975309 0.10696399 0.91675007 2.0364069e-38
0.091975309 0.109464 0.91675007 2.0364063e-38
0.089475311 0.11196399 0.91175008 2.0089277e-38
0.089475311 0.11446399 0.91175008 1.9811964e-38
0.091975309 0.11196399 0.91175008 1.7322683e-38
0.094475307 0.096963994 0.90175009 1.4280223e-38
0.096975312 0.096963994 0.90175009 1.1609447e-38
0.094475307 0.096963994 0.90675008 1.3634501e-38
0.094475307 0.096963994 0.90925008 1.4188751e-38
0.094475307 0.099463992 0.90675008 1.3265724e-38
0.094475307 0.099463992 0.90925008 1.3634504e-38
0.096975312 0.096963994 0.90675008 1.179204e-38
0.096975312 0.096963994 0.90925008 1.1146671e-38
0.096975312 0.099463992 0.90675008 1.142503e-38
0.096975312 0.099463992 0.90925008 1.1977854e-38
0.094475307 0.101964 0.90675008 1.2898015e-38
0.094475307 0.101964 0.90925008 1.2529605e-38
0.094475307 0.10446399 0.90675008 1.1792759e-38
0.094475307 0.10446399 0.90925008 1.2252658e-38
0.096975312 0.101964 0.90675008 1.2534235e-38
0.096975312 0.101964 0.90925008 1.2623205e-38
0.096975312 0.10446399 0.90675008 1.2901955e-38
0.096975312 0.10446399 0.90925008 1.2994857e-38
0.099475309 0.10446399 0.90675008 1.409802e-38
0.099475309 0.10446399 0.90925008 1.3912555e-38
0.10197531 0.10446399 0.90675008 1.7600375e-38
0.094475307 0.099463992 0.91425008 1.3634854e-38
0.096975312 0.099463992 0.91675007 1.1147373e-38
0.094475307 0.101964 0.91175008 1.2438479e-38
0.094475307 0.101964 0.91425008 1.2438112e-38
0.094475307 0.10446399 0.91175008 1.2069346e-38
0.094475307 0.10446399 0.91425008 1.2621071e-38
0.096975312 0.101964 0.91175008 1.1885655e-38
0.096975312 0.101964 0.91425008 1.16105e-38
0.096975312 0.10446399 0.91175008 1.216402e-38
0.096975312 0.10446399 0.91425008 1.2441333e-38
0.096975312 0.101964 0.91675007 1.1702696e-38
0.099475309 0.101964 0.91175008 1.1885655e-38
0.099475309 0.10446399 0.91175008 1.2257665e-38
0.099475309 0.10446399 0.91425008 1.2441333e-38
0.096975312 0.109464 0.90175009 1.400723e-38
0.094475307 0.10696399 0.90675008 1.1884942e-38
0.094475307 0.10696399 0.90925008 1.5572407e-38
0.094475307 0.109464 0.90675008 1.2898731e-38
0.094475307 0.109464 0.90925008 1.5847915e-38
0.096975312 0.10696399 0.90675008 1.3731353e-38
0.096975312 0.10696399 0.90925008 1.1242026e-38
0.096975312 0.109464 0.90675008 1.3824283e-38
0.096975312 0.109464 0.90925008 1.4468118e-38
0.094475307 0.11196399 0.90175009 8.2910878e-39
0.094475307 0.11446399 0.90175009 8.6558542e-39
0.096975312 0.11196399 0.90175009 1.5942969e-38
0.096975312 0.11446399 0.90175009 1.7232189e-38
0.094475307 0.11196399 0.90675008 1.3357194e-38
0.094475307 0.11196399 0.90925008 1.5664959e-38
0.094475307 0.11446399 0.90675008 1.1607995e-38
0.096975312 0.11196399 0.90675008 9.0303709e-39
0.096975312 0.11446399 0.90675008 9.1168254e-39
0.099475309 0.10696399 0.90175009 1.7510686e-38
0.099475309 0.109464 0.90175009 1.6774919e-38
0.10197531 0.109464 0.90175009 1.7415613e-38
0.099475309 0.10696399 0.90675008 1.3177505e-38
0.099475309 0.10696399 0.90925008 1.4097299e-38
0.099475309 0.109464 0.90675008 1.4560429e-38
0.10197531 0.10696399 0.90675008 1.7692923e-38
0.10197531 0.109464 0.90675008 1.7049711e-38
0.099475309 0.11196399 0.90175009 1.7694376e-38
0.094475307 0.10696399 0.91175008 1.5757521e-38
0.12197531 0.076963991 0.90175009 9.1201773e-39
0.12197531 0.079463996 0.90175009 1.0316909e-38
0.096975312 0.119464 0.88925004 1.889362e-38
0.094475307 0.12196399 0.88925004 1.0133563e-38
0.094475307 0.124464 0.88925004 1.0409083e-38
0.096975312 0.12196399 0.88925004 1.511035e-38
0.096975312 0.124464 0.88925004 1.5663899e-38
0.099475309 0.116964 0.88675004 1.446677e-38
0.099475309 0.116964 0.88925004 1.6034812e-38
0.099475309 0.119464 0.88675004 1.7414155e-38
0.099475309 0.119464 0.88925004 1.6403241e-38
0.10197531 0.116964 0.88675004 1.6311397e-38
0.10197531 0.116964 0.88925004 1.6861345e-38
0.10197531 0.119464 0.88675004 1.5112139e-38
0.10197531 0.119464 0.88925004 1.649437e-38
0.099475309 0.12196399 0.88925004 1.5387297e-38
0.099475309 0.124464 0.88925004 1.6125578e-38
0.10197531 0.12196399 0.88925004 1.511035e-38
0.10197531 0.124464 0.88925004 1.5849351e-38
0.094475307 0.119464 0.89175004 9.6714761e-39
0.096975312 0.116964 0.89175004 1.9077658e-38
0.096975312 0.116964 0.89425004 1.8428915e-38
0.096975312 0.119464 0.89175004 1.8524842e-38
0.096975312 0.119464 0.89425004 1.7876925e-38
0.096975312 0.116964 0.89675003 1.8244889e-38
0.096975312 0.119464 0.89675003 1.769361e-38
0.094475307 0.12196399 0.89175004 9.2137952e-39
0.096975312 0.12196399 0.89175004 1.7322657e-38
0.096975312 0.12196399 0.89675003 1.5019603e-38
0.099475309 0.119464 0.89675003 1.8523759e-38
0.096975312 0.12696399 0.88925004 1.6677317e-38
0.099475309 0.12696399 0.88925004 1.6400004e-38
0.10197531 0.12696399 0.88925004 1.6122697e-38
0.094475307 0.12696399 0.89175004 1.0502356e-38
0.096975312 0.12696399 0.89175004 1.6217776e-38
0.096975312 0.129464 0.89175004 1.6494017e-38
0.096975312 0.129464 0.89425004 1.6217076e-38
0.096975312 0.129464 0.89675003 1.6306752e-38
0.096975312 0.131964 0.89675003 1.6494017e-38
0.096975312 0.134464 0.89675003 1.5666054e-38
0.099475309 0.12696399 0.89175004 1.6125581e-38
0.099475309 0.129464 0.89175004 1.7139387e-38
0.099475309 0.129464 0.89425004 1.6217076e-38
0.10197531 0.12696399 0.89175004 1.621489e-38
0.10197531 0.129464 0.89175004 1.7599263e-38
0.10197531 0.129464 0.89425004 1.6584035e-38
0.099475309 0.129464 0.89675003 1.5848295e-38
0.099475309 0.131964 0.89425004 1.7875856e-38
0.099475309 0.134464 0.89425004 1.7692207e-38
0.10197531 0.131964 0.89425004 1.7599266e-38
0.10197531 0.134464 0.89425004 1.750635e-38
0.099475309 0.131964 0.89675003 1.7415619e-38
0.099475309 0.134464 0.89675003 1.7323421e-38
0.10197531 0.131964 0.89675003 1.8335385e-38
0.10197531 0.134464 0.89675003 1.7506715e-38
0.099475309 0.13696399 0.89675003 1.7508868e-38
0.099475309 0.13946399 0.89675003 1.7508512e-38
0.10197531 0.13696399 0.89675003 1.769039e-38
0.10197531 0.13946399 0.89675003 1.7783304e-38
0.099475309 0.14196399 0.89675003 1.7325206e-38
0.099475309 0.144464 0.89675003 1.8428679e-38
0.10197531 0.14196399 0.89675003 1.778366e-38
0.10197531 0.144464 0.89675003 1.7968758e-38
0.10197531 0.146964 0.89675003 1.8428308e-38
0.10447531 0.116964 0.88425004 1.704789e-38
0.10697531 0.116964 0.88425004 1.6861348e-38
0.10447531 0.116964 0.88675004 1.6679108e-38
0.10447531 0.119464 0.88675004 1.6772382e-38
0.10697531 0.116964 0.88675004 1.7599269e-38
0.10697531 0.119464 0.88675004 1.7507071e-38
0.10447531 0.12196399 0.88925004 1.7048257e-38
0.10447531 0.124464 0.88925004 1.7966975e-38
0.10697531 0.12196399 0.88925004 1.7230484e-38
0.10697531 0.124464 0.88925004 1.778186e-38
0.10947531 0.116964 0.88675004 1.7045392e-38
0.10947531 0.119464 0.88675004 1.7045392e-38
0.11197531 0.116964 0.88675004 1.6307827e-38
0.11197531 0.116964 0.88925004 1.4927388e-38
0.11197531 0.119464 0.88675004 1.6309625e-38
0.11197531 0.119464 0.88925004 1.5019586e-38
0.10947531 0.12196399 0.88925004 1.7507443e-38
0.10947531 0.124464 0.88925004 1.7507799e-38
0.11197531 0.12196399 0.88925004 1.4834829e-38
0.10947531 0.124464 0.89175004 1.7506717e-38
0.11197531 0.12196399 0.89175004 1.5847921e-38
0.11197531 0.124464 0.89175004 1.5847918e-38
0.11197531 0.124464 0.89425004 1.6031592e-38
0.10447531 0.12696399 0.88925004 1.7690405e-38
0.10447531 0.129464 0.88925004 1.769074e-38
0.10697531 0.12696399 0.88925004 1.7599614e-38
0.10697531 0.129464 0.88925004 1.7508503e-38
0.10447531 0.12696399 0.89175004 1.8059171e-38
0.10447531 0.129464 0.89175004 1.7782591e-38
0.10697531 0.12696399 0.89175004 1.7598898e-38
0.10697531 0.129464 0.89175004 1.7414155e-38
0.10447531 0.131964 0.89175004 1.7691465e-38
0.10447531 0.131964 0.89425004 1.7598916e-38
0.10447531 0.134464 0.89425004 1.7598913e-38
0.10697531 0.131964 0.89175004 1.7599266e-38
0.10697531 0.131964 0.89425004 1.7598544e-38
0.10697531 0.134464 0.89425004 1.769074e-38
0.10447531 0.134464 0.89675003 1.7875856e-38
0.10697531 0.131964 0.89675003 1.7782939e-38
0.10697531 0.134464 0.89675003 1.796697e-38
0.10947531 0.12696399 0.89175004 1.7506715e-38
0.10947531 0.12696399 0.89425004 1.7599269e-38
0.10947531 0.129464 0.89175004 1.7690743e-38
0.10947531 0.129464 0.89425004 1.7414152e-38
0.11197531 0.12696399 0.89175004 1.5296899e-38
0.11197531 0.12696399 0.89425004 1.5755e-38
0.11197531 0.12696399 0.89675003 1.5570606e-38
0.11197531 0.129464 0.89675003 1.5478044e-38
0.10947531 0.131964 0.89425004 1.7967326e-38
0.10947531 0.134464 0.89425004 1.7875853e-38
0.10947531 0.131964 0.89675003 1.8059524e-38
0.10947531 0.134464 0.89675003 1.8059521e-38
0.11197531 0.131964 0.89675003 1.5386931e-38
0.11197531 0.134464 0.89675003 1.5663158e-38
0.11447531 0.116964 0.88925004 1.335899e-38
0.11447531 0.116964 0.89175004 1.2622857e-38
0.11447531 0.119464 0.89175004 1.2899087e-38
0.11447531 0.119464 0.89425004 1.3175675e-38
0.11697531 0.116964 0.89175004 1.1702346e-38
0.11697531 0.116964 0.89425004 1.1700897e-38
0.11697531 0.119464 0.89175004 1.1976052e-38
0.11697531 0.119464 0.89425004 1.1793092e-38
0.11447531 0.12196399 0.89175004 1.4650082e-38
0.11447531 0.12196399 0.89425004 1.2990561e-38
0.11447531 0.124464 0.89175004 1.4834476e-38
0.11447531 0.124464 0.89425004 1.4834473e-38
0.11697531 0.12196399 0.89425004 1.16105e-38
0.11447531 0.124464 0.89675003 1.2898365e-38
0.11697531 0.12196399 0.89675003 1.1610147e-38
0.11697531 0.124464 0.89675003 1.2068607e-38
0.11947531 0.116964 0.89425004 8.013073e-39
0.11947531 0.119464 0.89425004 7.9233941e-39
0.12197531 0.116964 0.89425004 1.2621801e-38
0.12197531 0.119464 0.89425004 1.4096202e-38
0.11947531 0.116964 0.89675003 7.553492e-39
0.11947531 0.119464 0.89675003 7.736793e-39
0.12197531 0.116964 0.89675003 1.0780339e-38
0.12197531 0.119464 0.89675003 1.1148033e-38
0.11947531 0.12196399 0.89425004 7.8304796e-39
0.11947531 0.12196399 0.89675003 7.2769331e-39
0.11947531 0.124464 0.89675003 6.9985105e-39
0.12197531 0.12196399 0.89675003 1.114915e-38
0.12197531 0.124464 0.89675003 1.1890693e-38
0.11447531 0.12696399 0.89175004 1.5295452e-38
0.11447531 0.12696399 0.89425004 1.5295452e-38
0.11447531 0.12696399 0.89675003 1.4835192e-38
0.11447531 0.129464 0.89675003 1.4834473e-38
0.11697531 0.12696399 0.89675003 1.1515434e-38
0.11697531 0.129464 0.89675003 1.05942e-38
0.11447531 0.131964 0.89675003 1.4742281e-38
0.11447531 0.134464 0.89675003 1.4742999e-38
0.12197531 0.12696399 0.89675003 1.2905178e-38
0.12197531 0.129464 0.89675003 1.5664619e-38
0.10447531 0.13696399 0.89675003 1.7782941e-38
0.10447531 0.13946399 0.89675003 1.778366e-38
0.10697531 0.13696399 0.89675003 1.7784011e-38
0.10697531 0.13946399 0.89675003 1.7968051e-38
0.10447531 0.14196399 0.89675003 1.778366e-38
0.10447531 0.144464 0.89675003 1.7968407e-38
0.10697531 0.14196399 0.89675003 1.8152087e-38
0.10697531 0.144464 0.89675003 1.8336834e-38
0.10947531 0.13696399 0.89675003 1.8152793e-38
0.10947531 0.13946399 0.89675003 1.778366e-38
0.11197531 0.13696399 0.89675003 1.5755354e-38
0.11197531 0.13946399 0.89675003 1.5480565e-38
0.10947531 0.14196399 0.89675003 1.7783304e-38
0.10947531 0.144464 0.89675003 1.8152084e-38
0.11197531 0.14196399 0.89675003 1.5570962e-38
0.11197531 0.144464 0.89675003 1.5570962e-38
0.10447531 0.146964 0.89675003 1.8428308e-38
0.10447531 0.149464 0.89675003 1.8704538e-38
0.10697531 0.146964 0.89675003 1.8428308e-38
0.10697531 0.149464 0.89675003 1.8889289e-38
0.11447531 0.13696399 0.89675003 1.4650435e-38
0.11447531 0.13946399 0.89675003 1.4650435e-38
0.089475311 0.116964 0.90675008 1.8983645e-38
0.089475311 0.116964 0.90925008 1.9443179e-38
0.089475311 0.119464 0.90675008 1.870814e-38
0.089475311 0.119464 0.90925008 1.9166948e-38
0.091975309 0.116964 0.90675008 1.4743375e-38
0.091975309 0.116964 0.90925008 1.5847549e-38
0.091975309 0.119464 0.90675008 1.4834126e-38
0.091975309 0.119464 0.90925008 1.5940101e-38
0.091975309 0.12196399 0.90675008 1.5203982e-38
0.091975309 0.12196399 0.90925008 1.5571341e-38
0.091975309 0.124464 0.90675008 1.4376738e-38
0.091975309 0.124464 0.90925008 1.5571341e-38
0.089475311 0.116964 0.91175008 1.9996362e-38
0.089475311 0.116964 0.91425008 1.9075848e-38
0.089475311 0.119464 0.91175008 1.9719415e-38
0.089475311 0.119464 0.91425008 1.9075848e-38
0.091975309 0.116964 0.91175008 1.5940468e-38
0.091975309 0.116964 0.91425008 1.5849354e-38
0.091975309 0.119464 0.91175008 1.5849001e-38
0.091975309 0.119464 0.91425008 1.57568e-38
0.089475311 0.119464 0.91675007 1.9719768e-38
0.089475311 0.12196399 0.91175008 1.8613069e-38
0.089475311 0.12196399 0.91425008 1.8613424e-38
0.089475311 0.124464 0.91175008 1.7968419e-38
0.089475311 0.124464 0.91425008 1.8428679e-38
0.091975309 0.12196399 0.91175008 1.5939394e-38
0.091975309 0.12196399 0.91425008 1.5939394e-38
0.091975309 0.124464 0.91175008 1.5755722e-38
0.091975309 0.124464 0.91425008 1.5755722e-38
0.089475311 0.12196399 0.91675007 1.9811964e-38
0.089475311 0.124464 0.91675007 1.9717615e-38
0.091975309 0.12196399 0.91675007 1.8336125e-38
0.091975309 0.124464 0.91675007 1.8060973e-38
0.086975306 0.131964 0.90675008 1.8058815e-38
0.086975306 0.134464 0.90675008 1.7597856e-38
0.089475311 0.131964 0.90675008 1.677095e-38
0.089475311 0.134464 0.90675008 1.6402187e-38
0.089475311 0.134464 0.90925008 1.6678051e-38
0.091975309 0.131964 0.90675008 1.5111086e-38
0.091975309 0.134464 0.90675008 1.5019954e-38
0.089475311 0.12696399 0.91425008 1.7786176e-38
0.089475311 0.129464 0.91425008 1.6495102e-38
0.091975309 0.12696399 0.91425008 1.5111433e-38
0.091975309 0.129464 0.91175008 1.5111446e-38
0.091975309 0.129464 0.91425008 1.5020332e-38
0.089475311 0.12696399 0.91675007 1.879674e-38
0.091975309 0.12696399 0.91675007 1.7692911e-38
0.091975309 0.129464 0.91675007 1.4835938e-38
0.089475311 0.131964 0.91425008 1.6586935e-38
0.089475311 0.134464 0.91175008 1.6311774e-38
0.089475311 0.134464 0.91425008 1.5759672e-38
0.091975309 0.131964 0.91175008 1.4928858e-38
0.091975309 0.131964 0.91425008 1.5111446e-38
0.091975309 0.134464 0.91175008 1.5019236e-38
0.091975309 0.134464 0.91425008 1.4836294e-38
0.089475311 0.134464 0.91675007 1.7415951e-38
0.091975309 0.131964 0.91675007 1.4652628e-38
0.091975309 0.134464 0.91675007 1.4558628e-38
0.094475307 0.116964 0.90175009 8.8409602e-39
0.094475307 0.119464 0.90175009 9.1194164e-39
0.096975312 0.116964 0.90175009 1.6680181e-38
0.096975312 0.119464 0.90175009 9.4878276e-39
0.094475307 0.116964 0.90675008 1.1239582e-38
0.094475307 0.116964 0.90925008 1.511108e-38
0.094475307 0.119464 0.90675008 9.6733357e-39
0.094475307 0.119464 0.90925008 1.4742669e-38
0.096975312 0.116964 0.90675008 9.6718419e-39
0.096975312 0.119464 0.90675008 1.0038852e-38
0.094475307 0.12196399 0.90175009 9.1198144e-39
0.096975312 0.12196399 0.90175009 1.4558996e-38
0.094475307 0.12196399 0.90675008 9.7644383e-39
0.094475307 0.12196399 0.90925008 9.7640823e-39
0.094475307 0.124464 0.90675008 8.7528059e-39
0.096975312 0.12196399 0.90675008 1.8702329e-38
0.096975312 0.12196399 0.90925008 1.0219963e-38
0.096975312 0.124464 0.90675008 1.4835543e-38
0.096975312 0.124464 0.90925008 9.1198088e-39
0.099475309 0.12196399 0.90675008 1.9168044e-38
0.099475309 0.12196399 0.90925008 1.889362e-38
0.094475307 0.119464 0.91175008 1.5294745e-38
0.094475307 0.12196399 0.91175008 9.6718867e-39
0.094475307 0.12196399 0.91425008 1.5296549e-38
0.094475307 0.124464 0.91175008 8.5691349e-39
0.094475307 0.124464 0.91425008 1.419307e-38
0.096975312 0.12196399 0.91175008 1.0404725e-38
0.096975312 0.12196399 0.91425008 1.0405076e-38
0.096975312 0.124464 0.91175008 9.1201647e-39
0.096975312 0.124464 0.91425008 9.3970949e-39
0.096975312 0.124464 0.91675007 9.3967474e-39
0.099475309 0.12196399 0.91425008 1.9073244e-38
0.099475309 0.124464 0.91175008 1.4559347e-38
0.099475309 0.124464 0.91425008 1.4836638e-38
0.094475307 0.129464 0.90925008 8.4798273e-39
0.094475307 0.131964 0.90925008 9.3063454e-39
0.099475309 0.131964 0.90175009 1.6495089e-38
0.099475309 0.134464 0.90175009 1.7692911e-38
0.099475309 0.134464 0.90675008 1.6402187e-38
0.094475307 0.12696399 0.91175008 7.7408176e-39
0.094475307 0.12696399 0.91425008 7.9252088e-39
0.094475307 0.129464 0.91175008 8.936837e-39
0.094475307 0.129464 0.91425008 8.7524584e-39
0.096975312 0.12696399 0.91175008 8.8475379e-39
0.096975312 0.12696399 0.91425008 8.8475379e-39
0.096975312 0.129464 0.91175008 1.0689283e-38
0.096975312 0.129464 0.91425008 1.0410158e-38
0.094475307 0.12696399 0.91675007 1.3733533e-38
0.094475307 0.129464 0.91675007 1.4008313e-38
0.094475307 0.129464 0.91925007 1.3733533e-38
0.096975312 0.12696399 0.91675007 9.2156099e-39
0.096975312 0.12696399 0.91925007 9.3963788e-39
0.096975312 0.129464 0.91675007 9.7658872e-39
0.096975312 0.129464 0.91925007 1.0685669e-38
0.094475307 0.131964 0.91175008 9.582212e-39
0.094475307 0.131964 0.91425008 9.581503e-39
0.094475307 0.134464 0.91425008 1.2440993e-38
0.096975312 0.131964 0.91175008 1.1608348e-38
0.096975312 0.131964 0.91425008 1.1055191e-38
0.096975312 0.134464 0.91425008 1.1241386e-38
0.094475307 0.131964 0.91675007 1.271974e-38
0.094475307 0.131964 0.91925007 1.3639173e-38
0.094475307 0.134464 0.91675007 1.2442782e-38
0.094475307 0.134464 0.91925007 1.3087068e-38
0.096975312 0.131964 0.91675007 1.077931e-38
0.096975312 0.131964 0.91925007 1.0871173e-38
0.096975312 0.134464 0.91675007 1.0871175e-38
0.096975312 0.134464 0.91925007 1.1055214e-38
0.099475309 0.12696399 0.91425008 1.5114316e-38
0.099475309 0.129464 0.91175008 1.539126e-38
0.099475309 0.129464 0.91425008 1.5848271e-38
0.099475309 0.12696399 0.91675007 1.4287439e-38
0.099475309 0.129464 0.91675007 1.5480918e-38
0.099475309 0.129464 0.91925007 1.5390161e-38
0.099475309 0.131964 0.91175008 1.6033738e-38
0.099475309 0.131964 0.91425008 1.6309975e-38
0.099475309 0.134464 0.91175008 1.5757171e-38
0.099475309 0.134464 0.91425008 1.6493664e-38
0.099475309 0.131964 0.91675007 1.585007e-38
0.099475309 0.131964 0.91925007 1.5388757e-38
0.099475309 0.134464 0.91675007 1.5480957e-38
0.10197531 0.131964 0.91675007 1.5941562e-38
0.10197531 0.131964 0.91925007 1.5571704e-38
0.10197531 0.134464 0.91675007 1.7323418e-38
0.089475311 0.119464 0.92425007 1.9995276e-38
0.091975309 0.119464 0.92425007 1.9168397e-38
0.089475311 0.12196399 0.92675006 1.9811961e-38
0.089475311 0.124464 0.92675006 1.9902365e-38
0.091975309 0.12196399 0.92675006 1.8983645e-38
0.091975309 0.124464 0.92925006 1.8428676e-38
0.091975309 0.12696399 0.92925006 1.8336481e-38
0.094475307 0.12196399 0.92675006 1.5847915e-38
0.094475307 0.129464 0.92175007 1.4007957e-38
0.096975312 0.129464 0.92175007 1.0777863e-38
0.094475307 0.134464 0.92175007 1.2902681e-38
0.096975312 0.131964 0.92175007 7.9270123e-39
0.096975312 0.134464 0.92175007 1.0965525e-38
0.096975312 0.134464 0.92425007 1.1148837e-38
0.099475309 0.129464 0.92175007 1.5848621e-38
0.099475309 0.129464 0.92425007 1.5849704e-38
0.099475309 0.131964 0.92175007 1.5851888e-38
0.099475309 0.134464 0.92175007 1.5665354e-38
0.099475309 0.134464 0.92425007 1.5849379e-38
0.10197531 0.131964 0.92175007 1.6585117e-38
0.10197531 0.134464 0.92175007 1.6402172e-38
0.10197531 0.134464 0.92425007 1.6678048e-38
0.086975306 0.13696399 0.90675008 1.6769531e-38
0.089475311 0.13696399 0.90675008 1.6310695e-38
0.089475311 0.13696399 0.90925008 1.5756099e-38
0.089475311 0.13946399 0.90675008 1.5941562e-38
0.091975309 0.13696399 0.90675008 1.5205066e-38
0.091975309 0.13696399 0.90925008 1.4376032e-38
0.089475311 0.13946399 0.91175008 1.5482013e-38
0.089475311 0.13946399 0.91425008 1.5389095e-38
0.091975309 0.13696399 0.91425008 1.5112858e-38
0.091975309 0.13946399 0.91425008 1.446678e-38
0.089475311 0.13696399 0.91675007 1.759856e-38
0.091975309 0.13696399 0.91675007 1.4558628e-38
0.091975309 0.13696399 0.91925007 1.4651174e-38
0.091975309 0.13946399 0.91675007 1.5019956e-38
0.091975309 0.13946399 0.91925007 1.4374237e-38
0.091975309 0.14196399 0.91675007 1.4741943e-38
0.091975309 0.14196399 0.91925007 1.4005457e-38
0.096975312 0.13696399 0.90925008 1.5296196e-38
0.096975312 0.13946399 0.90925008 1.5112899e-38
0.096975312 0.14196399 0.90925008 1.5758619e-38
0.096975312 0.144464 0.90675008 1.6035926e-38
0.099475309 0.13696399 0.90175009 1.778331e-38
0.099475309 0.13946399 0.90175009 1.6494721e-38
0.099475309 0.13696399 0.90675008 1.6309271e-38
0.099475309 0.13946399 0.90675008 1.6952843e-38
0.099475309 0.14196399 0.90175009 1.6402525e-38
0.099475309 0.144464 0.90175009 1.7600728e-38
0.10197531 0.144464 0.90175009 1.8428664e-38
0.099475309 0.14196399 0.90675008 1.6676613e-38
0.099475309 0.144464 0.90675008 1.6402185e-38
0.10197531 0.144464 0.90675008 1.8243917e-38
0.094475307 0.13946399 0.91425008 1.1056976e-38
0.096975312 0.13946399 0.91175008 1.1240682e-38
0.096975312 0.13946399 0.91425008 1.1423979e-38
0.094475307 0.13696399 0.91675007 1.2440627e-38
0.094475307 0.13696399 0.91925007 1.2073665e-38
0.094475307 0.13946399 0.91675007 1.2900533e-38
0.094475307 0.13946399 0.91925007 1.2902334e-38
0.096975312 0.13696399 0.91675007 1.1054838e-38
0.096975312 0.13696399 0.91925007 1.1241753e-38
0.096975312 0.13946399 0.91675007 1.0872228e-38
0.096975312 0.13946399 0.91925007 1.0597439e-38
0.096975312 0.14196399 0.91175008 1.1516175e-38
0.096975312 0.14196399 0.91425008 1.1699837e-38
0.094475307 0.14196399 0.91675007 1.308528e-38
0.094475307 0.14196399 0.91925007 1.3729218e-38
0.096975312 0.14196399 0.91675007 1.0964781e-38
0.096975312 0.14196399 0.91925007 1.0597439e-38
0.096975312 0.144464 0.91675007 1.1608743e-38
0.096975312 0.144464 0.91925007 1.1701642e-38
0.099475309 0.13696399 0.91175008 1.5482026e-38
0.099475309 0.13696399 0.91425008 1.6863146e-38
0.099475309 0.13946399 0.91175008 1.5573874e-38
0.099475309 0.13946399 0.91425008 1.5113599e-38
0.099475309 0.13696399 0.91675007 1.5388391e-38
0.099475309 0.13696399 0.91925007 1.5204716e-38
0.099475309 0.13946399 0.91675007 1.7045745e-38
0.099475309 0.13946399 0.91925007 1.5666773e-38
0.10197531 0.13696399 0.91675007 1.7507815e-38
0.10197531 0.13696399 0.91925007 1.6859928e-38
0.10197531 0.13946399 0.91675007 1.8151734e-38
0.10197531 0.13946399 0.91925007 1.6586935e-38
0.099475309 0.14196399 0.91175008 1.5480587e-38
0.099475309 0.14196399 0.91425008 1.5664608e-38
0.099475309 0.144464 0.91425008 1.6125956e-38
0.099475309 0.14196399 0.91675007 1.5942281e-38
0.099475309 0.14196399 0.91925007 1.5573853e-38
0.099475309 0.144464 0.91675007 1.5666408e-38
0.099475309 0.144464 0.91925007 1.6034477e-38
0.10197531 0.14196399 0.91925007 1.6402187e-38
0.096975312 0.146964 0.90675008 1.5942281e-38
0.096975312 0.146964 0.90925008 1.2439207e-38
0.096975312 0.149464 0.90675008 1.612738e-38
0.096975312 0.149464 0.90925008 1.612738e-38
0.094475307 0.15446399 0.90675008 1.3084201e-38
0.094475307 0.15446399 0.90925008 1.2901602e-38
0.096975312 0.15196399 0.90675008 1.6312127e-38
0.096975312 0.15196399 0.90925008 1.2992729e-38
0.096975312 0.15446399 0.90675008 1.6312143e-38
0.096975312 0.15446399 0.90925008 1.6495458e-38
0.099475309 0.146964 0.90175009 1.8153887e-38
0.099475309 0.149464 0.90175009 1.824608e-38
0.10197531 0.146964 0.90175009 1.8522294e-38
0.10197531 0.149464 0.90175009 1.8429027e-38
0.099475309 0.146964 0.90675008 1.6126312e-38
0.099475309 0.146964 0.90925008 1.6493664e-38
0.099475309 0.149464 0.90675008 1.732233e-38
