# .PCD v0.7 - Point Cloud Data file format
VERSION 0.7
FIELDS x y z rgb
SIZE 4 4 4 4
TYPE F F F F
COUNT 1 1 1 1
WIDTH 1047
HEIGHT 1
VIEWPOINT 0 0 0 1 0 0 0
POINTS 1047
DATA ascii
0.2375394 0.153834 0.86875004 1.2445338e-38
0.2375394 0.153834 0.87125003 1.198438e-38
0.2375394 0.156334 0.86875004 1.1892533e-38
0.2375394 0.156334 0.87125003 1.20744e-38
0.2350394 0.153834 0.87375003 1.2443895e-38
0.2350394 0.156334 0.87375003 1.2997419e-38
0.2375394 0.153834 0.87375003 1.2168046e-38
0.2375394 0.156334 0.87375003 1.198438e-38
0.24003939 0.15133399 0.87125003 1.2627234e-38
0.24253939 0.15133399 0.87125003 1.2258792e-38
0.24003939 0.15133399 0.87375003 1.2353145e-38
0.24253939 0.15133399 0.87375003 1.225735e-38
0.24003939 0.153834 0.86875004 1.2260947e-38
0.24003939 0.153834 0.87125003 1.216875e-38
0.24003939 0.156334 0.87125003 1.2168384e-38
0.24253939 0.153834 0.86875004 1.2535751e-38
0.24253939 0.153834 0.87125003 1.2168399e-38
0.24253939 0.156334 0.86875004 1.2721921e-38
0.24003939 0.153834 0.87375003 1.2536457e-38
0.24003939 0.156334 0.87375003 1.2352065e-38
0.2350394 0.14883399 0.87875003 1.189218e-38
0.2350394 0.14883399 0.88125002 1.2075495e-38
0.2350394 0.15133399 0.87875003 1.2168399e-38
0.2375394 0.14883399 0.87875003 1.2628653e-38
0.2375394 0.14883399 0.88125002 1.1985082e-38
0.2375394 0.15133399 0.87875003 1.1709939e-38
0.2350394 0.153834 0.87875003 1.2260243e-38
0.2375394 0.153834 0.87875003 1.2075851e-38
0.24003939 0.14883399 0.87875003 1.2720849e-38
0.24003939 0.14883399 0.88125002 1.2536457e-38
0.24003939 0.15133399 0.87875003 1.2353142e-38
0.24253939 0.14883399 0.87875003 1.2166952e-38
0.24253939 0.14883399 0.88125002 1.2535736e-38
0.24253939 0.15133399 0.87875003 1.2168031e-38
0.24003939 0.153834 0.87875003 1.2261315e-38
0.2350394 0.158834 0.86875004 1.4654416e-38
0.24503939 0.15133399 0.87125003 1.2807281e-38
0.24753939 0.15133399 0.87125003 1.25271e-38
0.24503939 0.14883399 0.87375003 1.8430081e-38
0.24503939 0.15133399 0.87375003 1.5941562e-38
0.24753939 0.14883399 0.87375003 1.9167646e-38
0.24753939 0.15133399 0.87375003 1.833468e-38
0.24503939 0.153834 0.86875004 1.1798539e-38
0.24503939 0.153834 0.87125003 1.1154599e-38
0.24503939 0.156334 0.86875004 1.2353142e-38
0.24753939 0.153834 0.87125003 1.1061703e-38
0.24753939 0.156334 0.86875004 1.1154617e-38
0.24753939 0.156334 0.87125003 1.1799618e-38
0.24753939 0.153834 0.87375003 1.0047897e-38
0.24753939 0.156334 0.87375003 1.1338286e-38
0.2500394 0.15133399 0.87125003 1.234379e-38
0.2525394 0.14883399 0.87125003 1.1977153e-38
0.2500394 0.14883399 0.87375003 1.9259141e-38
0.2500394 0.15133399 0.87375003 1.2342708e-38
0.2525394 0.14883399 0.87375003 1.160874e-38
0.2525394 0.15133399 0.87375003 1.1515471e-38
0.2500394 0.153834 0.87125003 8.9412007e-39
0.2500394 0.156334 0.86875004 9.125945e-39
0.2500394 0.153834 0.87375003 7.8348531e-39
0.2500394 0.156334 0.87375003 9.034118e-39
0.2525394 0.153834 0.87375003 8.5705992e-39
0.2525394 0.156334 0.87375003 8.5716782e-39
0.24503939 0.14883399 0.87875003 1.2992381e-38
0.24503939 0.15133399 0.87875003 1.2992394e-38
0.24753939 0.14883399 0.87875003 1.7971291e-38
0.24753939 0.15133399 0.87875003 1.8708097e-38
0.2500394 0.14883399 0.87875003 1.8981847e-38
0.2500394 0.15133399 0.87875003 1.944174e-38
0.2525394 0.15133399 0.87875003 1.7140105e-38
0.2525394 0.153834 0.87875003 1.1148481e-38
0.2525394 0.156334 0.87875003 8.9415482e-39
0.24753939 0.158834 0.86875004 1.1708495e-38
0.24753939 0.158834 0.87125003 1.1708479e-38
0.2500394 0.158834 0.86875004 1.0139387e-38
0.2500394 0.158834 0.87125003 1.0047541e-38
0.2500394 0.16133399 0.86875004 9.9560742e-39
0.2500394 0.16133399 0.87125003 1.0878025e-38
0.2525394 0.158834 0.87125003 7.8348559e-39
0.2525394 0.16133399 0.86875004 7.1894837e-39
0.2525394 0.16133399 0.87125003 8.1121392e-39
0.2500394 0.158834 0.87375003 1.0231939e-38
0.2525394 0.158834 0.87375003 7.9252509e-39
0.2525394 0.16133399 0.87375003 9.5862197e-39
0.2525394 0.16383399 0.86875004 7.0072588e-39
0.2525394 0.16383399 0.87125003 7.9302759e-39
0.2525394 0.16383399 0.87375003 7.6511807e-39
0.2525394 0.158834 0.87875003 8.8497015e-39
0.2525394 0.16133399 0.87875003 9.4940199e-39
0.26003939 0.16633399 0.83625007 1.1984703e-38
0.26253939 0.16633399 0.83625007 1.2075835e-38
0.25753939 0.16633399 0.83875006 1.2534329e-38
0.25753939 0.16633399 0.84125006 1.2169087e-38
0.25753939 0.16633399 0.84375006 1.152375e-38
0.25753939 0.16633399 0.84625006 1.1429369e-38
0.26003939 0.16633399 0.83875006 1.1983634e-38
0.26003939 0.16633399 0.84125006 1.1800325e-38
0.26253939 0.16633399 0.83875006 1.2258444e-38
0.26253939 0.16633399 0.84125006 1.1799971e-38
0.26003939 0.16633399 0.84375006 1.1983637e-38
0.26003939 0.16633399 0.84625006 1.1616299e-38
0.26253939 0.16383399 0.84375006 1.2075479e-38
0.26253939 0.16383399 0.84625006 1.2168031e-38
0.26253939 0.16633399 0.84375006 1.2075835e-38
0.26253939 0.16633399 0.84625006 1.1983281e-38
0.26503938 0.16633399 0.83625007 1.1890735e-38
0.26753938 0.16133399 0.84625006 1.501994e-38
0.26503938 0.16633399 0.83875006 1.1706695e-38
0.26503938 0.16633399 0.84125006 1.1522306e-38
0.26753938 0.16633399 0.83875006 1.2253757e-38
0.26753938 0.16633399 0.84125006 1.0232658e-38
0.26503938 0.16383399 0.84375006 1.1522306e-38
0.26503938 0.16383399 0.84625006 1.1983281e-38
0.26503938 0.16633399 0.84375006 1.1429387e-38
0.26503938 0.16633399 0.84625006 1.2535385e-38
0.26753938 0.16383399 0.84375006 1.1607992e-38
0.26753938 0.16383399 0.84625006 1.0508151e-38
0.26753938 0.16633399 0.84375006 1.2164434e-38
0.27003938 0.16133399 0.84625006 1.778581e-38
0.27003938 0.16633399 0.84125006 1.2714733e-38
0.27003938 0.16383399 0.84375006 1.6402525e-38
0.27003938 0.16383399 0.84625006 1.7324497e-38
0.27003938 0.16633399 0.84375006 1.3822157e-38
0.25503939 0.14633399 0.87125003 1.1519768e-38
0.25753939 0.14633399 0.87875003 1.2901633e-38
0.26003939 0.14633399 0.87875003 1.2534643e-38
0.26253939 0.14633399 0.87875003 1.2349542e-38
0.26253939 0.14633399 0.88125002 1.2808e-38
0.26503938 0.14633399 0.87875003 1.2530719e-38
0.26753938 0.14633399 0.87875003 1.3729946e-38
0.26253939 0.15133399 0.86375004 1.2352062e-38
0.26003939 0.153834 0.86125004 1.2168399e-38
0.26003939 0.156334 0.85875005 1.2075832e-38
0.26003939 0.156334 0.86125004 1.2075832e-38
0.26253939 0.153834 0.85875005 1.2075835e-38
0.26253939 0.153834 0.86125004 1.1983284e-38
0.26253939 0.156334 0.85875005 1.2258792e-38
0.26253939 0.156334 0.86125004 1.2259148e-38
0.26003939 0.153834 0.86625004 1.2352065e-38
0.26003939 0.156334 0.86375004 1.2352062e-38
0.26003939 0.156334 0.86625004 1.179889e-38
0.26253939 0.153834 0.86375004 1.2351346e-38
0.26253939 0.153834 0.86625004 1.2258792e-38
0.26253939 0.156334 0.86375004 1.2443539e-38
0.25753939 0.16633399 0.84875005 1.1521577e-38
0.25503939 0.16633399 0.85375005 6.9150632e-39
0.25503939 0.16633399 0.85625005 7.0983446e-39
0.25753939 0.16633399 0.85375005 7.5582648e-39
0.25753939 0.16633399 0.85625005 7.006149e-39
0.26253939 0.16133399 0.85125005 1.2901999e-38
0.26003939 0.158834 0.85625005 1.2260944e-38
0.26003939 0.16133399 0.85375005 1.2444259e-38
0.26003939 0.16133399 0.85625005 1.2628638e-38
0.26253939 0.158834 0.85625005 1.2259148e-38
0.26253939 0.16133399 0.85375005 1.1983637e-38
0.26253939 0.16133399 0.85625005 1.207583e-38
0.26003939 0.16383399 0.84875005 1.1984e-38
0.26003939 0.16383399 0.85125005 1.216875e-38
0.26003939 0.16633399 0.84875005 1.207583e-38
0.26003939 0.16633399 0.85125005 1.152193e-38
0.26253939 0.16383399 0.84875005 1.2259148e-38
0.26253939 0.16383399 0.85125005 1.2075835e-38
0.26253939 0.16633399 0.85125005 1.2536092e-38
0.26003939 0.16383399 0.85375005 1.2352059e-38
0.26003939 0.16383399 0.85625005 1.0230491e-38
0.26003939 0.16633399 0.85375005 1.2258782e-38
0.26003939 0.16633399 0.85625005 9.1248492e-39
0.26253939 0.16383399 0.85375005 1.2075835e-38
0.26253939 0.16383399 0.85625005 1.2168028e-38
0.25753939 0.158834 0.85875005 1.3364771e-38
0.25753939 0.158834 0.86125004 1.0136517e-38
0.25753939 0.16133399 0.85875005 1.0969505e-38
0.25753939 0.16133399 0.86125004 9.4003571e-39
0.25753939 0.158834 0.86375004 9.7716676e-39
0.25753939 0.16133399 0.86375004 9.309595e-39
0.25753939 0.16133399 0.86625004 7.8355593e-39
0.25503939 0.16383399 0.86125004 7.5568173e-39
0.25503939 0.16633399 0.85875005 7.6490101e-39
0.25503939 0.16633399 0.86125004 7.1901899e-39
0.25753939 0.16383399 0.85875005 1.0415588e-38
0.25753939 0.16383399 0.86125004 7.651517e-39
0.25753939 0.16633399 0.85875005 7.8337545e-39
0.25753939 0.16633399 0.86125004 6.913952e-39
0.25503939 0.16383399 0.86375004 6.7295831e-39
0.25503939 0.16383399 0.86625004 7.5564669e-39
0.25503939 0.16633399 0.86375004 6.913966e-39
0.25503939 0.16633399 0.86625004 7.0061616e-39
0.25753939 0.16383399 0.86375004 7.188741e-39
0.25753939 0.16383399 0.86625004 7.0054582e-39
0.25753939 0.16633399 0.86375004 7.2805877e-39
0.25753939 0.16633399 0.86625004 7.0983572e-39
0.26003939 0.158834 0.85875005 1.235134e-38
0.26003939 0.158834 0.86125004 1.2813763e-38
0.26003939 0.16133399 0.85875005 1.2444245e-38
0.26003939 0.16133399 0.86125004 1.0969855e-38
0.26253939 0.158834 0.85875005 1.2258792e-38
0.26253939 0.16133399 0.85875005 1.1984e-38
0.26003939 0.158834 0.86375004 1.2168378e-38
0.26003939 0.158834 0.86625004 1.1154955e-38
0.26003939 0.16133399 0.86625004 1.0137924e-38
0.26003939 0.16383399 0.85875005 1.1430463e-38
0.26003939 0.16383399 0.86125004 9.7727242e-39
0.26003939 0.16383399 0.86625004 7.6493632e-39
0.26503938 0.15133399 0.86375004 1.1430466e-38
0.26503938 0.15133399 0.86625004 1.2255908e-38
0.26753938 0.15133399 0.86375004 1.5111053e-38
0.26753938 0.15133399 0.86625004 1.6218127e-38
0.26503938 0.153834 0.85875005 1.2530311e-38
0.26503938 0.153834 0.86125004 1.0692545e-38
0.26503938 0.156334 0.85875005 1.1522659e-38
0.26503938 0.156334 0.86125004 1.1522661e-38
0.26753938 0.153834 0.85875005 1.6955341e-38
0.26753938 0.153834 0.86125004 1.6494721e-38
0.26753938 0.156334 0.85875005 1.106132e-38
0.26753938 0.156334 0.86125004 1.3731034e-38
0.26503938 0.153834 0.86375004 1.0231572e-38
0.26503938 0.153834 0.86625004 1.179889e-38
0.26503938 0.156334 0.86375004 1.2166952e-38
0.26753938 0.153834 0.86375004 1.2160841e-38
0.26753938 0.153834 0.86625004 1.4007232e-38
0.26753938 0.156334 0.86375004 1.2438126e-38
0.27003938 0.153834 0.86125004 1.778366e-38
0.27003938 0.153834 0.86375004 1.7323774e-38
0.27003938 0.153834 0.86625004 1.8246068e-38
0.27003938 0.156334 0.86375004 1.6312496e-38
0.26503938 0.16133399 0.84875005 1.1336112e-38
0.26503938 0.16133399 0.85125005 1.2166949e-38
0.26753938 0.158834 0.84875005 1.6126657e-38
0.26753938 0.158834 0.85125005 1.6402894e-38
0.26753938 0.16133399 0.84875005 1.1429734e-38
0.26753938 0.16133399 0.85125005 1.152193e-38
0.26503938 0.158834 0.85375005 1.0600346e-38
0.26503938 0.158834 0.85625005 1.1983281e-38
0.26503938 0.16133399 0.85375005 1.2259145e-38
0.26753938 0.158834 0.85375005 1.1793112e-38
0.26753938 0.158834 0.85625005 1.1792781e-38
0.26753938 0.16133399 0.85375005 1.1977869e-38
0.26503938 0.16383399 0.84875005 1.2074751e-38
0.26503938 0.16383399 0.85125005 1.2258444e-38
0.26753938 0.16383399 0.84875005 1.0507431e-38
0.26753938 0.16383399 0.85125005 1.1705267e-38
0.27003938 0.158834 0.84875005 1.8429733e-38
0.27003938 0.158834 0.85125005 1.7232651e-38
0.27003938 0.16133399 0.84875005 1.8154588e-38
0.27003938 0.16133399 0.85125005 1.6311048e-38
0.27003938 0.158834 0.85375005 1.8153516e-38
0.26503938 0.158834 0.85875005 1.1891085e-38
0.26753938 0.158834 0.85875005 1.0415951e-38
0.26753938 0.158834 0.86125004 1.1705974e-38
0.25503939 0.14883399 0.87125003 1.1426495e-38
0.25503939 0.14883399 0.87375003 1.1426495e-38
0.25503939 0.15133399 0.87375003 1.0689283e-38
0.25753939 0.14883399 0.87375003 1.2259148e-38
0.25753939 0.15133399 0.87375003 1.2074753e-38
0.25753939 0.156334 0.87125003 1.0136459e-38
0.25503939 0.153834 0.87375003 9.0319347e-39
0.25503939 0.156334 0.87375003 8.3876317e-39
0.25753939 0.153834 0.87375003 1.1613775e-38
0.25753939 0.156334 0.87375003 9.4929073e-39
0.26253939 0.15133399 0.87125003 1.2075479e-38
0.26003939 0.14883399 0.87375003 1.2812321e-38
0.26003939 0.15133399 0.87375003 1.2351343e-38
0.26253939 0.14883399 0.87375003 1.2626488e-38
0.26253939 0.15133399 0.87375003 1.2259148e-38
0.26003939 0.153834 0.86875004 1.2352065e-38
0.26003939 0.153834 0.87125003 1.2351343e-38
0.26003939 0.156334 0.86875004 1.2075835e-38
0.26003939 0.156334 0.87125003 1.1982188e-38
0.26253939 0.153834 0.86875004 1.2351343e-38
0.26253939 0.153834 0.87125003 1.2075835e-38
0.26253939 0.156334 0.86875004 1.2076198e-38
0.26003939 0.153834 0.87375003 1.2352062e-38
0.26003939 0.156334 0.87375003 1.2075084e-38
0.26253939 0.153834 0.87375003 1.180069e-38
0.25503939 0.14883399 0.87875003 1.1149535e-38
0.25503939 0.15133399 0.87875003 1.197715e-38
0.25503939 0.15133399 0.88125002 1.2620355e-38
0.25753939 0.14883399 0.87875003 1.2442079e-38
0.25753939 0.15133399 0.87875003 1.2164413e-38
0.25503939 0.153834 0.87875003 1.0408765e-38
0.25503939 0.153834 0.88125002 1.0226522e-38
0.25503939 0.156334 0.87875003 8.1121392e-39
0.25503939 0.156334 0.88125002 8.7571583e-39
0.25753939 0.153834 0.87875003 9.4932604e-39
0.25753939 0.156334 0.87875003 8.7571583e-39
0.26003939 0.14883399 0.87875003 1.2443892e-38
0.26003939 0.14883399 0.88125002 1.2348842e-38
0.26003939 0.15133399 0.87875003 1.2351343e-38
0.26003939 0.15133399 0.88125002 1.2443895e-38
0.26253939 0.14883399 0.87875003 1.2533937e-38
0.26253939 0.14883399 0.88125002 1.2534643e-38
0.26253939 0.15133399 0.87875003 1.2351346e-38
0.26253939 0.15133399 0.88125002 1.2627931e-38
0.26253939 0.14883399 0.88375002 1.290093e-38
0.26003939 0.153834 0.87875003 1.1522989e-38
0.26003939 0.156334 0.87875003 1.0139349e-38
0.26253939 0.153834 0.87875003 1.235134e-38
0.25503939 0.158834 0.87125003 7.6515114e-39
0.25503939 0.16133399 0.86875004 7.1894837e-39
0.25503939 0.16133399 0.87125003 7.0061616e-39
0.25753939 0.158834 0.86875004 1.0139349e-38
0.25753939 0.158834 0.87125003 7.5571648e-39
0.25753939 0.16133399 0.86875004 7.3742211e-39
0.25753939 0.16133399 0.87125003 7.4667698e-39
0.25503939 0.158834 0.87375003 7.0057931e-39
0.25503939 0.16133399 0.87375003 7.0980069e-39
0.25753939 0.158834 0.87375003 8.2032404e-39
0.25753939 0.16133399 0.87375003 7.2831072e-39
0.25503939 0.16383399 0.86875004 6.5462821e-39
0.25503939 0.16383399 0.87125003 7.2823982e-39
0.25503939 0.16633399 0.86875004 7.0983572e-39
0.25753939 0.16383399 0.86875004 7.1898494e-39
0.25753939 0.16383399 0.87125003 7.9263102e-39
0.25753939 0.16633399 0.86875004 7.2823982e-39
0.25753939 0.16633399 0.87125003 7.2831072e-39
0.26003939 0.158834 0.86875004 1.2166946e-38
0.26003939 0.158834 0.87125003 1.0970211e-38
0.26003939 0.16133399 0.86875004 1.0507784e-38
0.26003939 0.16133399 0.87125003 9.5858218e-39
0.25503939 0.158834 0.87875003 8.7560989e-39
0.25503939 0.158834 0.88125002 8.2043321e-39
0.25503939 0.16133399 0.87875003 9.8613591e-39
0.25753939 0.158834 0.87875003 7.8352034e-39
0.26503938 0.14883399 0.86875004 1.2162601e-38
0.26503938 0.15133399 0.86875004 1.179565e-38
0.26503938 0.15133399 0.87125003 1.0692911e-38
0.26753938 0.14883399 0.86875004 1.6403241e-38
0.26753938 0.15133399 0.86875004 1.3178943e-38
0.26753938 0.15133399 0.87125003 1.1609091e-38
0.26503938 0.14883399 0.87375003 1.0784393e-38
0.26503938 0.15133399 0.87375003 1.1983649e-38
0.26753938 0.14883399 0.87375003 1.2345212e-38
0.26753938 0.15133399 0.87375003 1.345517e-38
0.26503938 0.153834 0.86875004 1.2258797e-38
0.26503938 0.153834 0.87125003 1.2075835e-38
0.26753938 0.153834 0.86875004 1.2255911e-38
0.27003938 0.15133399 0.86875004 1.5942266e-38
0.27003938 0.15133399 0.87125003 1.769363e-38
0.26503938 0.14883399 0.87875003 1.2074053e-38
0.26503938 0.15133399 0.87875003 1.2258792e-38
0.26753938 0.14883399 0.87875003 1.0968409e-38
0.26753938 0.15133399 0.87875003 1.0784017e-38
0.22503939 0.17633399 0.81375003 7.0046524e-39
0.22753939 0.173834 0.81375003 1.1885289e-38
0.22753939 0.17633399 0.81375003 1.0784015e-38
0.22753939 0.17633399 0.81625003 1.0784015e-38
0.23003939 0.17633399 0.81375003 1.3086012e-38
0.23003939 0.17633399 0.81625003 1.0599607e-38
0.23253939 0.17633399 0.81375003 1.272122e-38
0.23253939 0.17633399 0.81625003 1.3365475e-38
0.22753939 0.173834 0.81875002 9.6790614e-39
0.22753939 0.173834 0.82125002 9.9524197e-39
0.22753939 0.17633399 0.81875002 7.0976384e-39
0.22753939 0.17633399 0.82125002 9.6740363e-39
0.22753939 0.173834 0.82375008 1.1150259e-38
0.22753939 0.17633399 0.82375008 1.0228307e-38
0.23003939 0.173834 0.81875002 1.0877605e-38
0.23003939 0.173834 0.82125002 1.1336468e-38
0.23003939 0.17633399 0.81875002 1.1242456e-38
0.23003939 0.17633399 0.82125002 1.1242103e-38
0.23253939 0.173834 0.82125002 1.364136e-38
0.23253939 0.17633399 0.81875002 1.2721205e-38
0.23253939 0.17633399 0.82125002 1.3547353e-38
0.23003939 0.173834 0.82375008 1.1429364e-38
0.23003939 0.173834 0.82625008 1.2071867e-38
0.23003939 0.17633399 0.82375008 1.1425752e-38
0.23003939 0.17633399 0.82625008 1.0324078e-38
0.23253939 0.173834 0.82375008 1.2629722e-38
0.23253939 0.173834 0.82625008 1.1616649e-38
0.23253939 0.17633399 0.82375008 1.3548066e-38
0.23253939 0.17633399 0.82625008 1.1153153e-38
0.22753939 0.17883399 0.81375003 9.6808774e-39
0.22753939 0.17883399 0.81625003 9.7712752e-39
0.23003939 0.17883399 0.81375003 1.2074734e-38
0.23003939 0.17883399 0.81625003 1.0230823e-38
0.23003939 0.18133399 0.81375003 1.0876195e-38
0.23003939 0.18133399 0.81625003 9.7705718e-39
0.23253939 0.17883399 0.81375003 1.2353498e-38
0.23253939 0.17883399 0.81625003 1.2350249e-38
0.23253939 0.18133399 0.81375003 1.2994154e-38
0.23253939 0.18133399 0.81625003 1.1523337e-38
0.23003939 0.186334 0.80875003 1.0416642e-38
0.23003939 0.186334 0.81125003 1.0783999e-38
0.23253939 0.186334 0.80875003 1.1610147e-38
0.23253939 0.186334 0.81125003 1.0046433e-38
0.23003939 0.18383399 0.81375003 1.0692487e-38
0.23003939 0.18383399 0.81625003 8.2032404e-39
0.23253939 0.18383399 0.81375003 1.0597087e-38
0.23253939 0.18383399 0.81625003 1.1428976e-38
0.23253939 0.186334 0.81375003 1.0047133e-38
0.23253939 0.186334 0.81625003 1.1056976e-38
0.22753939 0.17883399 0.82125002 7.3731337e-39
0.23003939 0.17883399 0.81875002 1.0323377e-38
0.23003939 0.17883399 0.82125002 1.069215e-38
0.23003939 0.18133399 0.81875002 1.050454e-38
0.23253939 0.17883399 0.81875002 1.2536811e-38
0.23253939 0.17883399 0.82125002 1.2628258e-38
0.23253939 0.18133399 0.81875002 1.1610889e-38
0.23253939 0.18133399 0.82125002 1.0878712e-38
0.23003939 0.17883399 0.82625008 1.2162225e-38
0.23253939 0.17883399 0.82375008 1.3177491e-38
0.23253939 0.17883399 0.82625008 1.151975e-38
0.23003939 0.18383399 0.81875002 8.4791239e-39
0.23253939 0.18383399 0.81875002 1.1521172e-38
0.23253939 0.186334 0.81875002 1.0784345e-38
0.23253939 0.171334 0.82875007 1.2815934e-38
0.23003939 0.171334 0.83625007 1.0873324e-38
0.23253939 0.171334 0.83375007 1.4100521e-38
0.23253939 0.171334 0.83625007 1.0967282e-38
0.23003939 0.173834 0.82875007 1.0966228e-38
0.23003939 0.173834 0.83125007 1.004643e-38
0.23003939 0.17633399 0.82875007 1.0873674e-38
0.23003939 0.17633399 0.83125007 1.0691096e-38
0.23253939 0.173834 0.82875007 1.2721552e-38
0.23253939 0.173834 0.83125007 1.2625394e-38
0.23253939 0.17633399 0.82875007 1.1522271e-38
0.23253939 0.17633399 0.83125007 1.2626092e-38
0.23253939 0.173834 0.83375007 1.3914312e-38
0.22753939 0.171334 0.83875006 9.9491995e-39
0.22753939 0.171334 0.84125006 6.4497116e-39
0.22753939 0.171334 0.84375006 7.7404897e-39
0.22753939 0.173834 0.84125006 7.7419148e-39
0.22753939 0.173834 0.84375006 7.9245208e-39
0.23003939 0.171334 0.83875006 1.0874377e-38
0.23003939 0.171334 0.84125006 9.399613e-39
0.23253939 0.171334 0.83875006 1.2258021e-38
0.23253939 0.171334 0.84125006 1.1707381e-38
0.23003939 0.168834 0.84375006 1.0602418e-38
0.23003939 0.168834 0.84625006 1.0506279e-38
0.23003939 0.171334 0.84375006 9.5858092e-39
0.23003939 0.171334 0.84625006 9.2177483e-39
0.23253939 0.168834 0.84375006 1.3087071e-38
0.23253939 0.168834 0.84625006 1.1335356e-38
0.23253939 0.171334 0.84375006 1.2533176e-38
0.23253939 0.171334 0.84625006 1.0966573e-38
0.23003939 0.173834 0.83875006 9.03012e-39
0.23003939 0.173834 0.84125006 7.6497191e-39
0.23253939 0.173834 0.83875006 1.1335356e-38
0.23253939 0.173834 0.84125006 1.1149525e-38
0.23003939 0.173834 0.84375006 9.396376e-39
0.23003939 0.173834 0.84625006 8.9368622e-39
0.23253939 0.173834 0.84375006 9.5829351e-39
0.23253939 0.173834 0.84625006 1.0689633e-38
0.23253939 0.17633399 0.84375006 8.2928745e-39
0.23253939 0.17633399 0.84625006 8.2918207e-39
0.23003939 0.188834 0.81125003 9.9524197e-39
0.23003939 0.19133399 0.81125003 6.0852213e-39
0.23253939 0.188834 0.80875003 1.1794557e-38
0.23253939 0.188834 0.81125003 1.0693617e-38
0.23253939 0.19133399 0.80875003 9.5901013e-39
0.23253939 0.19133399 0.81125003 1.0603162e-38
0.23253939 0.188834 0.81375003 1.1517948e-38
0.23253939 0.19133399 0.81375003 1.0510966e-38
0.23253939 0.19383399 0.80875003 9.0312061e-39
0.23253939 0.19383399 0.81125003 1.022471e-38
0.23253939 0.19633399 0.80875003 8.2921963e-39
0.23253939 0.19633399 0.81125003 7.7411959e-39
0.23253939 0.19383399 0.81375003 1.0139679e-38
0.23253939 0.19383399 0.81625003 6.2696209e-39
0.23253939 0.19633399 0.81375003 7.741549e-39
0.23253939 0.19633399 0.82375008 7.2805905e-39
0.23253939 0.19883399 0.81375003 6.6395371e-39
0.23253939 0.19883399 0.81625003 9.127017e-39
0.23253939 0.201334 0.81375003 8.020322e-39
0.23253939 0.201334 0.81625003 8.9419195e-39
0.23003939 0.20633399 0.81375003 1.1150636e-38
0.23253939 0.203834 0.81375003 1.0415232e-38
0.23253939 0.203834 0.81625003 9.9560518e-39
0.23253939 0.20633399 0.81375003 1.225481e-38
0.23253939 0.20633399 0.81625003 1.1426144e-38
0.23253939 0.19883399 0.81875002 7.8380803e-39
0.23253939 0.201334 0.81875002 9.494373e-39
0.23253939 0.201334 0.82125002 1.0325192e-38
0.23003939 0.201334 0.82625008 1.0875857e-38
0.23253939 0.19883399 0.82375008 9.493273e-39
0.23253939 0.19883399 0.82625008 9.8624171e-39
0.23253939 0.201334 0.82375008 1.0230823e-38
0.23253939 0.201334 0.82625008 1.050849e-38
0.23003939 0.20633399 0.81875002 1.0323036e-38
0.23003939 0.20633399 0.82125002 1.1242106e-38
0.23253939 0.203834 0.81875002 1.1149909e-38
0.23253939 0.203834 0.82125002 1.0965525e-38
0.23253939 0.20633399 0.81875002 1.124427e-38
0.23253939 0.20633399 0.82125002 1.1519768e-38
0.23003939 0.203834 0.82375008 1.1061311e-38
0.23253939 0.203834 0.82375008 1.1426144e-38
0.23253939 0.19633399 0.82875007 9.6794719e-39
0.23253939 0.19633399 0.83125007 1.0415941e-38
0.23253939 0.19633399 0.83375007 9.9560518e-39
0.23253939 0.19633399 0.83625007 1.059963e-38
0.23253939 0.19133399 0.84375006 9.494373e-39
0.23253939 0.19133399 0.84625006 1.0783999e-38
0.23253939 0.19383399 0.83875006 9.8624171e-39
0.23253939 0.19383399 0.84125006 9.5869204e-39
0.23253939 0.19633399 0.84125006 1.0232989e-38
0.23253939 0.19383399 0.84375006 9.4028752e-39
0.23253939 0.19383399 0.84625006 1.0783999e-38
0.23003939 0.19883399 0.83125007 1.0417387e-38
0.23003939 0.201334 0.83125007 1.0138645e-38
0.23253939 0.19883399 0.82875007 1.0323036e-38
0.23253939 0.19883399 0.83125007 1.0140443e-38
0.23253939 0.201334 0.82875007 1.0691096e-38
0.23253939 0.201334 0.83125007 1.0691096e-38
0.23003939 0.19883399 0.83375007 1.1613778e-38
0.23253939 0.19883399 0.83375007 1.0138292e-38
0.2375394 0.17633399 0.81625003 1.1983649e-38
0.24003939 0.173834 0.81375003 1.2351359e-38
0.24003939 0.17633399 0.81375003 1.2535757e-38
0.24003939 0.17633399 0.81625003 1.2168399e-38
0.24253939 0.173834 0.81375003 1.2443556e-38
0.24253939 0.17633399 0.81375003 1.2351007e-38
0.24253939 0.17633399 0.81625003 1.2352062e-38
0.2350394 0.17633399 0.81875002 1.1892533e-38
0.2350394 0.17633399 0.82125002 1.115642e-38
0.2375394 0.173834 0.82125002 1.1525198e-38
0.2375394 0.17633399 0.81875002 1.1892533e-38
0.2375394 0.17633399 0.82125002 1.1525901e-38
0.2350394 0.173834 0.82375008 1.2445003e-38
0.2350394 0.173834 0.82625008 1.2170567e-38
0.2350394 0.17633399 0.82375008 1.1617391e-38
0.2350394 0.17633399 0.82625008 1.3273319e-38
0.2375394 0.173834 0.82375008 1.1892883e-38
0.2375394 0.173834 0.82625008 1.2168394e-38
0.2375394 0.17633399 0.82375008 1.1524101e-38
0.24003939 0.173834 0.81875002 1.2168394e-38
0.24003939 0.173834 0.82125002 1.2075498e-38
0.24003939 0.17633399 0.81875002 1.2168046e-38
0.24003939 0.17633399 0.82125002 1.1985437e-38
0.24253939 0.173834 0.81875002 1.2168046e-38
0.24253939 0.173834 0.82125002 1.2260243e-38
0.24253939 0.17633399 0.81875002 1.2167681e-38
0.24003939 0.173834 0.82375008 1.189218e-38
0.24003939 0.173834 0.82625008 1.2168394e-38
0.24003939 0.17633399 0.82375008 1.1800687e-38
0.24253939 0.173834 0.82375008 1.2168411e-38
0.24253939 0.173834 0.82625008 1.2168394e-38
0.2350394 0.18133399 0.80875003 1.2075495e-38
0.2375394 0.17883399 0.81125003 1.1799984e-38
0.2375394 0.18133399 0.80875003 1.170707e-38
0.2375394 0.18133399 0.81125003 1.1799265e-38
0.2350394 0.17883399 0.81375003 1.2997811e-38
0.2350394 0.17883399 0.81625003 1.3089278e-38
0.2350394 0.18133399 0.81375003 1.2350993e-38
0.2350394 0.18133399 0.81625003 1.3274708e-38
0.2375394 0.17883399 0.81375003 1.189218e-38
0.2375394 0.17883399 0.81625003 1.1799987e-38
0.2375394 0.18133399 0.81375003 1.1523397e-38
0.2350394 0.18383399 0.80875003 1.4470709e-38
0.2350394 0.18383399 0.81125003 1.2258015e-38
0.2350394 0.186334 0.80875003 1.3458379e-38
0.2350394 0.186334 0.81125003 1.2162613e-38
0.2375394 0.18383399 0.81125003 1.2260243e-38
0.2350394 0.18383399 0.81375003 1.2536442e-38
0.2350394 0.18383399 0.81625003 1.3088498e-38
0.24003939 0.17883399 0.80875003 1.2536455e-38
0.24003939 0.17883399 0.81125003 1.2721205e-38
0.24003939 0.18133399 0.80875003 1.1707423e-38
0.24253939 0.17883399 0.80875003 1.216912e-38
0.24253939 0.17883399 0.81125003 1.2352062e-38
0.24253939 0.18133399 0.80875003 1.2076549e-38
0.24003939 0.17883399 0.81375003 1.2351712e-38
0.24003939 0.17883399 0.81625003 1.2261668e-38
0.24003939 0.18133399 0.81375003 1.2443542e-38
0.24253939 0.17883399 0.81375003 1.2168028e-38
0.24253939 0.17883399 0.81625003 1.2168399e-38
0.24253939 0.18133399 0.81375003 1.2076198e-38
0.2350394 0.17883399 0.81875002 1.2168411e-38
0.2350394 0.17883399 0.82125002 1.2168399e-38
0.2350394 0.18133399 0.81875002 1.3090318e-38
0.2350394 0.18133399 0.82125002 1.3734984e-38
0.2375394 0.17883399 0.81875002 1.1892185e-38
0.2375394 0.17883399 0.82125002 1.1434432e-38
0.2350394 0.17883399 0.82625008 1.364062e-38
0.24503939 0.173834 0.81875002 1.0972021e-38
0.24503939 0.173834 0.82125002 1.1800687e-38
0.24503939 0.17633399 0.81875002 1.0601794e-38
0.24503939 0.17633399 0.82125002 1.0880179e-38
0.24753939 0.17633399 0.82125002 9.4965352e-39
0.24503939 0.173834 0.82375008 1.1799265e-38
0.24503939 0.173834 0.82625008 1.1246813e-38
0.24503939 0.17633399 0.82375008 1.097093e-38
0.24753939 0.173834 0.82625008 9.8685505e-39
0.24753939 0.17633399 0.82375008 1.1247163e-38
0.24753939 0.17633399 0.82625008 1.115712e-38
0.24503939 0.17883399 0.81125003 1.226095e-38
0.24503939 0.18133399 0.81125003 1.216875e-38
0.24503939 0.17883399 0.81375003 1.1431185e-38
0.24503939 0.17883399 0.81625003 1.1799969e-38
0.24503939 0.18133399 0.81375003 1.1708129e-38
0.24753939 0.18133399 0.81375003 1.1342236e-38
0.2500394 0.186334 0.80875003 9.2166917e-39
0.2500394 0.186334 0.81125003 7.4689797e-39
0.2500394 0.186334 0.81375003 9.032648e-39
0.2525394 0.186334 0.81375003 8.3919925e-39
0.2525394 0.186334 0.81625003 7.0072588e-39
0.24503939 0.17883399 0.81875002 1.1062419e-38
0.24503939 0.17883399 0.82125002 1.1339712e-38
0.24503939 0.18133399 0.81875002 1.1615575e-38
0.24753939 0.17883399 0.82125002 9.6809293e-39
0.24753939 0.18133399 0.81875002 1.0511413e-38
0.24753939 0.18133399 0.82125002 1.0326655e-38
0.24503939 0.17883399 0.82375008 1.1616299e-38
0.24753939 0.17883399 0.82375008 1.1154615e-38
0.24753939 0.17883399 0.82625008 1.0233006e-38
0.24753939 0.18133399 0.82375008 1.0970208e-38
0.24753939 0.18133399 0.82625008 1.0878375e-38
0.24753939 0.18383399 0.81875002 1.0695807e-38
0.24753939 0.18383399 0.82125002 1.1249687e-38
0.2500394 0.17883399 0.82375008 9.9596672e-39
0.2500394 0.17883399 0.82625008 8.6682193e-39
0.2500394 0.18133399 0.82375008 1.0695078e-38
0.2500394 0.18133399 0.82625008 1.0051507e-38
0.2525394 0.18133399 0.82625008 6.9168597e-39
0.2525394 0.186334 0.81875002 7.7423043e-39
0.2525394 0.186334 0.82125002 8.0224295e-39
0.2500394 0.18383399 0.82375008 9.4050683e-39
0.2500394 0.18383399 0.82625008 1.0970226e-38
0.2500394 0.186334 0.82625008 1.0421368e-38
0.2525394 0.18383399 0.82625008 8.6692787e-39
0.2525394 0.186334 0.82375008 8.0217261e-39
0.2525394 0.186334 0.82625008 8.6700088e-39
0.2350394 0.171334 0.82875007 1.2168399e-38
0.2375394 0.171334 0.82875007 1.2168399e-38
0.2350394 0.171334 0.83375007 1.3642097e-38
0.2350394 0.171334 0.83625007 1.2628666e-38
0.2375394 0.168834 0.83625007 1.1799969e-38
0.2375394 0.171334 0.83375007 1.189218e-38
0.2375394 0.171334 0.83625007 1.1983655e-38
0.2350394 0.173834 0.82875007 1.2261668e-38
0.2350394 0.173834 0.83125007 1.2443539e-38
0.2350394 0.17633399 0.82875007 1.2629748e-38
0.2375394 0.173834 0.83125007 1.2168767e-38
0.2350394 0.173834 0.83375007 1.1984382e-38
0.2350394 0.173834 0.83625007 1.281306e-38
0.24003939 0.171334 0.82875007 1.2904517e-38
0.24003939 0.171334 0.83125007 1.2444262e-38
0.24253939 0.171334 0.83125007 1.2445359e-38
0.24003939 0.168834 0.83625007 1.2445338e-38
0.24003939 0.171334 0.83375007 1.216875e-38
0.24003939 0.171334 0.83625007 1.1984734e-38
0.24253939 0.168834 0.83625007 1.22613e-38
0.24253939 0.171334 0.83375007 1.2353498e-38
0.24253939 0.171334 0.83625007 1.2627581e-38
0.24003939 0.173834 0.83125007 1.2353142e-38
0.24253939 0.173834 0.82875007 1.226095e-38
0.24253939 0.173834 0.83125007 1.2445341e-38
0.24253939 0.173834 0.83375007 1.1985437e-38
0.2350394 0.168834 0.83875006 1.2536457e-38
0.2350394 0.168834 0.84125006 1.2536457e-38
0.2350394 0.171334 0.83875006 1.198582e-38
0.2350394 0.171334 0.84125006 1.2904864e-38
0.2375394 0.168834 0.83875006 1.1891832e-38
0.2375394 0.168834 0.84125006 1.1891829e-38
0.2375394 0.171334 0.83875006 1.1432646e-38
0.2375394 0.171334 0.84125006 1.2260256e-38
0.2350394 0.168834 0.84375006 1.2629369e-38
0.2350394 0.168834 0.84625006 1.2813009e-38
0.2350394 0.171334 0.84375006 1.2444245e-38
0.2350394 0.171334 0.84625006 1.2995262e-38
0.2375394 0.168834 0.84375006 1.2445338e-38
0.2375394 0.171334 0.84375006 1.2536457e-38
0.2350394 0.173834 0.83875006 1.3361884e-38
0.2350394 0.173834 0.84375006 1.0873324e-38
0.2350394 0.17633399 0.84375006 1.1519024e-38
0.2350394 0.17633399 0.84625006 1.1793813e-38
0.24003939 0.168834 0.83875006 1.2168046e-38
0.24003939 0.168834 0.84125006 1.2443909e-38
0.24253939 0.168834 0.83875006 1.2352065e-38
0.24253939 0.168834 0.84125006 1.1892533e-38
0.24003939 0.168834 0.84375006 1.2444262e-38
0.24253939 0.168834 0.84375006 1.2076554e-38
0.24503939 0.168834 0.83625007 1.1799268e-38
0.24503939 0.171334 0.83375007 1.2168747e-38
0.24503939 0.171334 0.83625007 1.2168747e-38
0.24503939 0.173834 0.82875007 1.1616299e-38
0.24503939 0.173834 0.83125007 1.1799987e-38
0.24753939 0.17633399 0.82875007 1.0602497e-38
0.24753939 0.17633399 0.83125007 1.0234459e-38
0.24503939 0.173834 0.83375007 1.2353145e-38
0.24753939 0.173834 0.83375007 1.1707072e-38
0.24753939 0.173834 0.83625007 1.0879472e-38
0.24753939 0.17633399 0.83625007 1.0509248e-38
0.2500394 0.17633399 0.82875007 9.1266639e-39
0.2500394 0.17633399 0.83125007 8.8515218e-39
0.2525394 0.17633399 0.83125007 6.6377378e-39
0.2500394 0.17633399 0.83375007 9.8656751e-39
0.2500394 0.17633399 0.83625007 1.0695432e-38
0.2525394 0.17633399 0.83375007 6.3625901e-39
0.2525394 0.17633399 0.83625007 8.1139567e-39
0.24503939 0.168834 0.83875006 1.189218e-38
0.24503939 0.168834 0.84125006 1.1339366e-38
0.24753939 0.168834 0.83875006 1.1247514e-38
0.24753939 0.168834 0.84125006 1.0234456e-38
0.24753939 0.171334 0.83875006 1.2168399e-38
0.24753939 0.171334 0.84125006 1.0696513e-38
0.24503939 0.168834 0.84375006 1.1064221e-38
0.24753939 0.168834 0.84375006 1.0511047e-38
0.24753939 0.168834 0.84625006 9.7734823e-39
0.24753939 0.171334 0.84375006 1.1615575e-38
0.24753939 0.173834 0.83875006 1.1064224e-38
0.24753939 0.173834 0.84125006 1.1064221e-38
0.2500394 0.171334 0.84375006 1.0512104e-38
0.2500394 0.171334 0.84625006 1.1155318e-38
0.2500394 0.173834 0.83875006 9.8660282e-39
0.2500394 0.173834 0.84125006 9.496538e-39
0.2500394 0.17633399 0.83875006 9.6812824e-39
0.2525394 0.173834 0.84125006 9.0373648e-39
0.2525394 0.17633399 0.83875006 7.0994517e-39
0.2525394 0.17633399 0.84125006 7.4685873e-39
0.2500394 0.173834 0.84375006 9.1281128e-39
0.2500394 0.173834 0.84625006 1.1064221e-38
0.2500394 0.17633399 0.84375006 1.041705e-38
0.2525394 0.173834 0.84625006 7.7469791e-39
0.2525394 0.17633399 0.84375006 8.8511686e-39
0.2525394 0.17633399 0.84625006 8.3927142e-39
0.2500394 0.17883399 0.82875007 8.3927114e-39
0.2500394 0.17883399 0.83125007 9.6801908e-39
0.2500394 0.18133399 0.82875007 1.0880179e-38
0.2525394 0.17883399 0.82875007 6.4544354e-39
0.2525394 0.17883399 0.83125007 9.589793e-39
0.2525394 0.18133399 0.82875007 6.732467e-39
0.2525394 0.18133399 0.83125007 7.3778364e-39
0.2500394 0.17883399 0.83375007 9.3117586e-39
0.2525394 0.17883399 0.83375007 6.3618894e-39
0.2525394 0.18133399 0.83375007 6.915761e-39
0.2500394 0.18383399 0.82875007 1.0787274e-38
0.2500394 0.186334 0.82875007 1.106529e-38
0.2525394 0.18383399 0.82875007 7.5629507e-39
0.2525394 0.18383399 0.83125007 8.5756425e-39
0.2525394 0.186334 0.82875007 8.485263e-39
0.2525394 0.17883399 0.84125006 7.3792699e-39
0.2350394 0.19133399 0.80875003 1.2164393e-38
0.2350394 0.19133399 0.81125003 1.1888905e-38
0.2350394 0.19383399 0.80875003 1.2533118e-38
0.2350394 0.19383399 0.81125003 1.2070405e-38
0.2350394 0.19633399 0.80875003 9.9513617e-39
0.2350394 0.19633399 0.81125003 8.5684258e-39
0.2350394 0.19633399 0.81375003 8.8424764e-39
0.2350394 0.19633399 0.81625003 7.3742211e-39
0.2350394 0.19633399 0.81875002 1.1426443e-38
0.2350394 0.19633399 0.82125002 9.2123757e-39
0.2350394 0.19633399 0.82375008 5.5277721e-39
0.2350394 0.19633399 0.82625008 6.7295229e-39
0.2375394 0.19883399 0.80875003 7.274415e-39
0.2375394 0.19883399 0.81125003 6.1659346e-39
0.2375394 0.201334 0.81125003 4.8845761e-39
0.2350394 0.19883399 0.81375003 8.6609648e-39
0.2350394 0.19883399 0.81625003 6.6334008e-39
0.2350394 0.201334 0.81375003 6.5448331e-39
0.2350394 0.201334 0.81625003 6.5412052e-39
0.2375394 0.19883399 0.81375003 5.7992821e-39
0.2375394 0.201334 0.81375003 4.8845761e-39
0.2350394 0.203834 0.81375003 9.954261e-39
0.2350394 0.203834 0.81625003 5.9026881e-39
0.2350394 0.20633399 0.81375003 1.4006876e-38
0.2375394 0.203834 0.81375003 7.9277676e-39
0.2375394 0.20633399 0.81375003 1.3180713e-38
0.24003939 0.19883399 0.80875003 6.3593152e-39
0.24003939 0.19883399 0.81125003 6.3600187e-39
0.24003939 0.201334 0.80875003 5.6224943e-39
0.24003939 0.201334 0.81125003 5.350215e-39
0.24253939 0.201334 0.80875003 1.1332487e-38
0.24253939 0.201334 0.81125003 8.1045806e-39
0.24003939 0.201334 0.81375003 6.0809459e-39
0.24003939 0.203834 0.81125003 5.6242459e-39
0.24003939 0.20633399 0.81125003 7.1958708e-39
0.24253939 0.203834 0.81125003 8.3808004e-39
0.24253939 0.20633399 0.81125003 1.0688932e-38
0.24003939 0.203834 0.81375003 2.3116926e-39
0.24003939 0.20633399 0.81375003 1.0600304e-38
0.24253939 0.203834 0.81375003 9.0294166e-39
0.24253939 0.20633399 0.81375003 1.1426866e-38
0.2350394 0.19883399 0.81875002 7.0054582e-39
0.2350394 0.19883399 0.82125002 7.1905529e-39
0.2350394 0.201334 0.81875002 6.9128954e-39
0.2350394 0.201334 0.82125002 6.45082e-39
0.2375394 0.201334 0.82125002 6.5394213e-39
0.2350394 0.19883399 0.82375008 7.6511681e-39
0.2350394 0.19883399 0.82625008 6.8210473e-39
0.2350394 0.201334 0.82375008 9.6794719e-39
0.2350394 0.203834 0.82125002 1.0139742e-38
0.2500394 0.188834 0.80875003 9.3103517e-39
0.2500394 0.188834 0.81125003 9.7713271e-39
0.2525394 0.188834 0.80875003 7.745177e-39
0.2525394 0.188834 0.81125003 6.7288741e-39
0.2525394 0.19133399 0.80875003 8.4802407e-39
0.2525394 0.188834 0.81375003 6.6384805e-39
0.2525394 0.188834 0.81625003 8.389843e-39
0.2500394 0.19383399 0.80875003 9.4910898e-39
0.2500394 0.19633399 0.80875003 7.8293964e-39
0.2525394 0.19383399 0.80875003 9.2159659e-39
0.2525394 0.19633399 0.80875003 7.9215935e-39
0.2525394 0.19633399 0.81125003 7.6457507e-39
0.2525394 0.188834 0.82625008 1.1524084e-38
0.24503939 0.201334 0.80875003 1.1938615e-39
0.24503939 0.201334 0.81125003 9.5814876e-39
0.24753939 0.19883399 0.80875003 0
0.24753939 0.201334 0.80875003 4.6097815e-40
0.24753939 0.201334 0.81125003 1.6530389e-39
0.24503939 0.201334 0.81375003 9.7662375e-39
0.24753939 0.201334 0.81375003 1.2856969e-39
0.24503939 0.203834 0.81125003 1.0779326e-38
0.24503939 0.20633399 0.81125003 1.0965519e-38
0.24753939 0.203834 0.81125003 1.6548326e-39
0.24503939 0.203834 0.81375003 9.3066985e-39
0.24503939 0.20633399 0.81375003 1.0781496e-38
0.24753939 0.203834 0.81375003 4.4231804e-39
0.24753939 0.20633399 0.81375003 7.646101e-39
0.2500394 0.19883399 0.80875003 0
0.2500394 0.19883399 0.81125003 0
0.2500394 0.201334 0.80875003 1.9361082e-39
0.2500394 0.201334 0.81125003 1.472263e-39
0.2525394 0.19883399 0.80875003 0
0.2525394 0.19883399 0.81125003 0
0.2525394 0.201334 0.80875003 1.1049407e-39
0.2525394 0.201334 0.81125003 1.1027728e-39
0.2525394 0.201334 0.81375003 1.1956747e-39
0.2525394 0.203834 0.81125003 2.2083567e-39
0.2500394 0.203834 0.81375003 5.2529425e-39
0.2500394 0.20633399 0.81375003 8.0152422e-39
0.2525394 0.203834 0.81375003 5.3429857e-39
0.2525394 0.203834 0.81625003 2.395622e-39
0.2525394 0.20633399 0.81375003 7.6443115e-39
0.2525394 0.20633399 0.81625003 8.0127353e-39
0.2350394 0.19383399 0.83125007 6.266468e-39
0.2350394 0.19633399 0.82875007 6.5448205e-39
0.2350394 0.19633399 0.83125007 5.7147193e-39
0.2375394 0.19383399 0.83125007 7.5568145e-39
0.2375394 0.19633399 0.83125007 6.0852213e-39
0.2350394 0.19633399 0.83375007 5.6243216e-39
0.2350394 0.19633399 0.83625007 1.0230488e-38
0.2375394 0.19633399 0.83375007 6.7305935e-39
0.2375394 0.19633399 0.83625007 5.5310722e-39
0.2375394 0.19133399 0.83875006 1.0782547e-38
0.2350394 0.188834 0.84625006 7.3742239e-39
0.2350394 0.19133399 0.84375006 7.2842031e-39
0.2350394 0.19133399 0.84625006 8.2972508e-39
0.2375394 0.188834 0.84375006 8.2028551e-39
0.2375394 0.188834 0.84625006 9.2134477e-39
0.2375394 0.19133399 0.84375006 6.4504571e-39
0.2375394 0.19133399 0.84625006 6.0802424e-39
0.2350394 0.19383399 0.83875006 6.7274293e-39
0.2350394 0.19383399 0.84125006 7.6508122e-39
0.2350394 0.19633399 0.83875006 6.4530327e-39
0.2350394 0.19633399 0.84125006 9.4032284e-39
0.2375394 0.19383399 0.83875006 6.9118206e-39
0.2375394 0.19383399 0.84125006 6.1763687e-39
0.2375394 0.19633399 0.84125006 7.0068679e-39
0.2350394 0.19383399 0.84375006 9.1270016e-39
0.2350394 0.19383399 0.84625006 8.8493511e-39
0.2350394 0.19633399 0.84375006 8.1117889e-39
0.2375394 0.19383399 0.84375006 5.808717e-39
0.2375394 0.19383399 0.84625006 6.907094e-39
0.2375394 0.19633399 0.84375006 6.913966e-39
0.24003939 0.19133399 0.84375006 1.0322674e-38
0.24003939 0.19133399 0.84625006 1.0782578e-38
0.24003939 0.19383399 0.83875006 1.0042464e-38
0.24003939 0.19633399 0.84125006 1.0778585e-38
0.24003939 0.19383399 0.84375006 1.0047133e-38
0.24003939 0.19633399 0.84375006 9.3988942e-39
0.2525394 0.188834 0.82875007 1.1709183e-38
0.23003939 0.168834 0.84875005 8.7506717e-39
0.23003939 0.168834 0.85125005 8.5716348e-39
0.23003939 0.171334 0.84875005 7.189401e-39
0.23003939 0.171334 0.85125005 7.2826686e-39
0.23253939 0.168834 0.84875005 1.1245323e-38
0.23253939 0.168834 0.85125005 1.1153112e-38
0.23253939 0.171334 0.84875005 9.9552699e-39
0.23253939 0.171334 0.85125005 1.0141092e-38
0.23003939 0.168834 0.85375005 6.911445e-39
0.23003939 0.168834 0.85625005 1.0872973e-38
0.23003939 0.171334 0.85625005 7.4639e-39
0.23253939 0.168834 0.85375005 8.6613095e-39
0.23253939 0.168834 0.85625005 1.1427213e-38
0.23253939 0.171334 0.85375005 7.4659683e-39
0.23253939 0.171334 0.85625005 8.9375685e-39
0.23003939 0.173834 0.84875005 7.1826215e-39
0.23003939 0.173834 0.85125005 7.7379463e-39
0.23253939 0.173834 0.84875005 1.0689283e-38
0.23253939 0.173834 0.85125005 9.6740545e-39
0.23253939 0.17883399 0.85875005 7.4664195e-39
0.23253939 0.17883399 0.86125004 7.8359097e-39
0.23253939 0.18133399 0.86125004 8.7575058e-39
0.23003939 0.17883399 0.86375004 1.0968037e-38
0.23003939 0.18133399 0.86375004 1.1060592e-38
0.23253939 0.17883399 0.86375004 9.3085146e-39
0.23253939 0.18133399 0.86375004 1.0599253e-38
0.23253939 0.18133399 0.86625004 1.0232286e-38
0.23253939 0.186334 0.86125004 1.0230478e-38
0.23253939 0.18383399 0.86375004 1.0231544e-38
0.23253939 0.18383399 0.86625004 1.0230488e-38
0.23253939 0.18133399 0.86875004 1.0415941e-38
0.23253939 0.18133399 0.87125003 1.0323392e-38
0.23253939 0.17883399 0.87375003 9.8624143e-39
0.23253939 0.18133399 0.87375003 1.0599607e-38
0.23253939 0.188834 0.84875005 1.0139346e-38
0.23253939 0.188834 0.85125005 1.0415232e-38
0.23253939 0.19133399 0.84875005 9.8620639e-39
0.23253939 0.19133399 0.85125005 1.1333949e-38
0.23253939 0.188834 0.85625005 1.0690748e-38
0.23003939 0.19383399 0.84875005 1.0598924e-38
0.23253939 0.19383399 0.84875005 1.0600334e-38
0.23253939 0.188834 0.85875005 1.0137226e-38
0.2350394 0.17883399 0.85625005 7.372391e-39
0.2375394 0.17883399 0.85625005 1.1242805e-38
0.2375394 0.186334 0.85625005 7.4659963e-39
0.24003939 0.186334 0.85375005 9.8666896e-39
0.24003939 0.186334 0.85625005 1.0049992e-38
0.2350394 0.17883399 0.85875005 7.0983446e-39
0.2350394 0.17883399 0.86125004 7.0057987e-39
0.2350394 0.18133399 0.86125004 6.3607796e-39
0.2375394 0.17883399 0.86125004 8.0188324e-39
0.2375394 0.18133399 0.86125004 1.077931e-38
0.2350394 0.17883399 0.86375004 6.7299335e-39
0.2350394 0.18133399 0.86375004 5.8079744e-39
0.2350394 0.18133399 0.86625004 8.4820008e-39
0.2375394 0.17883399 0.86375004 1.0415197e-38
0.2375394 0.17883399 0.86625004 7.0054427e-39
0.2375394 0.18133399 0.86375004 1.0133941e-38
0.2375394 0.18133399 0.86625004 6.6377378e-39
0.2350394 0.186334 0.85875005 7.8352216e-39
0.2350394 0.186334 0.86125004 8.940102e-39
0.2375394 0.18383399 0.85875005 9.6740363e-39
0.2375394 0.18383399 0.86125004 8.0199408e-39
0.2375394 0.186334 0.85875005 6.2699713e-39
0.2375394 0.186334 0.86125004 6.9117982e-39
0.2350394 0.18383399 0.86375004 7.8359097e-39
0.2350394 0.18383399 0.86625004 9.7691621e-39
0.2350394 0.186334 0.86375004 1.0415232e-38
0.2375394 0.18383399 0.86375004 8.202537e-39
0.2375394 0.18383399 0.86625004 7.8330538e-39
0.2375394 0.186334 0.86375004 6.5437387e-39
0.24003939 0.17883399 0.86125004 1.0966579e-38
0.24003939 0.18133399 0.86125004 1.0231532e-38
0.24003939 0.18133399 0.86375004 1.0781829e-38
0.24003939 0.18133399 0.86625004 1.0965847e-38
0.24003939 0.18383399 0.86125004 9.4943156e-39
0.24003939 0.186334 0.85875005 6.8210473e-39
0.24003939 0.186334 0.86125004 1.1425051e-38
0.24253939 0.186334 0.85875005 1.1150259e-38
0.24253939 0.186334 0.86125004 1.1150259e-38
0.24003939 0.18383399 0.86375004 1.050489e-38
0.24003939 0.18383399 0.86625004 9.4939596e-39
0.24003939 0.186334 0.86375004 9.9491841e-39
0.24253939 0.18383399 0.86375004 1.1610851e-38
0.24253939 0.18383399 0.86625004 1.0876895e-38
0.24253939 0.186334 0.86375004 1.151615e-38
0.2500394 0.168834 0.84875005 1.0324841e-38
0.2500394 0.168834 0.85125005 8.4834651e-39
0.2500394 0.171334 0.84875005 9.2217462e-39
0.2525394 0.168834 0.85125005 8.3923485e-39
0.2525394 0.171334 0.84875005 7.6536792e-39
0.2525394 0.171334 0.85125005 6.3640418e-39
0.2500394 0.168834 0.85375005 9.0341123e-39
0.2525394 0.168834 0.85375005 7.0090581e-39
0.2525394 0.173834 0.84875005 9.4043396e-39
0.2525394 0.173834 0.85125005 7.3785637e-39
0.2350394 0.17633399 0.86875004 7.2802108e-39
0.2375394 0.17633399 0.87375003 7.4653083e-39
0.2350394 0.17883399 0.86875004 7.4664195e-39
0.2350394 0.17883399 0.87125003 7.4664195e-39
0.2350394 0.18133399 0.86875004 9.9546113e-39
0.2350394 0.18133399 0.87125003 8.755694e-39
0.2375394 0.17883399 0.86875004 8.8450197e-39
0.2375394 0.17883399 0.87125003 7.4664167e-39
0.2375394 0.18133399 0.86875004 7.3748895e-39
0.2350394 0.17883399 0.87375003 8.1103217e-39
0.2350394 0.18133399 0.87375003 1.0323377e-38
0.2375394 0.17883399 0.87375003 9.1226828e-39
0.2350394 0.18383399 0.86875004 1.0415222e-38
0.2375394 0.18383399 0.86875004 5.9923656e-39
0.24003939 0.18133399 0.86875004 1.01404e-38
0.24003939 0.18133399 0.87125003 1.0692137e-38
0.24253939 0.18133399 0.86875004 1.0873674e-38
0.24253939 0.18133399 0.87125003 1.0874383e-38
0.24003939 0.17883399 0.87375003 1.0043168e-38
0.24253939 0.18133399 0.87375003 1.1149187e-38
0.24003939 0.18383399 0.86875004 1.0322647e-38
0.24253939 0.18383399 0.86875004 1.1706311e-38
0.2350394 0.188834 0.84875005 7.3735148e-39
0.2350394 0.188834 0.85125005 6.7299335e-39
0.2350394 0.19133399 0.84875005 7.3749525e-39
0.2350394 0.19133399 0.85125005 8.1092722e-39
0.2375394 0.188834 0.84875005 7.1894837e-39
0.2375394 0.188834 0.85125005 8.8453855e-39
0.2375394 0.19133399 0.84875005 6.4554948e-39
0.2375394 0.19133399 0.85125005 7.0068679e-39
0.2350394 0.188834 0.85375005 7.2798871e-39
0.2350394 0.188834 0.85625005 9.9535603e-39
0.2350394 0.19133399 0.85375005 1.004538e-38
0.2375394 0.188834 0.85375005 6.4497284e-39
0.2375394 0.188834 0.85625005 6.4525955e-39
0.2375394 0.19133399 0.85375005 7.6497191e-39
0.24003939 0.188834 0.84875005 9.7709221e-39
0.24003939 0.188834 0.85125005 9.9567525e-39
0.24003939 0.19133399 0.84875005 7.9266185e-39
0.24003939 0.19133399 0.85125005 1.0691096e-38
0.24003939 0.188834 0.85375005 8.7546192e-39
0.24003939 0.188834 0.85625005 9.1262687e-39
0.2350394 0.188834 0.85875005 1.0048247e-38
0.2375394 0.188834 0.85875005 5.7150725e-39
0.24003939 0.188834 0.85875005 9.6780076e-39
0.24253939 0.188834 0.85875005 1.0599954e-38
0.23003939 0.20883399 0.81375003 1.1336468e-38
0.23253939 0.20883399 0.81375003 1.3270043e-38
0.2350394 0.20883399 0.81375003 1.3178192e-38
0.2375394 0.20883399 0.81375003 1.336224e-38
0.24003939 0.20883399 0.81375003 1.2346266e-38
0.24253939 0.20883399 0.81375003 1.1149891e-38
0.24503939 0.20883399 0.81375003 8.4762176e-39
0.24753939 0.20883399 0.81375003 9.5829351e-39
0.2500394 0.20883399 0.81375003 1.0136459e-38
0.2525394 0.20883399 0.81375003 1.0688187e-38
0.25753939 0.17633399 0.81875002 1.1800322e-38
0.25753939 0.17633399 0.82375008 1.0970561e-38
0.25753939 0.17633399 0.82625008 1.0048245e-38
0.26253939 0.171334 0.82375008 1.179889e-38
0.26253939 0.171334 0.82625008 1.1890382e-38
0.26003939 0.17633399 0.81875002 1.1984356e-38
0.26003939 0.17633399 0.82125002 1.2076551e-38
0.26253939 0.173834 0.82125002 1.2074756e-38
0.26253939 0.17633399 0.81875002 1.161558e-38
0.26253939 0.17633399 0.82125002 1.161558e-38
0.26003939 0.173834 0.82375008 1.2258797e-38
0.26003939 0.173834 0.82625008 1.1983281e-38
0.26003939 0.17633399 0.82375008 1.2353498e-38
0.26003939 0.17633399 0.82625008 1.1062406e-38
0.26253939 0.173834 0.82375008 1.2074756e-38
0.26253939 0.173834 0.82625008 1.2074776e-38
0.26253939 0.17633399 0.82375008 1.1890722e-38
0.25753939 0.17883399 0.81125003 1.1615575e-38
0.25753939 0.18133399 0.80875003 1.1340062e-38
0.25753939 0.18133399 0.81125003 1.1797467e-38
0.25503939 0.18133399 0.81625003 7.0983446e-39
0.25753939 0.17883399 0.81375003 1.1338983e-38
0.25753939 0.17883399 0.81625003 1.1430463e-38
0.25753939 0.18133399 0.81375003 1.1615224e-38
0.25753939 0.18133399 0.81625003 9.7730899e-39
0.25503939 0.186334 0.80875003 6.8214004e-39
0.25753939 0.18383399 0.80875003 1.059893e-38
0.25753939 0.18383399 0.81125003 1.0877675e-38
0.25753939 0.186334 0.80875003 1.0601068e-38
0.25753939 0.186334 0.81125003 6.5448205e-39
0.25503939 0.18383399 0.81375003 6.7281482e-39
0.25503939 0.18383399 0.81625003 7.2809408e-39
0.25503939 0.186334 0.81375003 6.5451863e-39
0.25503939 0.186334 0.81625003 6.6380882e-39
0.25753939 0.18383399 0.81375003 6.9132625e-39
