# .PCD v0.7 - Point Cloud Data file format
VERSION 0.7
FIELDS x y z rgb
SIZE 4 4 4 4
TYPE F F F F
COUNT 1 1 1 1
WIDTH 1013
HEIGHT 1
VIEWPOINT 0 0 0 1 0 0 0
POINTS 1013
DATA ascii
0.051746622 0.14504589 0.90375006 1.2075044e-38
0.051746622 0.14504589 0.90625006 1.2259438e-38
0.051746622 0.14754589 0.90375006 1.3637005e-38
0.051746622 0.14754589 0.90625006 1.4004357e-38
0.054246619 0.14504589 0.90375006 1.5387665e-38
0.054246619 0.14504589 0.90625006 1.5203281e-38
0.054246619 0.14754589 0.90375006 1.603231e-38
0.054246619 0.14754589 0.90625006 1.7689663e-38
0.051746622 0.14504589 0.90875012 1.1708769e-38
0.051746622 0.14754589 0.90875012 1.4005059e-38
0.054246619 0.14504589 0.90875012 1.2074681e-38
0.054246619 0.14754589 0.90875012 1.4833027e-38
0.056746621 0.1400459 0.90375006 1.8890378e-38
0.056746621 0.1400459 0.90625006 1.8335762e-38
0.056746621 0.14254589 0.90375006 1.6581873e-38
0.056746621 0.14254589 0.90625006 1.6031215e-38
0.059246622 0.1400459 0.90375006 1.9074399e-38
0.059246622 0.1400459 0.90625006 1.8523741e-38
0.059246622 0.14254589 0.90375006 1.667407e-38
0.059246622 0.14254589 0.90625006 1.6768066e-38
0.056746621 0.14504589 0.90375006 1.6217779e-38
0.056746621 0.14504589 0.90625006 1.6766987e-38
0.056746621 0.14754589 0.90375006 1.6493287e-38
0.056746621 0.14754589 0.90625006 1.7229758e-38
0.059246622 0.14504589 0.90375006 1.6951379e-38
0.059246622 0.14504589 0.90625006 1.7228686e-38
0.059246622 0.14754589 0.90375006 1.7229042e-38
0.059246622 0.14754589 0.90625006 1.6861334e-38
0.04174662 0.13254589 0.91375011 1.5664619e-38
0.044246621 0.13004589 0.91375011 1.4745187e-38
0.044246621 0.13254589 0.91375011 1.4835571e-38
0.04174662 0.13004589 0.91875011 1.4652991e-38
0.04174662 0.13254589 0.91875011 1.5296549e-38
0.044246621 0.13004589 0.91875011 1.3457335e-38
0.044246621 0.13254589 0.91875011 1.4652979e-38
0.04174662 0.13504589 0.91375011 1.1606241e-38
0.044246621 0.13504589 0.91375011 1.0131776e-38
0.04174662 0.13504589 0.91875011 1.1606547e-38
0.04174662 0.13754588 0.91875011 1.1883155e-38
0.044246621 0.13504589 0.91875011 1.0132496e-38
0.044246621 0.13754588 0.91875011 1.1699124e-38
0.046746619 0.13004589 0.91375011 1.4745187e-38
0.046746619 0.13254589 0.91375011 1.2991302e-38
0.046746619 0.13004589 0.91875011 1.3823231e-38
0.046746619 0.13254589 0.91875011 1.3360441e-38
0.04924662 0.13004589 0.91875011 1.1421866e-38
0.04924662 0.13254589 0.91875011 1.0042117e-38
0.046746619 0.13504589 0.91375011 9.7637138e-39
0.046746619 0.13754588 0.91375011 1.6217032e-38
0.04924662 0.13754588 0.91375011 1.5114345e-38
0.046746619 0.13504589 0.91875011 1.1238842e-38
0.046746619 0.13754588 0.91875011 1.4927391e-38
0.04924662 0.13504589 0.91875011 1.2249421e-38
0.04924662 0.13754588 0.91875011 1.5204013e-38
0.04174662 0.13004589 0.9237501 1.308676e-38
0.046746619 0.13004589 0.9237501 1.3919026e-38
0.04924662 0.13004589 0.9237501 1.4469329e-38
0.04924662 0.13004589 0.9287501 1.4470045e-38
0.04174662 0.1400459 0.91875011 1.2161516e-38
0.04174662 0.14254589 0.91875011 1.2071474e-38
0.044246621 0.1400459 0.91875011 1.0592754e-38
0.044246621 0.14254589 0.91875011 1.1240639e-38
0.04174662 0.14504589 0.91875011 1.0960503e-38
0.04174662 0.14754589 0.91875011 4.2312487e-39
0.044246621 0.14504589 0.91875011 1.3635227e-38
0.044246621 0.14754589 0.91875011 2.5735463e-39
0.046746619 0.14254589 0.91375011 1.3635595e-38
0.04924662 0.1400459 0.91375011 1.640219e-38
0.04924662 0.14254589 0.91375011 1.2717629e-38
0.046746619 0.1400459 0.91875011 1.6215246e-38
0.046746619 0.14254589 0.91875011 1.6305653e-38
0.04924662 0.1400459 0.91875011 1.6309989e-38
0.046746619 0.14504589 0.91375011 1.3732791e-38
0.046746619 0.14754589 0.91375011 1.5935429e-38
0.04924662 0.14504589 0.91375011 1.0885946e-38
0.04924662 0.14754589 0.91375011 1.6494739e-38
0.046746619 0.14504589 0.91875011 1.3732791e-38
0.046746619 0.14754589 0.91875011 6.7208881e-39
0.04174662 0.1400459 0.9237501 1.2989485e-38
0.04174662 0.14254589 0.9237501 1.20704e-38
0.04174662 0.14504589 0.9237501 1.0959799e-38
0.04174662 0.14754589 0.9237501 3.1285053e-39
0.044246621 0.14754589 0.9237501 2.9437581e-39
0.051746622 0.13004589 0.91875011 1.022655e-38
0.051746622 0.13254589 0.91875011 9.3967474e-39
0.051746622 0.13754588 0.91375011 1.2998515e-38
0.054246619 0.13504589 0.91375011 1.3735729e-38
0.054246619 0.13754588 0.91375011 1.272122e-38
0.051746622 0.13504589 0.91875011 1.2802595e-38
0.051746622 0.13754588 0.91875011 1.5204013e-38
0.054246619 0.13504589 0.91875011 1.4926334e-38
0.054246619 0.13754588 0.91875011 1.4007287e-38
0.056746621 0.13504589 0.91375011 1.3091079e-38
0.059246622 0.13504589 0.91375011 1.2906334e-38
0.056746621 0.13504589 0.91875011 1.3551698e-38
0.056746621 0.13754588 0.91875011 1.345771e-38
0.059246622 0.13504589 0.91875011 1.3916523e-38
0.051746622 0.13004589 0.9237501 1.437316e-38
0.051746622 0.13254589 0.9237501 8.9357678e-39
0.054246619 0.13004589 0.9237501 1.4096573e-38
0.054246619 0.13254589 0.9237501 8.750306e-39
0.051746622 0.13004589 0.9287501 1.4928858e-38
0.054246619 0.13004589 0.9287501 1.3915777e-38
0.051746622 0.13504589 0.9237501 1.2901958e-38
0.051746622 0.13754588 0.9237501 1.437643e-38
0.054246619 0.13504589 0.9237501 1.3548028e-38
0.054246619 0.13754588 0.9237501 1.41949e-38
0.056746621 0.13004589 0.9237501 1.2162613e-38
0.056746621 0.13254589 0.9237501 1.0778231e-38
0.059246622 0.13254589 0.9237501 1.1611553e-38
0.056746621 0.13004589 0.9287501 1.0228673e-38
0.056746621 0.13254589 0.9287501 1.0500553e-38
0.059246622 0.13004589 0.9287501 8.1106595e-39
0.059246622 0.13254589 0.9287501 1.1612256e-38
0.056746621 0.13504589 0.9237501 1.4192016e-38
0.059246622 0.13504589 0.9237501 1.3174972e-38
0.059246622 0.13504589 0.9287501 1.2897311e-38
0.051746622 0.1400459 0.91375011 1.5481673e-38
0.051746622 0.14254589 0.91375011 1.6122649e-38
0.051746622 0.1400459 0.91875011 1.6402185e-38
0.054246619 0.1400459 0.91875011 1.3090707e-38
0.051746622 0.1400459 0.9237501 1.3090004e-38
0.06174662 0.12254589 0.9287501 1.3733577e-38
0.06174662 0.1250459 0.9287501 1.4190937e-38
0.06174662 0.12754589 0.9287501 1.3269314e-38
0.064246617 0.1250459 0.9287501 1.4651569e-38
0.064246617 0.12754589 0.9287501 1.105662e-38
0.06174662 0.13754588 0.90125006 1.7603975e-38
0.06174662 0.13254589 0.90875012 1.3734297e-38
0.064246617 0.13254589 0.90875012 1.2352805e-38
0.06174662 0.13504589 0.90625006 1.4379311e-38
0.06174662 0.13754588 0.90375006 1.7879841e-38
0.06174662 0.13754588 0.90625006 1.5760433e-38
0.064246617 0.13504589 0.90625006 1.7050427e-38
0.064246617 0.13754588 0.90375006 1.7412745e-38
0.064246617 0.13754588 0.90625006 1.8611285e-38
0.06174662 0.13504589 0.90875012 1.2353161e-38
0.064246617 0.13504589 0.90875012 1.2260965e-38
0.066746622 0.13254589 0.90875012 1.2443208e-38
0.06924662 0.13254589 0.90875012 1.3273322e-38
0.066746622 0.13754588 0.90375006 1.6951023e-38
0.066746622 0.13754588 0.90625006 1.8981131e-38
0.06924662 0.13754588 0.90375006 1.6766631e-38
0.06924662 0.13754588 0.90625006 1.8611989e-38
0.066746622 0.13504589 0.90875012 1.7878392e-38
0.066746622 0.13754588 0.90875012 1.9718694e-38
0.06924662 0.13504589 0.90875012 1.8062785e-38
0.06924662 0.13754588 0.90875012 1.8520872e-38
0.06174662 0.1400459 0.89875007 1.7228686e-38
0.06174662 0.1400459 0.90125006 1.8706705e-38
0.06174662 0.14254589 0.89875007 1.6585467e-38
0.06174662 0.14254589 0.90125006 1.6493275e-38
0.064246617 0.1400459 0.90125006 1.5394131e-38
0.064246617 0.14254589 0.90125006 1.7136123e-38
0.06174662 0.14504589 0.89875007 1.7321953e-38
0.06174662 0.14504589 0.90125006 1.7598916e-38
0.06174662 0.14754589 0.90125006 1.5017828e-38
0.064246617 0.14504589 0.90125006 1.750635e-38
0.06174662 0.1400459 0.90375006 1.7323771e-38
0.06174662 0.1400459 0.90625006 1.7418866e-38
0.06174662 0.14254589 0.90375006 1.6677663e-38
0.06174662 0.14254589 0.90625006 1.6768785e-38
0.064246617 0.1400459 0.90375006 1.5942269e-38
0.064246617 0.1400459 0.90625006 1.6860294e-38
0.064246617 0.14254589 0.90375006 1.6861334e-38
0.064246617 0.14254589 0.90625006 1.7505982e-38
0.06174662 0.14504589 0.90375006 1.7506703e-38
0.06174662 0.14504589 0.90625006 1.7689663e-38
0.06174662 0.14754589 0.90375006 1.7598916e-38
0.06174662 0.14754589 0.90625006 1.2621453e-38
0.064246617 0.14504589 0.90375006 1.7323388e-38
0.064246617 0.14504589 0.90625006 1.769074e-38
0.064246617 0.14754589 0.90375006 1.732125e-38
0.064246617 0.14754589 0.90625006 8.9304387e-39
0.066746622 0.1400459 0.90375006 1.6491477e-38
0.066746622 0.1400459 0.90625006 1.6860262e-38
0.066746622 0.14254589 0.90375006 1.732125e-38
0.066746622 0.14254589 0.90625006 1.7413446e-38
0.06924662 0.1400459 0.90375006 1.6766985e-38
0.06924662 0.1400459 0.90625006 1.6675868e-38
0.06924662 0.14254589 0.90375006 1.732125e-38
0.06924662 0.14254589 0.90625006 1.732125e-38
0.066746622 0.14504589 0.90375006 1.6124875e-38
0.066746622 0.14504589 0.90625006 1.6217073e-38
0.066746622 0.14754589 0.90375006 1.6860632e-38
0.066746622 0.14754589 0.90625006 7.7339806e-39
0.06924662 0.14504589 0.90375006 1.3911447e-38
0.06924662 0.14504589 0.90625006 1.3635951e-38
0.06924662 0.14754589 0.90625006 1.0966958e-38
0.066746622 0.14754589 0.90875012 1.3364757e-38
0.06924662 0.14504589 0.90875012 1.4278798e-38
0.06924662 0.14754589 0.90875012 1.0783282e-38
0.071746618 0.13254589 0.90875012 1.5394131e-38
0.074246623 0.13254589 0.90875012 1.7235153e-38
0.071746618 0.13504589 0.90875012 1.6585875e-38
0.071746618 0.13754588 0.90875012 1.5849367e-38
0.074246623 0.13504589 0.90875012 1.8704538e-38
0.074246623 0.13754588 0.90875012 1.6765547e-38
0.07674662 0.13754588 0.90875012 1.6764466e-38
0.079246618 0.13754588 0.90875012 1.6401076e-38
0.071746618 0.1400459 0.90625006 1.6768414e-38
0.071746618 0.14254589 0.90625006 1.778186e-38
0.071746618 0.1400459 0.90875012 1.7044999e-38
0.071746618 0.14254589 0.90875012 1.7967323e-38
0.074246623 0.1400459 0.90875012 1.7320881e-38
0.074246623 0.14254589 0.90875012 1.7690719e-38
0.071746618 0.14504589 0.90625006 8.8360724e-39
0.071746618 0.14754589 0.90625006 7.9255746e-39
0.071746618 0.14504589 0.90875012 8.2850665e-39
0.071746618 0.14754589 0.90875012 7.5571522e-39
0.074246623 0.14504589 0.90875012 1.547769e-38
0.07674662 0.1400459 0.90875012 1.7133969e-38
0.07674662 0.14254589 0.90875012 1.1693061e-38
0.079246618 0.1400459 0.90875012 1.7687493e-38
0.079246618 0.14254589 0.90875012 1.0130017e-38
0.07674662 0.14504589 0.90875012 8.7599973e-39
0.06174662 0.13254589 0.91375011 1.373465e-38
0.064246617 0.13254589 0.91375011 1.2997081e-38
0.064246617 0.13254589 0.91875011 1.345771e-38
0.06174662 0.13504589 0.91375011 1.309001e-38
0.064246617 0.13504589 0.91375011 1.2813064e-38
0.066746622 0.13254589 0.91375011 1.2997808e-38
0.06924662 0.13254589 0.91375011 1.3733947e-38
0.066746622 0.13254589 0.91875011 1.2996731e-38
0.06924662 0.13254589 0.91875011 1.391617e-38
0.066746622 0.13504589 0.91375011 1.2814136e-38
0.06924662 0.13504589 0.91375011 1.3550629e-38
0.06924662 0.13504589 0.91875011 1.2997455e-38
0.06174662 0.13254589 0.9237501 1.3734998e-38
0.064246617 0.13254589 0.9237501 1.4102322e-38
0.06174662 0.13004589 0.9287501 9.1208681e-39
0.06174662 0.13254589 0.9287501 1.4561485e-38
0.064246617 0.13004589 0.9287501 1.0226856e-38
0.064246617 0.13254589 0.9287501 1.4653682e-38
0.06174662 0.13504589 0.9237501 1.3827193e-38
0.064246617 0.13504589 0.9237501 1.3642801e-38
0.06174662 0.13504589 0.9287501 1.5109652e-38
0.064246617 0.13504589 0.9287501 1.3827193e-38
0.066746622 0.13254589 0.9237501 1.4100916e-38
0.06924662 0.13254589 0.9237501 1.4190959e-38
0.066746622 0.13004589 0.9287501 1.326682e-38
0.066746622 0.13254589 0.9287501 1.4377143e-38
0.06924662 0.13004589 0.9287501 1.4740874e-38
0.06924662 0.13254589 0.9287501 1.3823975e-38
0.06924662 0.13504589 0.9237501 1.2628315e-38
0.06924662 0.13504589 0.9287501 1.2352805e-38
0.071746618 0.13254589 0.91375011 1.5760065e-38
0.074246623 0.13254589 0.91375011 1.2445707e-38
0.071746618 0.13004589 0.91875011 1.2997455e-38
0.071746618 0.13254589 0.91875011 1.4288194e-38
0.074246623 0.13004589 0.91875011 1.2352807e-38
0.074246623 0.13254589 0.91875011 1.2537202e-38
0.071746618 0.13504589 0.91375011 1.7507812e-38
0.074246623 0.13504589 0.91375011 1.8888585e-38
0.074246623 0.13754588 0.91375011 1.7044297e-38
0.07674662 0.13254589 0.91375011 1.7603935e-38
0.079246618 0.13254589 0.91375011 1.6867481e-38
0.07674662 0.13004589 0.91875011 1.2352807e-38
0.07674662 0.13254589 0.91875011 1.3275467e-38
0.079246618 0.13004589 0.91875011 1.4377146e-38
0.079246618 0.13254589 0.91875011 1.6772787e-38
0.07674662 0.13504589 0.91375011 1.713794e-38
0.07674662 0.13754588 0.91375011 1.6767338e-38
0.079246618 0.13504589 0.91375011 1.6584767e-38
0.079246618 0.13754588 0.91375011 1.6856662e-38
0.07674662 0.13504589 0.91875011 1.7787273e-38
0.079246618 0.13504589 0.91875011 1.6771696e-38
0.071746618 0.13254589 0.9237501 1.3274038e-38
0.071746618 0.13004589 0.9287501 1.3918326e-38
0.071746618 0.13254589 0.9287501 1.2997455e-38
0.074246623 0.13004589 0.9287501 1.3365868e-38
0.074246623 0.13254589 0.9287501 1.281306e-38
0.071746618 0.13504589 0.9237501 1.2720511e-38
0.071746618 0.13504589 0.9287501 1.2906334e-38
0.07674662 0.13254589 0.9237501 1.2905978e-38
0.079246618 0.13004589 0.9237501 1.2352442e-38
0.079246618 0.13254589 0.9237501 1.4011943e-38
0.07674662 0.13004589 0.9287501 1.2813416e-38
0.07674662 0.13254589 0.9287501 1.2445359e-38
0.079246618 0.13004589 0.9287501 1.2628669e-38
0.071746618 0.14254589 0.91375011 1.8243914e-38
0.074246623 0.14254589 0.91375011 1.7414152e-38
0.071746618 0.14504589 0.91375011 1.7228686e-38
0.071746618 0.14754589 0.91375011 8.3768922e-39
0.074246623 0.14504589 0.91375011 1.4926319e-38
0.074246623 0.14754589 0.91375011 8.1002226e-39
0.074246623 0.14754589 0.91875011 8.1949265e-39
0.07674662 0.1400459 0.91375011 1.6951376e-38
0.07674662 0.14254589 0.91375011 1.1878876e-38
0.079246618 0.1400459 0.91375011 1.7318719e-38
0.079246618 0.14254589 0.91375011 1.031191e-38
0.07674662 0.14504589 0.91375011 8.6656633e-39
0.07674662 0.14754589 0.91375011 8.008027e-39
0.079246618 0.14504589 0.91375011 4.7030309e-39
0.07674662 0.14504589 0.91875011 1.363558e-38
0.07674662 0.14754589 0.91875011 8.1023722e-39
0.079246618 0.14504589 0.91875011 5.2547852e-39
0.079246618 0.14754589 0.91875011 7.734359e-39
0.079246618 0.14754589 0.9237501 7.4609895e-39
0.054246619 0.12254589 0.93375009 1.4007287e-38
0.056746621 0.12254589 0.93375009 1.3641381e-38
0.059246622 0.12254589 0.93375009 1.3181123e-38
0.059246622 0.1250459 0.93375009 1.3641379e-38
0.059246622 0.12754589 0.93375009 1.50207e-38
0.066746622 0.11754589 0.94625008 1.4096616e-38
0.06924662 0.11504589 0.94625008 1.8613777e-38
0.06924662 0.11754589 0.94375008 1.3362997e-38
0.06924662 0.11754589 0.94625008 1.373033e-38
0.06924662 0.11754589 0.94875008 1.8613794e-38
0.06174662 0.12004589 0.93375009 1.3088558e-38
0.06174662 0.12254589 0.93375009 1.3916168e-38
0.064246617 0.12004589 0.93375009 1.3180755e-38
0.064246617 0.12254589 0.93375009 1.3916168e-38
0.06174662 0.12004589 0.93875009 1.7509614e-38
0.064246617 0.12004589 0.93875009 1.2446057e-38
0.06174662 0.1250459 0.93375009 1.3824325e-38
0.06174662 0.12754589 0.93375009 1.3547675e-38
0.064246617 0.1250459 0.93375009 1.456008e-38
0.064246617 0.12754589 0.93375009 1.1889271e-38
0.066746622 0.12004589 0.93375009 1.290526e-38
0.066746622 0.12254589 0.93375009 1.4377483e-38
0.06924662 0.12004589 0.93375009 1.3365515e-38
0.06924662 0.12254589 0.93375009 1.3730665e-38
0.066746622 0.12004589 0.93875009 1.3090004e-38
0.066746622 0.12254589 0.93875009 1.3273669e-38
0.06924662 0.12004589 0.93875009 1.3365871e-38
0.06924662 0.12254589 0.93875009 1.3090707e-38
0.066746622 0.1250459 0.93375009 1.5113249e-38
0.066746622 0.12754589 0.93375009 8.847891e-39
0.06924662 0.1250459 0.93375009 1.2993082e-38
0.06924662 0.12754589 0.93375009 8.844277e-39
0.066746622 0.1250459 0.93875009 1.4101617e-38
0.06924662 0.1250459 0.93875009 1.4009047e-38
0.064246617 0.12004589 0.94375008 1.3089631e-38
0.066746622 0.12004589 0.94375008 1.1892182e-38
0.06924662 0.12004589 0.94375008 1.281305e-38
0.06924662 0.12004589 0.94625008 1.2352439e-38
0.06924662 0.12254589 0.94375008 1.3274023e-38
0.066746622 0.12004589 0.94875008 1.3545593e-38
0.06924662 0.12004589 0.94875008 1.3453397e-38
0.071746618 0.11504589 0.94625008 1.7138288e-38
0.071746618 0.11754589 0.94375008 1.3546665e-38
0.071746618 0.11754589 0.94625008 1.4006918e-38
0.074246623 0.11754589 0.94375008 1.3272603e-38
0.074246623 0.11754589 0.94625008 1.3642085e-38
0.071746618 0.11504589 0.94875008 1.695319e-38
0.071746618 0.11754589 0.94875008 1.474519e-38
0.074246623 0.11754589 0.94875008 1.2168384e-38
0.07674662 0.11754589 0.94375008 1.3641376e-38
0.07674662 0.11754589 0.94625008 1.3089278e-38
0.079246618 0.11754589 0.94375008 1.3918323e-38
0.079246618 0.11754589 0.94625008 1.3824325e-38
0.07674662 0.11504589 0.94875008 1.3544142e-38
0.07674662 0.11504589 0.95125008 1.3817861e-38
0.07674662 0.11754589 0.94875008 1.170707e-38
0.079246618 0.11504589 0.94875008 1.4005119e-38
0.079246618 0.11754589 0.94875008 1.2628666e-38
0.071746618 0.12254589 0.93375009 1.1422939e-38
0.071746618 0.12004589 0.93875009 1.3365871e-38
0.071746618 0.12254589 0.93875009 1.2998512e-38
0.074246623 0.12004589 0.93875009 1.410162e-38
0.074246623 0.12254589 0.93875009 1.4376403e-38
0.071746618 0.1250459 0.93375009 1.0870077e-38
0.071746618 0.12754589 0.93375009 1.105232e-38
0.074246623 0.12754589 0.93375009 1.2343059e-38
0.071746618 0.1250459 0.93875009 1.2900904e-38
0.071746618 0.12754589 0.93875009 9.6708175e-39
0.074246623 0.1250459 0.93875009 9.9484806e-39
0.074246623 0.12754589 0.93875009 1.1145569e-38
0.07674662 0.12254589 0.93875009 1.3912542e-38
0.079246618 0.12254589 0.93875009 1.3635595e-38
0.07674662 0.12754589 0.93375009 1.511e-38
0.079246618 0.12754589 0.93375009 1.3458063e-38
0.07674662 0.1250459 0.93875009 8.8435708e-39
0.07674662 0.12754589 0.93875009 1.2440941e-38
0.079246618 0.1250459 0.93875009 1.0038527e-38
0.079246618 0.12754589 0.93875009 1.3914723e-38
0.071746618 0.12004589 0.94375008 1.2629748e-38
0.071746618 0.12004589 0.94625008 1.3089278e-38
0.071746618 0.12254589 0.94375008 1.3457335e-38
0.074246623 0.12004589 0.94375008 1.2905613e-38
0.074246623 0.12004589 0.94625008 1.3642082e-38
0.074246623 0.12254589 0.94375008 1.410162e-38
0.074246623 0.12254589 0.94625008 1.4560798e-38
0.071746618 0.12004589 0.94875008 1.3180402e-38
0.07674662 0.12004589 0.94375008 1.373428e-38
0.07674662 0.12004589 0.94625008 1.3272951e-38
0.07674662 0.12254589 0.94375008 1.3820359e-38
0.07674662 0.12254589 0.94625008 1.4467524e-38
0.079246618 0.12004589 0.94375008 1.3457335e-38
0.079246618 0.12004589 0.94625008 1.382251e-38
0.079246618 0.12254589 0.94375008 1.2162954e-38
0.079246618 0.12254589 0.94625008 1.2162613e-38
0.07674662 0.12004589 0.94875008 1.3365515e-38
0.07674662 0.1250459 0.94375008 9.763732e-39
0.079246618 0.1250459 0.94375008 9.6718685e-39
0.079246618 0.12754589 0.94375008 1.4374965e-38
0.066746622 0.13004589 0.93375009 1.1701265e-38
0.06924662 0.13004589 0.93375009 1.345334e-38
0.06924662 0.13254589 0.93375009 1.4377499e-38
0.06924662 0.13504589 0.93375009 1.2905613e-38
0.071746618 0.13004589 0.93375009 1.4559373e-38
0.071746618 0.13254589 0.93375009 1.4007287e-38
0.074246623 0.13004589 0.93375009 1.4559373e-38
0.074246623 0.13254589 0.93375009 1.244464e-38
0.071746618 0.13004589 0.93875009 1.0408029e-38
0.074246623 0.13004589 0.93875009 1.2618557e-38
0.074246623 0.13254589 0.93875009 1.373393e-38
0.071746618 0.13504589 0.93375009 1.3090723e-38
0.07674662 0.13004589 0.93375009 1.400764e-38
0.07674662 0.13254589 0.93375009 1.2905613e-38
0.079246618 0.13004589 0.93375009 1.3088928e-38
0.07674662 0.13004589 0.93875009 1.4003292e-38
0.07674662 0.13254589 0.93875009 1.3366589e-38
0.079246618 0.13004589 0.93875009 1.5109281e-38
0.07674662 0.13504589 0.93875009 1.2629748e-38
0.099246621 0.10754589 0.95625007 1.2902716e-38
0.099246621 0.10754589 0.95875007 1.1984356e-38
0.099246621 0.10754589 0.96125007 1.3549536e-38
0.10174662 0.10754589 0.95875007 1.1984003e-38
0.10174662 0.10754589 0.96125007 1.2536089e-38
0.10424662 0.10754589 0.96125007 1.2721205e-38
0.10174662 0.10754589 0.96625006 1.4096946e-38
0.10424662 0.10754589 0.96375006 1.3177494e-38
0.10424662 0.10754589 0.96625006 1.3728164e-38
0.10674662 0.10754589 0.96375006 1.3362255e-38
0.10674662 0.10754589 0.96625006 1.3084592e-38
0.10924662 0.10504589 0.96625006 1.8887121e-38
0.10924662 0.10754589 0.96625006 1.4094783e-38
0.10674662 0.10504589 0.96875006 1.6495442e-38
0.10674662 0.10754589 0.96875006 1.3913274e-38
0.10924662 0.10504589 0.96875006 1.8702018e-38
0.10924662 0.10754589 0.96875006 1.455611e-38
0.11174662 0.10754589 0.96125007 1.6305262e-38
0.11424662 0.10754589 0.95875007 1.9808364e-38
0.11424662 0.10754589 0.96125007 1.8332147e-38
0.11674662 0.10754589 0.95875007 1.9808364e-38
0.11674662 0.10754589 0.96125007 1.9805124e-38
0.11174662 0.10504589 0.96625006 2.0270056e-38
0.11174662 0.10754589 0.96375006 1.7873708e-38
0.11174662 0.10754589 0.96625006 1.6307118e-38
0.11424662 0.10754589 0.96375006 1.9441033e-38
0.11174662 0.10504589 0.96875006 2.0177507e-38
0.089246623 0.12754589 0.9237501 1.6590506e-38
0.086746618 0.12754589 0.9287501 1.2628669e-38
0.089246623 0.12754589 0.9287501 1.2353145e-38
0.091746621 0.12754589 0.9237501 1.6773844e-38
0.094246618 0.12754589 0.9237501 1.6214559e-38
0.091746621 0.12754589 0.9287501 1.3639565e-38
0.094246618 0.1250459 0.9287501 1.4836304e-38
0.094246618 0.12754589 0.9287501 1.639895e-38
0.096746624 0.12754589 0.9237501 1.6306755e-38
0.099246621 0.12754589 0.9237501 1.73216e-38
0.096746624 0.1250459 0.9287501 1.5297642e-38
0.096746624 0.12754589 0.9287501 1.6675177e-38
0.099246621 0.1250459 0.9287501 1.6219929e-38
0.099246621 0.12754589 0.9287501 1.6768785e-38
0.081746623 0.13254589 0.91375011 1.815209e-38
0.084246621 0.13254589 0.91375011 1.7598565e-38
0.081746623 0.13004589 0.91875011 1.2443909e-38
0.081746623 0.13254589 0.91875011 1.79677e-38
0.084246621 0.13004589 0.91875011 1.2536104e-38
0.084246621 0.13254589 0.91875011 1.686461e-38
0.081746623 0.13504589 0.91375011 1.6215613e-38
0.081746623 0.13754588 0.91375011 1.6858827e-38
0.084246621 0.13504589 0.91375011 1.6122694e-38
0.084246621 0.13754588 0.91375011 1.6860262e-38
0.081746623 0.13504589 0.91875011 1.6767713e-38
0.084246621 0.13504589 0.91875011 1.6398205e-38
0.086746618 0.13254589 0.91875011 1.5572763e-38
0.089246623 0.13254589 0.91875011 1.5203982e-38
0.086746618 0.13504589 0.91875011 1.6122694e-38
0.086746618 0.13754588 0.91875011 1.6861331e-38
0.089246623 0.13504589 0.91875011 1.5754991e-38
0.089246623 0.13754588 0.91875011 1.5754985e-38
0.081746623 0.13004589 0.9237501 1.1433347e-38
0.084246621 0.13004589 0.9237501 1.3824325e-38
0.081746623 0.13004589 0.9287501 1.2353161e-38
0.084246621 0.13004589 0.9287501 1.2260965e-38
0.086746618 0.13004589 0.9237501 1.5299455e-38
0.086746618 0.13254589 0.9237501 1.6311436e-38
0.089246623 0.13004589 0.9237501 1.7323768e-38
0.089246623 0.13254589 0.9237501 1.5571704e-38
0.086746618 0.13004589 0.9287501 1.4379667e-38
0.089246623 0.13004589 0.9287501 1.594514e-38
0.089246623 0.13754588 0.9237501 1.5940804e-38
0.081746623 0.1400459 0.91375011 1.5570241e-38
0.081746623 0.14254589 0.91375011 6.9952987e-39
0.084246621 0.1400459 0.91375011 1.2806561e-38
0.084246621 0.14254589 0.91375011 9.1291652e-39
0.084246621 0.1400459 0.91875011 1.2988804e-38
0.084246621 0.14254589 0.91875011 8.9451215e-39
0.081746623 0.14504589 0.91875011 6.3510111e-39
0.081746623 0.14754589 0.91875011 7.460286e-39
0.084246621 0.14504589 0.91875011 7.3684407e-39
0.084246621 0.14754589 0.91875011 8.8396289e-39
0.086746618 0.1400459 0.91875011 6.9935695e-39
0.086746618 0.14254589 0.91875011 5.1647531e-39
0.089246623 0.1400459 0.91875011 1.5293296e-38
0.086746618 0.14504589 0.91875011 6.9996596e-39
0.081746623 0.14754589 0.9237501 7.7357785e-39
0.084246621 0.14754589 0.9237501 8.6580949e-39
0.084246621 0.14754589 0.9287501 8.1949364e-39
0.089246623 0.1400459 0.9237501 1.4835192e-38
0.089246623 0.14254589 0.9237501 6.5371947e-39
0.086746618 0.14504589 0.9237501 8.1055952e-39
0.086746618 0.14754589 0.9237501 9.2069051e-39
0.089246623 0.14504589 0.9237501 7.3698476e-39
0.086746618 0.14754589 0.9287501 8.287841e-39
0.089246623 0.14504589 0.9287501 6.9978603e-39
0.089246623 0.14754589 0.9287501 8.1059875e-39
0.091746621 0.13254589 0.91875011 1.5753556e-38
0.091746621 0.13504589 0.91875011 1.5475893e-38
0.091746621 0.13754588 0.91875011 1.5662086e-38
0.091746621 0.13004589 0.9237501 1.6957146e-38
0.091746621 0.13254589 0.9237501 1.5387294e-38
0.094246618 0.13004589 0.9237501 1.4101968e-38
0.094246618 0.13254589 0.9237501 1.6214537e-38
0.091746621 0.13504589 0.9237501 1.5569873e-38
0.091746621 0.13754588 0.9237501 1.4464983e-38
0.094246618 0.13504589 0.9237501 1.6122694e-38
0.094246618 0.13754588 0.9237501 1.2252648e-38
0.096746624 0.13004589 0.9237501 1.3825382e-38
0.096746624 0.13254589 0.9237501 1.6218132e-38
0.099246621 0.13004589 0.9237501 1.4927025e-38
0.099246621 0.13254589 0.9237501 1.5939019e-38
0.099246621 0.13004589 0.9287501 1.4555366e-38
0.099246621 0.13254589 0.9287501 1.6583667e-38
0.096746624 0.13504589 0.9237501 1.6675868e-38
0.096746624 0.13754588 0.9237501 1.6030145e-38
0.099246621 0.13504589 0.9237501 1.2988413e-38
0.099246621 0.13754588 0.9237501 1.280835e-38
0.096746624 0.13754588 0.9287501 1.5754284e-38
0.099246621 0.13504589 0.9287501 1.2805469e-38
0.099246621 0.13754588 0.9287501 1.0410901e-38
0.091746621 0.1400459 0.91875011 1.152228e-38
0.091746621 0.1400459 0.9237501 1.1521567e-38
0.091746621 0.14254589 0.9237501 7.5495992e-39
0.094246618 0.1400459 0.9237501 8.8478938e-39
0.094246618 0.14254589 0.9237501 8.1949209e-39
0.091746621 0.14254589 0.9287501 7.1818606e-39
0.094246618 0.1400459 0.9287501 5.9901572e-39
0.094246618 0.14254589 0.9287501 7.2758317e-39
0.091746621 0.14504589 0.9287501 9.0279242e-39
0.091746621 0.14754589 0.9287501 8.7513569e-39
0.094246618 0.14504589 0.9287501 1.0964032e-38
0.096746624 0.1400459 0.9287501 4.6994184e-39
0.096746624 0.14254589 0.9287501 7.0939712e-39
0.099246621 0.1400459 0.9287501 7.0867937e-39
0.10174662 0.1250459 0.9287501 1.4929208e-38
0.10174662 0.12754589 0.9287501 1.5018886e-38
0.10424662 0.12754589 0.9287501 1.5202195e-38
0.10174662 0.13004589 0.9287501 1.5385129e-38
0.10174662 0.13254589 0.9287501 1.6215246e-38
0.10424662 0.13004589 0.9287501 1.5385129e-38
0.10424662 0.13254589 0.9287501 1.6491474e-38
0.10174662 0.13504589 0.9287501 9.2970534e-39
0.10174662 0.13754588 0.9287501 6.8181354e-39
0.10424662 0.13504589 0.9287501 7.5453364e-39
0.081746623 0.11754589 0.94375008 1.3916871e-38
0.081746623 0.11754589 0.94625008 1.3639934e-38
0.084246621 0.11754589 0.94375008 1.4375679e-38
0.084246621 0.11754589 0.94625008 1.4282432e-38
0.081746623 0.11504589 0.94875008 1.3088205e-38
0.081746623 0.11504589 0.95125008 1.3547385e-38
0.081746623 0.11754589 0.94875008 1.3181121e-38
0.081746623 0.11754589 0.95125008 1.3272956e-38
0.084246621 0.11504589 0.94875008 1.354953e-38
0.084246621 0.11504589 0.95125008 1.3088925e-38
0.084246621 0.11754589 0.94875008 1.3549886e-38
0.084246621 0.11754589 0.95125008 1.3272956e-38
0.086746618 0.11254589 0.95125008 1.2993492e-38
0.089246623 0.11254589 0.95125008 1.3546665e-38
0.086746618 0.11754589 0.94625008 1.2994549e-38
0.086746618 0.11504589 0.94875008 1.3823972e-38
0.086746618 0.11504589 0.95125008 1.3549536e-38
0.086746618 0.11754589 0.94875008 1.3089261e-38
0.086746618 0.11754589 0.95125008 1.3180402e-38
0.089246623 0.11504589 0.94875008 1.3731776e-38
0.089246623 0.11504589 0.95125008 1.3272951e-38
0.089246623 0.11754589 0.94875008 1.3457685e-38
0.089246623 0.11754589 0.95125008 1.3548083e-38
0.081746623 0.12754589 0.93375009 1.2723738e-38
0.081746623 0.1250459 0.93875009 1.1421462e-38
0.081746623 0.12754589 0.93875009 1.4467897e-38
0.084246621 0.1250459 0.93875009 1.4186248e-38
0.084246621 0.12754589 0.93875009 1.4284947e-38
0.086746618 0.12754589 0.93375009 1.281306e-38
0.089246623 0.1250459 0.93375009 1.327547e-38
0.089246623 0.12754589 0.93375009 1.2995659e-38
0.086746618 0.1250459 0.93875009 1.4375694e-38
0.086746618 0.12754589 0.93875009 1.3180405e-38
0.089246623 0.1250459 0.93875009 1.400831e-38
0.089246623 0.12754589 0.93875009 1.2537199e-38
0.081746623 0.12004589 0.94375008 1.4375684e-38
0.081746623 0.12004589 0.94625008 1.4283488e-38
0.081746623 0.12254589 0.94375008 1.0872215e-38
0.081746623 0.12254589 0.94625008 1.1609441e-38
0.084246621 0.12004589 0.94375008 1.4741943e-38
0.084246621 0.12004589 0.94625008 1.455828e-38
0.084246621 0.12254589 0.94375008 7.9259305e-39
0.084246621 0.12254589 0.94625008 7.6497037e-39
0.081746623 0.12004589 0.94875008 1.3824325e-38
0.084246621 0.12004589 0.94875008 1.4560077e-38
0.081746623 0.1250459 0.94375008 1.0225042e-38
0.081746623 0.12754589 0.94375008 1.5296561e-38
0.084246621 0.1250459 0.94375008 1.2163673e-38
0.084246621 0.12754589 0.94375008 1.3824328e-38
0.086746618 0.12004589 0.94625008 1.225733e-38
0.086746618 0.12254589 0.94375008 8.6591795e-39
0.086746618 0.12254589 0.94625008 8.657739e-39
0.089246623 0.12004589 0.94625008 1.0782182e-38
0.089246623 0.12254589 0.94375008 1.0226507e-38
0.089246623 0.12254589 0.94625008 1.0409455e-38
0.086746618 0.12004589 0.94875008 1.2073286e-38
0.086746618 0.12254589 0.94875008 9.1212185e-39
0.089246623 0.12004589 0.94875008 1.0229732e-38
0.089246623 0.12004589 0.95125008 1.1796353e-38
0.089246623 0.12254589 0.94875008 9.3038119e-39
0.086746618 0.1250459 0.94375008 1.3822858e-38
0.086746618 0.1250459 0.94625008 1.363952e-38
0.086746618 0.12754589 0.94375008 1.4375331e-38
0.089246623 0.1250459 0.94375008 1.4283836e-38
0.089246623 0.1250459 0.94625008 1.4375694e-38
0.089246623 0.12754589 0.94375008 1.3090007e-38
0.086746618 0.1250459 0.94875008 8.3832975e-39
0.089246623 0.1250459 0.94875008 1.0684611e-38
0.091746621 0.11254589 0.95125008 1.3181108e-38
0.091746621 0.11504589 0.94875008 1.3917224e-38
0.091746621 0.11504589 0.95125008 1.3825028e-38
0.091746621 0.11754589 0.94875008 1.382466e-38
0.091746621 0.11754589 0.95125008 1.3732114e-38
0.094246618 0.11504589 0.95125008 1.3730315e-38
0.094246618 0.11754589 0.95125008 1.2350246e-38
0.096746624 0.11504589 0.95125008 1.1240682e-38
0.096746624 0.11754589 0.95125008 1.050524e-38
0.099246621 0.11504589 0.95125008 1.0595313e-38
0.099246621 0.11754589 0.95125008 9.5836441e-39
0.094246618 0.12254589 0.93375009 1.3547385e-38
0.094246618 0.12254589 0.93875009 1.5663905e-38
0.091746621 0.1250459 0.93375009 1.2353161e-38
0.091746621 0.12754589 0.93375009 1.2720145e-38
0.094246618 0.1250459 0.93375009 1.2628669e-38
0.091746621 0.1250459 0.93875009 1.3731776e-38
0.091746621 0.12754589 0.93875009 1.2352807e-38
0.094246618 0.1250459 0.93875009 1.3639578e-38
0.096746624 0.12254589 0.93375009 1.2903813e-38
0.099246621 0.12254589 0.93375009 1.2812341e-38
0.096746624 0.12254589 0.93875009 1.3826124e-38
0.099246621 0.12254589 0.93875009 1.3273316e-38
0.096746624 0.1250459 0.93375009 1.2904161e-38
0.099246621 0.1250459 0.93375009 1.2169097e-38
0.096746624 0.1250459 0.93875009 1.3547738e-38
0.094246618 0.12254589 0.94375008 1.5388744e-38
0.091746621 0.12004589 0.94875008 9.0279691e-39
0.091746621 0.12004589 0.95125008 8.8432653e-39
0.091746621 0.12254589 0.94875008 1.1884589e-38
0.091746621 0.12254589 0.95125008 9.7651585e-39
0.094246618 0.12004589 0.94875008 9.3938551e-39
0.094246618 0.12004589 0.95125008 8.7506563e-39
0.094246618 0.12254589 0.94875008 1.3638778e-38
0.094246618 0.12254589 0.95125008 1.2994504e-38
0.091746621 0.1250459 0.94625008 1.4285654e-38
0.091746621 0.12754589 0.94375008 1.2905616e-38
0.094246618 0.1250459 0.94625008 1.3916523e-38
0.094246618 0.12754589 0.94375008 1.3181474e-38
0.094246618 0.12754589 0.94625008 1.3458419e-38
0.091746621 0.1250459 0.94875008 1.4377499e-38
0.091746621 0.1250459 0.95125008 1.2990576e-38
0.094246618 0.1250459 0.94875008 1.3729596e-38
0.094246618 0.12754589 0.94875008 1.3181474e-38
0.096746624 0.12254589 0.94375008 1.4467897e-38
0.099246621 0.12254589 0.94375008 1.3824675e-38
0.099246621 0.12254589 0.94625008 1.4008716e-38
0.096746624 0.12004589 0.94875008 1.0319406e-38
0.096746624 0.12004589 0.95125008 1.1052673e-38
0.096746624 0.12254589 0.94875008 1.4467524e-38
0.096746624 0.12254589 0.95125008 1.4559726e-38
0.099246621 0.12004589 0.94875008 1.1149525e-38
0.099246621 0.12004589 0.95125008 1.2251216e-38
0.099246621 0.12254589 0.94875008 1.4559726e-38
0.099246621 0.12254589 0.95125008 1.5020698e-38
0.096746624 0.1250459 0.94875008 1.4743389e-38
0.096746624 0.1250459 0.95125008 1.4285298e-38
0.096746624 0.12754589 0.95125008 1.3089278e-38
0.084246621 0.11254589 0.95375007 1.3635991e-38
0.084246621 0.11254589 0.95625007 1.3635612e-38
0.084246621 0.11504589 0.95375007 1.2352059e-38
0.086746618 0.11254589 0.95375007 1.308711e-38
0.086746618 0.11254589 0.95625007 1.2717955e-38
0.089246623 0.11254589 0.95375007 1.3364056e-38
0.089246623 0.11254589 0.95625007 1.3457688e-38
0.089246623 0.11254589 0.95875007 1.4376047e-38
0.089246623 0.11254589 0.96125007 1.3363347e-38
0.086746618 0.11504589 0.95375007 1.2629006e-38
0.089246623 0.11504589 0.95375007 1.3547385e-38
0.091746621 0.11254589 0.95375007 1.3089631e-38
0.091746621 0.11254589 0.95625007 1.3089278e-38
0.094246618 0.11254589 0.95625007 1.354953e-38
0.091746621 0.11254589 0.95875007 1.180069e-38
0.091746621 0.11254589 0.96125007 1.2259148e-38
0.094246618 0.11004589 0.95875007 1.3729243e-38
0.094246618 0.11004589 0.96125007 1.3728539e-38
0.094246618 0.11254589 0.95875007 1.2536104e-38
0.094246618 0.11254589 0.96125007 1.2166949e-38
0.091746621 0.11504589 0.95375007 1.3917224e-38
0.091746621 0.11754589 0.95375007 1.3915407e-38
0.094246618 0.11504589 0.95375007 1.3823917e-38
0.094246618 0.11504589 0.95625007 1.373248e-38
0.094246618 0.11754589 0.95375007 1.2532828e-38
0.094246618 0.11754589 0.95625007 1.4100889e-38
0.096746624 0.11254589 0.95375007 1.410162e-38
0.096746624 0.11254589 0.95625007 1.3273304e-38
0.099246621 0.11004589 0.95375007 1.3272951e-38
0.099246621 0.11004589 0.95625007 1.3548088e-38
0.099246621 0.11254589 0.95375007 1.3824675e-38
0.099246621 0.11254589 0.95625007 1.4283133e-38
0.096746624 0.11004589 0.95875007 1.3729243e-38
0.096746624 0.11004589 0.96125007 1.3912924e-38
0.096746624 0.11254589 0.95875007 1.26283e-38
0.096746624 0.11254589 0.96125007 1.4010887e-38
0.099246621 0.11004589 0.95875007 1.3364056e-38
0.099246621 0.11004589 0.96125007 1.3364056e-38
0.099246621 0.11254589 0.95875007 1.4007988e-38
0.096746624 0.11504589 0.95375007 1.1792055e-38
0.096746624 0.11504589 0.95625007 1.3271858e-38
0.096746624 0.11754589 0.95375007 1.2440274e-38
0.096746624 0.11754589 0.95625007 1.2900904e-38
0.099246621 0.11504589 0.95375007 1.105449e-38
0.099246621 0.11504589 0.95625007 1.4007256e-38
0.099246621 0.11754589 0.95375007 9.3988942e-39
0.099246621 0.11754589 0.95625007 1.0685711e-38
0.099246621 0.11004589 0.96375006 1.3642435e-38
0.091746621 0.12004589 0.95375007 9.3042378e-39
0.094246618 0.12004589 0.95375007 8.7506563e-39
0.096746624 0.12004589 0.95375007 9.3038301e-39
0.096746624 0.12254589 0.95375007 1.5113909e-38
0.099246621 0.12004589 0.95375007 1.0409789e-38
0.099246621 0.12004589 0.95625007 1.1697281e-38
0.081746623 0.13004589 0.93375009 1.2720867e-38
0.084246621 0.13004589 0.93375009 1.244464e-38
0.081746623 0.13004589 0.93875009 1.3458063e-38
0.084246621 0.13004589 0.93875009 1.2723738e-38
0.086746618 0.13004589 0.93375009 1.3639228e-38
0.086746618 0.13004589 0.93875009 1.2813067e-38
0.089246623 0.13004589 0.93875009 1.1708142e-38
0.084246621 0.13004589 0.94375008 1.3274038e-38
0.084246621 0.13254589 0.94375008 1.272122e-38
0.086746618 0.13004589 0.94375008 1.299853e-38
0.089246623 0.13004589 0.94375008 1.281378e-38
0.086746618 0.14754589 0.93375009 8.4729329e-39
0.089246623 0.14754589 0.93375009 7.3673561e-39
0.091746621 0.13004589 0.93875009 1.2261315e-38
0.091746621 0.14754589 0.93375009 1.0775345e-38
0.094246618 0.14754589 0.93375009 1.1881692e-38
0.096746624 0.14254589 0.93375009 7.0918006e-39
0.099246621 0.1400459 0.93375009 7.1789796e-39
0.099246621 0.14254589 0.93375009 7.9190753e-39
0.096746624 0.14504589 0.93375009 8.4729526e-39
0.096746624 0.14754589 0.93375009 1.4005046e-38
0.099246621 0.14504589 0.93375009 9.3949271e-39
0.099246621 0.14754589 0.93375009 1.4648661e-38
0.096746624 0.14754589 0.93875009 1.4374176e-38
0.099246621 0.14754589 0.93875009 1.4557535e-38
0.10174662 0.11754589 0.95125008 8.8446274e-39
0.10924662 0.11754589 0.94375008 1.3181824e-38
0.10924662 0.11754589 0.94625008 1.2996362e-38
0.10174662 0.12254589 0.93375009 1.4284935e-38
0.10424662 0.12254589 0.93375009 1.4745911e-38
0.10174662 0.12004589 0.93875009 1.345877e-38
0.10174662 0.12254589 0.93875009 1.281305e-38
0.10424662 0.12004589 0.93875009 1.2996731e-38
0.10424662 0.12254589 0.93875009 1.2720496e-38
0.10174662 0.1250459 0.93375009 1.5204015e-38
0.10174662 0.12754589 0.93375009 1.5755398e-38
0.10424662 0.1250459 0.93375009 1.5480604e-38
0.10424662 0.12754589 0.93375009 1.492669e-38
0.10424662 0.1250459 0.93875009 1.5207963e-38
0.10674662 0.12254589 0.93375009 1.6036982e-38
0.10674662 0.12004589 0.93875009 1.2260609e-38
0.10674662 0.12254589 0.93875009 1.2353511e-38
0.10924662 0.12004589 0.93875009 1.354953e-38
0.10924662 0.12254589 0.93875009 1.4652638e-38
0.10674662 0.1250459 0.93375009 1.677095e-38
0.10674662 0.12754589 0.93375009 1.5291859e-38
0.10924662 0.1250459 0.93375009 1.6124158e-38
0.10924662 0.12754589 0.93375009 1.5291859e-38
0.10674662 0.1250459 0.93875009 1.5945506e-38
0.10924662 0.1250459 0.93875009 1.5848648e-38
0.10924662 0.12754589 0.93875009 1.5385132e-38
0.10424662 0.12254589 0.94375008 1.2996731e-38
0.10424662 0.12254589 0.94625008 1.2996009e-38
0.10174662 0.12004589 0.94875008 1.4375663e-38
0.10174662 0.12004589 0.95125008 1.4463558e-38
0.10174662 0.12254589 0.94875008 1.4374981e-38
0.10174662 0.12254589 0.95125008 1.4099467e-38
0.10424662 0.12004589 0.95125008 1.3089631e-38
0.10424662 0.12254589 0.94875008 1.3641376e-38
0.10424662 0.12254589 0.95125008 1.3181121e-38
0.10674662 0.12004589 0.94625008 1.2998161e-38
0.10674662 0.12254589 0.94375008 1.2537555e-38
0.10924662 0.12004589 0.94375008 1.2720496e-38
0.10924662 0.12004589 0.94625008 1.281305e-38
0.10924662 0.12254589 0.94375008 1.465336e-38
0.10674662 0.12004589 0.94875008 1.2906332e-38
0.10674662 0.12004589 0.95125008 1.3824675e-38
0.10674662 0.12254589 0.94875008 1.26283e-38
0.10924662 0.12004589 0.94875008 1.3547733e-38
0.10924662 0.12004589 0.95125008 1.373248e-38
0.11174662 0.11754589 0.93875009 1.2813416e-38
0.11174662 0.11754589 0.94375008 1.3640281e-38
0.11174662 0.11754589 0.94625008 1.2811612e-38
0.11424662 0.11504589 0.94625008 1.4280631e-38
0.11424662 0.11754589 0.94375008 1.2628666e-38
0.11424662 0.11754589 0.94625008 1.2720145e-38
0.11174662 0.11504589 0.95125008 1.7047554e-38
0.11174662 0.11754589 0.94875008 1.3822157e-38
0.11174662 0.11754589 0.95125008 1.3822154e-38
0.11424662 0.11504589 0.94875008 1.5111098e-38
0.11424662 0.11504589 0.95125008 1.4924208e-38
0.11424662 0.11754589 0.94875008 1.2535385e-38
0.11424662 0.11754589 0.95125008 1.2627934e-38
0.11674662 0.11254589 0.94625008 1.7231948e-38
0.11924662 0.11254589 0.94375008 1.5844695e-38
0.11924662 0.11254589 0.94625008 1.547699e-38
0.11674662 0.11254589 0.94875008 1.8703819e-38
0.11674662 0.11254589 0.95125008 1.8427955e-38
0.11924662 0.11254589 0.94875008 1.7689667e-38
0.11924662 0.11254589 0.95125008 1.6860629e-38
0.11674662 0.11504589 0.94625008 1.3544867e-38
0.11674662 0.11754589 0.94625008 1.3088208e-38
0.11924662 0.11504589 0.94375008 1.3267904e-38
0.11924662 0.11504589 0.94625008 1.3268281e-38
0.11924662 0.11754589 0.94375008 1.2718684e-38
0.11924662 0.11754589 0.94625008 1.4836291e-38
0.11674662 0.11504589 0.94875008 1.4094448e-38
0.11674662 0.11504589 0.95125008 1.842761e-38
0.11674662 0.11754589 0.94875008 1.2350993e-38
0.11674662 0.11754589 0.95125008 1.2352792e-38
0.11924662 0.11504589 0.94875008 1.5203644e-38
0.11924662 0.11754589 0.94875008 1.2813769e-38
0.11174662 0.12004589 0.93875009 1.5114316e-38
0.11174662 0.12254589 0.93875009 1.5940115e-38
0.11424662 0.12254589 0.93875009 1.6402169e-38
0.11174662 0.1250459 0.93375009 1.5476987e-38
0.11174662 0.12754589 0.93375009 1.5476249e-38
0.11174662 0.1250459 0.93875009 1.4741562e-38
0.11174662 0.12754589 0.93875009 1.5292933e-38
0.11424662 0.1250459 0.93875009 1.4374217e-38
0.11424662 0.12754589 0.93875009 1.5292933e-38
0.11674662 0.12254589 0.93875009 1.5481288e-38
0.11674662 0.1250459 0.93875009 1.5108189e-38
0.11674662 0.12754589 0.93875009 1.5200368e-38
0.11924662 0.1250459 0.93875009 1.5200385e-38
0.11924662 0.12754589 0.93875009 1.5108189e-38
0.11174662 0.12004589 0.94375008 1.26283e-38
0.11174662 0.12004589 0.94625008 1.26283e-38
0.11174662 0.12254589 0.94375008 1.5022502e-38
0.11424662 0.12004589 0.94375008 1.262865e-38
0.11424662 0.12004589 0.94625008 1.2353142e-38
0.11424662 0.12254589 0.94375008 1.6126663e-38
0.11424662 0.12254589 0.94625008 1.5759672e-38
0.11174662 0.12004589 0.94875008 1.2904167e-38
0.11174662 0.12004589 0.95125008 1.3088558e-38
0.11424662 0.12004589 0.94875008 1.2720145e-38
0.11424662 0.12004589 0.95125008 1.2629748e-38
0.11424662 0.1250459 0.94375008 1.4740505e-38
0.11424662 0.12754589 0.94375008 1.4741562e-38
0.11674662 0.12004589 0.94375008 1.3822875e-38
0.11674662 0.12004589 0.94625008 1.3639928e-38
0.11674662 0.12254589 0.94375008 1.6034467e-38
0.11674662 0.12254589 0.94625008 1.5666417e-38
0.11924662 0.12004589 0.94375008 1.6307455e-38
0.11924662 0.12004589 0.94625008 1.5387312e-38
0.11924662 0.12254589 0.94375008 1.4557885e-38
0.11924662 0.12254589 0.94625008 1.4649028e-38
0.11674662 0.12004589 0.94875008 1.2903463e-38
0.11924662 0.12004589 0.94875008 1.3273319e-38
0.11674662 0.1250459 0.94375008 1.4464615e-38
0.11674662 0.12754589 0.94375008 1.4739757e-38
0.11924662 0.1250459 0.94375008 1.4831958e-38
0.11924662 0.12754589 0.94375008 1.5200016e-38
0.10174662 0.11004589 0.95375007 1.4283135e-38
0.10174662 0.11004589 0.95625007 1.3273301e-38
0.10174662 0.11254589 0.95375007 1.4283839e-38
0.10174662 0.11254589 0.95625007 1.4283117e-38
0.10424662 0.11254589 0.95625007 1.3729943e-38
0.10174662 0.11004589 0.95875007 1.3547733e-38
0.10174662 0.11254589 0.95875007 1.4377499e-38
0.10424662 0.11004589 0.95875007 1.3273301e-38
0.10424662 0.11004589 0.96125007 1.4007988e-38
0.10424662 0.11254589 0.95875007 1.2993448e-38
0.10424662 0.11254589 0.96125007 1.3639911e-38
0.10174662 0.11504589 0.95375007 1.0777165e-38
0.10174662 0.11504589 0.95625007 1.4004012e-38
0.10174662 0.11754589 0.95375007 9.2170168e-39
0.10174662 0.11754589 0.95625007 1.0041395e-38
0.10424662 0.11504589 0.95625007 1.2807967e-38
0.10424662 0.11754589 0.95375007 1.0960825e-38
0.10424662 0.11754589 0.95625007 1.105267e-38
0.10424662 0.11504589 0.95875007 1.2438829e-38
0.10424662 0.11754589 0.95875007 1.0225398e-38
0.10674662 0.11004589 0.96125007 1.382288e-38
0.10674662 0.11254589 0.95875007 1.2348078e-38
0.10674662 0.11254589 0.96125007 1.3732467e-38
0.10924662 0.11254589 0.95875007 1.1701616e-38
0.10924662 0.11254589 0.96125007 1.4558259e-38
0.10674662 0.11754589 0.95375007 1.197715e-38
0.10674662 0.11754589 0.95625007 1.0961161e-38
0.10924662 0.11754589 0.95375007 1.3175693e-38
0.10924662 0.11754589 0.95625007 1.2529228e-38
0.10674662 0.11504589 0.95875007 1.1425033e-38
0.10674662 0.11754589 0.95875007 1.0777143e-38
0.10924662 0.11504589 0.95875007 1.1700897e-38
0.10924662 0.11504589 0.96125007 1.1423604e-38
0.10924662 0.11754589 0.95875007 1.2160447e-38
0.10924662 0.11754589 0.96125007 1.1145569e-38
0.10174662 0.11004589 0.96375006 1.2167675e-38
0.10174662 0.11004589 0.96625006 1.2533937e-38
0.10424662 0.11004589 0.96375006 1.2444262e-38
0.10424662 0.11004589 0.96625006 1.2718687e-38
0.10674662 0.11004589 0.96375006 1.3731761e-38
0.10674662 0.11004589 0.96625006 1.2994915e-38
0.10924662 0.11004589 0.96375006 1.3824663e-38
0.10924662 0.11004589 0.96625006 1.428312e-38
0.10924662 0.11254589 0.96375006 1.4466783e-38
0.10924662 0.11254589 0.96625006 1.4743728e-38
0.10924662 0.11004589 0.96875006 1.2809788e-38
0.10174662 0.12004589 0.95375007 1.354516e-38
0.10174662 0.12254589 0.95375007 1.43757e-38
0.10424662 0.12004589 0.95375007 1.3730678e-38
0.10424662 0.12004589 0.95625007 1.4283836e-38
0.10424662 0.12254589 0.95375007 1.3089278e-38
0.10674662 0.12004589 0.95375007 1.474519e-38
0.10924662 0.12004589 0.95375007 1.3639928e-38
0.11174662 0.11004589 0.96125007 1.3543735e-38
0.11174662 0.11254589 0.95875007 1.3999677e-38
0.11174662 0.11254589 0.96125007 1.3815633e-38
0.11424662 0.11004589 0.95875007 1.9622883e-38
0.11424662 0.11004589 0.96125007 1.7045727e-38
0.11424662 0.11254589 0.95875007 1.9531784e-38
0.11424662 0.11254589 0.96125007 1.7964436e-38
0.11174662 0.11504589 0.95375007 1.6586935e-38
0.11174662 0.11754589 0.95375007 1.391471e-38
0.11174662 0.11754589 0.95625007 1.3913261e-38
0.11424662 0.11504589 0.95375007 1.4924927e-38
0.11424662 0.11504589 0.95625007 1.9257011e-38
0.11424662 0.11754589 0.95375007 1.2629019e-38
0.11424662 0.11754589 0.95625007 1.6677701e-38
0.11174662 0.11504589 0.95875007 1.3818892e-38
0.11174662 0.11504589 0.96125007 1.3999323e-38
0.11174662 0.11754589 0.95875007 1.3635245e-38
0.11424662 0.11504589 0.95875007 1.9254494e-38
0.11674662 0.11254589 0.95375007 1.8611626e-38
0.11674662 0.11254589 0.95625007 1.9900565e-38
0.11924662 0.11254589 0.95375007 1.7043941e-38
0.11924662 0.11254589 0.95625007 1.9624336e-38
0.11674662 0.11004589 0.95875007 1.9993113e-38
0.11674662 0.11004589 0.96125007 1.9255546e-38
0.11674662 0.11254589 0.95875007 1.9716901e-38
0.11674662 0.11254589 0.96125007 1.8333607e-38
0.11924662 0.11004589 0.95875007 1.9992017e-38
0.11924662 0.11254589 0.95875007 1.9532856e-38
0.11674662 0.11504589 0.95375007 1.8336125e-38
0.11174662 0.11004589 0.96375006 1.381888e-38
0.11174662 0.11004589 0.96625006 1.3452999e-38
0.11174662 0.11254589 0.96375006 1.3176044e-38
0.11174662 0.11254589 0.96625006 1.4097277e-38
0.11424662 0.11004589 0.96375006 1.8152067e-38
0.11674662 0.11004589 0.96375006 1.9806926e-38
0.11174662 0.12004589 0.95375007 1.3088558e-38
0.10424662 0.13004589 0.93375009 1.5293287e-38
0.10424662 0.13254589 0.93375009 1.6582953e-38
0.10174662 0.13754588 0.93375009 7.1879997e-39
0.10424662 0.13504589 0.93375009 1.556917e-38
0.10424662 0.13754588 0.93375009 4.697996e-39
0.10674662 0.13004589 0.93375009 1.5568444e-38
0.10674662 0.13254589 0.93375009 1.3543737e-38
0.10924662 0.13004589 0.93375009 1.5753556e-38
0.10924662 0.13254589 0.93375009 1.1051619e-38
0.10924662 0.13004589 0.93875009 1.5476249e-38
0.10924662 0.13254589 0.93875009 1.6307455e-38
0.10674662 0.13504589 0.93375009 1.2620719e-38
0.10674662 0.13754588 0.93375009 6.9931604e-39
0.10924662 0.13504589 0.93375009 7.8366131e-39
0.10674662 0.13504589 0.93875009 1.2620705e-38
0.10674662 0.13754588 0.93875009 6.9009633e-39
0.10924662 0.13504589 0.93875009 8.0217232e-39
0.10924662 0.13754588 0.93875009 6.7226873e-39
0.10924662 0.13754588 0.94375008 6.8130837e-39
0.10174662 0.1400459 0.93375009 6.9056297e-39
0.10174662 0.14254589 0.93375009 1.0592749e-38
0.10424662 0.1400459 0.93375009 7.2758597e-39
0.10174662 0.1400459 0.93875009 7.0903937e-39
0.10174662 0.14254589 0.93875009 7.7339652e-39
0.10424662 0.1400459 0.93875009 6.813434e-39
0.10424662 0.14254589 0.93875009 7.7339652e-39
0.10174662 0.14504589 0.93375009 1.0777863e-38
0.10174662 0.14504589 0.93875009 1.3446856e-38
0.10174662 0.14754589 0.93875009 1.511035e-38
0.10424662 0.14504589 0.93875009 1.3537604e-38
0.10424662 0.14754589 0.93875009 1.5110334e-38
0.10674662 0.1400459 0.93875009 6.2574086e-39
0.10424662 0.14504589 0.94375008 1.3635908e-38
0.10424662 0.14504589 0.94625008 1.3451522e-38
0.10424662 0.14754589 0.94375008 1.5571313e-38
0.10424662 0.14754589 0.94625008 1.5751388e-38
0.10674662 0.1400459 0.94375008 4.5132124e-39
0.10674662 0.14254589 0.94375008 7.2737213e-39
0.10674662 0.14254589 0.94625008 8.9321357e-39
0.10924662 0.1400459 0.94375008 7.0878503e-39
0.10924662 0.1400459 0.94625008 7.5477523e-39
0.10924662 0.14254589 0.94625008 1.0591657e-38
