# .PCD v0.7 - Point Cloud Data file format
VERSION 0.7
FIELDS x y z rgb
SIZE 4 4 4 4
TYPE F F F F
COUNT 1 1 1 1
WIDTH 1000
HEIGHT 1
VIEWPOINT 0 0 0 1 0 0 0
POINTS 1000
DATA ascii
-0.26199922 0.094884425 0.99975008 1.9906343e-38
-0.26449922 0.097384423 0.99725008 1.4467571e-38
-0.26449922 0.099884428 0.99725008 9.7795863e-39
-0.26199922 0.099884428 0.99725008 7.5636374e-39
-0.26449922 0.097384423 0.99975008 1.3365533e-38
-0.26199922 0.097384423 0.99975008 9.769923e-39
-0.26199922 0.099884428 0.99975008 8.2976067e-39
-0.26949921 0.092384428 1.0047501 1.6864963e-38
-0.26949921 0.092384428 1.0072501 1.6864963e-38
-0.26949921 0.094884425 1.0047501 1.8061728e-38
-0.26949921 0.094884425 1.0072501 1.7602175e-38
-0.26699921 0.092384428 1.0047501 1.6496186e-38
-0.26699921 0.092384428 1.0072501 1.6221395e-38
-0.26699921 0.094884425 1.0047501 1.8157867e-38
-0.26699921 0.094884425 1.0072501 1.7419213e-38
-0.26449922 0.092384428 1.0047501 1.6311436e-38
-0.26449922 0.092384428 1.0072501 1.622032e-38
-0.26449922 0.094884425 1.0047501 1.8157867e-38
-0.26449922 0.094884425 1.0072501 1.8528075e-38
-0.26199922 0.092384428 1.0047501 1.6956806e-38
-0.26199922 0.092384428 1.0072501 1.704972e-38
-0.26199922 0.094884425 1.0047501 1.7699043e-38
-0.26199922 0.094884425 1.0072501 1.8897217e-38
-0.26449922 0.097384423 1.0072501 1.9815228e-38
-0.26199922 0.097384423 1.0072501 1.8524489e-38
-0.25949922 0.089884423 1.0047501 1.6772765e-38
-0.25949922 0.089884423 1.0072501 1.6863889e-38
-0.25699922 0.089884423 1.0047501 1.7418485e-38
-0.25699922 0.089884423 1.0072501 1.7509611e-38
-0.25699922 0.089884423 1.0097501 1.5943733e-38
-0.25199923 0.084884427 1.0097501 1.9166244e-38
-0.25449923 0.087384425 1.0072501 1.6586579e-38
-0.25449923 0.089884423 1.0047501 1.769543e-38
-0.25449923 0.089884423 1.0072501 1.8155699e-38
-0.25199923 0.087384425 1.0072501 1.6771329e-38
-0.25199923 0.089884423 1.0072501 1.8432645e-38
-0.25449923 0.087384425 1.0097501 1.6770247e-38
-0.25449923 0.089884423 1.0097501 1.6218872e-38
-0.25199923 0.087384425 1.0097501 1.7506017e-38
-0.25199923 0.089884423 1.0097501 1.6679849e-38
-0.25949922 0.094884425 0.99975008 1.760398e-38
-0.25699922 0.094884425 0.99975008 1.6865336e-38
-0.25949922 0.099884428 0.99475008 1.6131654e-38
-0.25949922 0.099884428 0.99725008 8.0242568e-39
-0.25699922 0.097384423 0.99725008 1.0041398e-38
-0.25699922 0.099884428 0.99475008 1.6955361e-38
-0.25699922 0.099884428 0.99725008 1.2802598e-38
-0.25949922 0.097384423 0.99975008 1.0223989e-38
-0.25949922 0.099884428 0.99975008 9.1273674e-39
-0.25699922 0.097384423 0.99975008 1.059277e-38
-0.25449923 0.094884425 0.99725008 1.5760768e-38
-0.25199923 0.094884425 0.99725008 9.4053934e-39
-0.25449923 0.094884425 0.99975008 1.3365829e-38
-0.25199923 0.094884425 0.99975008 8.6703591e-39
-0.25449923 0.097384423 0.99475008 1.4369532e-38
-0.25449923 0.097384423 0.99725008 1.1979611e-38
-0.25449923 0.099884428 0.99475008 1.6957156e-38
-0.25449923 0.099884428 0.99725008 1.3358626e-38
-0.25199923 0.097384423 0.99475008 1.5198933e-38
-0.25199923 0.097384423 0.99725008 1.345693e-38
-0.25199923 0.099884428 0.99725008 1.4280223e-38
-0.25449923 0.097384423 0.99975008 1.2440962e-38
-0.25199923 0.097384423 0.99975008 1.3641691e-38
-0.25949922 0.092384428 1.0047501 1.7048651e-38
-0.25949922 0.092384428 1.0072501 1.7233047e-38
-0.25949922 0.094884425 1.0047501 1.7695095e-38
-0.25949922 0.094884425 1.0072501 1.8156095e-38
-0.25699922 0.092384428 1.0047501 1.7694724e-38
-0.25699922 0.092384428 1.0072501 1.7786569e-38
-0.25699922 0.094884425 1.0047501 1.7695446e-38
-0.25699922 0.094884425 1.0072501 1.7787979e-38
-0.25949922 0.097384423 1.0072501 1.7417428e-38
-0.25449923 0.092384428 1.0047501 1.8247898e-38
-0.25449923 0.092384428 1.0072501 1.9260976e-38
-0.25449923 0.094884425 1.0047501 1.6496904e-38
-0.25449923 0.094884425 1.0072501 1.345129e-38
-0.25199923 0.092384428 1.0047501 1.9260971e-38
-0.25199923 0.092384428 1.0072501 1.8984391e-38
-0.25199923 0.094884425 1.0047501 1.1517697e-38
-0.25199923 0.094884425 1.0072501 1.169994e-38
-0.26949921 0.10488442 0.9772501 1.6311792e-38
-0.26699921 0.10488442 0.9747501 1.7045041e-38
-0.26699921 0.10488442 0.9772501 1.6774913e-38
-0.26949921 0.10488442 0.9797501 1.7966975e-38
-0.26699921 0.10238443 0.9797501 1.6683068e-38
-0.26699921 0.10488442 0.9797501 1.6772752e-38
-0.26949921 0.10738443 0.9747501 2.3508808e-38
-0.26949921 0.10988443 0.9747501 2.3509881e-38
-0.26699921 0.10738443 0.9747501 2.3508809e-38
-0.26449922 0.10488442 0.9747501 1.8888595e-38
-0.26449922 0.10488442 0.9772501 1.6314295e-38
-0.26199922 0.10488442 0.9747501 2.1655484e-38
-0.26199922 0.10488442 0.9772501 2.2946223e-38
-0.26449922 0.10238443 0.9797501 1.6956437e-38
-0.26449922 0.10488442 0.9797501 1.6036982e-38
-0.26199922 0.10488442 0.9797501 1.5944787e-38
-0.26449922 0.10738443 0.9747501 2.3508809e-38
-0.26449922 0.10988443 0.9747501 2.2308824e-38
-0.26199922 0.10738443 0.9747501 2.2949187e-38
-0.26199922 0.10988443 0.9747501 1.9544404e-38
-0.26949921 0.10238443 0.98475009 1.5945881e-38
-0.26949921 0.10238443 0.98725009 8.2025342e-39
-0.26949921 0.10488442 0.98475009 1.7417766e-38
-0.26699921 0.10238443 0.98475009 1.6499055e-38
-0.26699921 0.10238443 0.98725009 1.0138642e-38
-0.26949921 0.10238443 0.98975009 9.5804338e-39
-0.26699921 0.10238443 0.98975009 1.2716491e-38
-0.26699921 0.10238443 0.99225008 1.2989482e-38
-0.26449922 0.10238443 0.98475009 1.67742e-38
-0.26449922 0.10238443 0.98725009 1.3362213e-38
-0.26449922 0.10488442 0.98475009 1.640541e-38
-0.26199922 0.10238443 0.98475009 1.6495102e-38
-0.26199922 0.10238443 0.98725009 1.5477337e-38
-0.26199922 0.10488442 0.98475009 1.5851532e-38
-0.26449922 0.10238443 0.98975009 1.382032e-38
-0.26449922 0.10238443 0.99225008 1.3819611e-38
-0.26199922 0.10238443 0.98975009 1.4834476e-38
-0.26949921 0.11988442 0.9747501 1.6038447e-38
-0.26699921 0.11988442 0.9747501 1.1064937e-38
-0.26449922 0.11738443 0.9747501 2.1752058e-38
-0.26449922 0.11988442 0.9747501 1.2535032e-38
-0.26449922 0.11988442 0.9772501 9.7741983e-39
-0.26199922 0.11738443 0.9747501 2.0370921e-38
-0.26199922 0.11988442 0.9747501 1.170669e-38
-0.26199922 0.11988442 0.9772501 1.0232995e-38
-0.25949922 0.10488442 0.9747501 2.3499007e-38
-0.25949922 0.10488442 0.9772501 2.3507332e-38
-0.25699922 0.10238443 0.9772501 1.630712e-38
-0.25699922 0.10488442 0.9747501 2.3509886e-38
-0.25699922 0.10488442 0.9772501 2.3509886e-38
-0.25949922 0.10238443 0.9797501 1.5849732e-38
-0.25949922 0.10488442 0.9797501 1.6309994e-38
-0.25699922 0.10238443 0.9797501 1.6398597e-38
-0.25699922 0.10488442 0.9797501 1.7781885e-38
-0.25949922 0.10738443 0.9747501 2.0362324e-38
-0.25949922 0.10988443 0.9747501 1.8706002e-38
-0.25699922 0.10738443 0.9747501 1.9532563e-38
-0.25699922 0.10738443 0.9772501 2.3509886e-38
-0.25699922 0.10988443 0.9747501 1.8152828e-38
-0.25699922 0.10988443 0.9772501 1.7142276e-38
-0.25449923 0.10238443 0.9772501 1.7874446e-38
-0.25449923 0.10488442 0.9747501 2.3509886e-38
-0.25449923 0.10488442 0.9772501 2.3509886e-38
-0.25199923 0.10488442 0.9772501 2.3503787e-38
-0.25449923 0.10238443 0.9797501 1.8703487e-38
-0.25449923 0.10488442 0.9797501 2.2297322e-38
-0.25199923 0.10238443 0.9797501 1.9625444e-38
-0.25199923 0.10488442 0.9797501 2.3032735e-38
-0.25449923 0.10738443 0.9747501 1.6311086e-38
-0.25449923 0.10738443 0.9772501 2.3509527e-38
-0.25449923 0.10988443 0.9747501 1.557639e-38
-0.25449923 0.10988443 0.9772501 1.5668222e-38
-0.25199923 0.10738443 0.9772501 2.0280534e-38
-0.25199923 0.10988443 0.9772501 1.2730554e-38
-0.25949922 0.10238443 0.98475009 1.6309639e-38
-0.25949922 0.10238443 0.98725009 1.7322686e-38
-0.25699922 0.10238443 0.98475009 1.7598212e-38
-0.25699922 0.10238443 0.98725009 1.7137935e-38
-0.25449923 0.10238443 0.98475009 1.8335427e-38
-0.25449923 0.10238443 0.98725009 1.6219238e-38
-0.25199923 0.10238443 0.98475009 2.0734601e-38
-0.25199923 0.10238443 0.98725009 1.5575281e-38
-0.25949922 0.11238442 0.9747501 1.7417078e-38
-0.25949922 0.11488443 0.9747501 2.0371975e-38
-0.25699922 0.11238442 0.9747501 1.6771708e-38
-0.25699922 0.11238442 0.9772501 1.8615939e-38
-0.25699922 0.11488443 0.9747501 1.7974888e-38
-0.25699922 0.11488443 0.9772501 1.6219636e-38
-0.25699922 0.11488443 0.9797501 1.6588767e-38
-0.25949922 0.11738443 0.9747501 1.6320794e-38
-0.25949922 0.11988442 0.9747501 1.1705971e-38
-0.25949922 0.11988442 0.9772501 1.0875857e-38
-0.25699922 0.11738443 0.9747501 1.5399197e-38
-0.25699922 0.11738443 0.9772501 1.263334e-38
-0.25699922 0.11988442 0.9772501 1.1519062e-38
-0.25949922 0.11988442 0.9797501 1.0783662e-38
-0.25699922 0.11738443 0.9797501 1.2542588e-38
-0.25449923 0.11238442 0.9747501 1.8248601e-38
-0.25449923 0.11238442 0.9772501 1.8340797e-38
-0.25449923 0.11488443 0.9772501 2.0185805e-38
-0.25199923 0.11238442 0.9772501 1.9729471e-38
-0.25449923 0.11238442 0.9797501 1.9544006e-38
-0.25449923 0.11488443 0.9797501 1.5113288e-38
-0.25199923 0.11238442 0.9797501 1.9728756e-38
-0.25199923 0.11488443 0.9797501 2.0371987e-38
-0.25449923 0.11738443 0.9797501 1.1066016e-38
-0.25949922 0.11988442 0.98725009 1.1060604e-38
-0.25699922 0.11738443 0.98475009 1.1156414e-38
-0.25699922 0.11988442 0.98475009 1.1060602e-38
-0.25699922 0.11988442 0.98725009 1.0875857e-38
-0.25699922 0.11988442 0.98975009 1.0600687e-38
-0.25449923 0.11488443 0.98475009 2.046347e-38
-0.25199923 0.11238442 0.98475009 1.898728e-38
-0.25199923 0.11488443 0.98475009 1.723845e-38
-0.25199923 0.11488443 0.98725009 1.7975296e-38
-0.25449923 0.11738443 0.98475009 1.1798522e-38
-0.25449923 0.11738443 0.98725009 1.0783308e-38
-0.25449923 0.11988442 0.98725009 1.0598903e-38
-0.25199923 0.11738443 0.98475009 1.1153153e-38
-0.25199923 0.11738443 0.98725009 1.1703457e-38
-0.25449923 0.11988442 0.98975009 1.0415588e-38
-0.25449923 0.11988442 0.99225008 1.0690746e-38
-0.25199923 0.11738443 0.98975009 1.2808728e-38
-0.25199923 0.11988442 0.98975009 1.0873324e-38
-0.25199923 0.11988442 0.99225008 1.0691799e-38
-0.22699922 0.079884425 1.0222501 1.889182e-38
-0.22449923 0.079884425 1.0222501 1.7694005e-38
-0.22199923 0.079884425 1.0222501 1.6679852e-38
-0.22699922 0.079884425 1.0247501 1.925916e-38
-0.22449923 0.079884425 1.0247501 1.6496534e-38
-0.22449923 0.079884425 1.0272501 1.6772762e-38
-0.22199923 0.077384427 1.0272501 1.6952137e-38
-0.22199923 0.079884425 1.0247501 1.6309639e-38
-0.22199923 0.079884425 1.0272501 1.530088e-38
-0.22449923 0.077384427 1.0297501 1.7047206e-38
-0.22449923 0.079884425 1.0297501 1.6772043e-38
-0.22199923 0.077384427 1.0297501 1.6770978e-38
-0.21699923 0.079884425 1.0222501 1.5299082e-38
-0.21949923 0.077384427 1.0247501 1.6218522e-38
-0.21949923 0.077384427 1.0272501 1.6401837e-38
-0.21949923 0.079884425 1.0247501 1.5482755e-38
-0.21949923 0.079884425 1.0272501 1.5113614e-38
-0.21699923 0.077384427 1.0247501 1.5480957e-38
-0.21699923 0.077384427 1.0272501 1.5388405e-38
-0.21699923 0.079884425 1.0247501 1.5390559e-38
-0.21699923 0.079884425 1.0272501 1.5113614e-38
-0.21949923 0.077384427 1.0297501 1.6125956e-38
-0.21699923 0.077384427 1.0297501 1.5757168e-38
-0.21699923 0.079884425 1.0297501 1.5756468e-38
-0.21449922 0.077384427 1.0272501 1.5941565e-38
-0.21449922 0.079884425 1.0247501 1.5758982e-38
-0.21449922 0.079884425 1.0272501 1.5573874e-38
-0.21199922 0.079884425 1.0272501 1.6771696e-38
-0.21449922 0.077384427 1.0297501 1.6034114e-38
-0.21449922 0.079884425 1.0297501 1.6401837e-38
-0.21199922 0.079884425 1.0297501 1.6494386e-38
-0.21699923 0.079884425 1.0347501 1.6031975e-38
-0.21449922 0.079884425 1.0347501 1.6216725e-38
-0.21449922 0.079884425 1.03725 1.6952493e-38
-0.21199922 0.079884425 1.0347501 1.7597856e-38
-0.24949923 0.099884428 0.98975009 1.6678051e-38
-0.24949923 0.099884428 0.99225008 1.6586579e-38
-0.24699923 0.099884428 0.98975009 1.649402e-38
-0.24699923 0.099884428 0.99225008 1.6494383e-38
-0.24449922 0.099884428 0.99225008 1.7598212e-38
-0.24199922 0.099884428 0.99225008 2.128818e-38
-0.23949923 0.099884428 0.99225008 2.2489931e-38
-0.23699923 0.097384423 0.99225008 1.594408e-38
-0.23699923 0.099884428 0.99225008 2.3505884e-38
-0.23449923 0.097384423 0.99225008 1.879785e-38
-0.23449923 0.099884428 0.99225008 2.3509886e-38
-0.23199923 0.097384423 0.98975009 2.2754706e-38
-0.23199923 0.097384423 0.99225008 2.2665026e-38
-0.23199923 0.099884428 0.98975009 2.3040664e-38
-0.23199923 0.099884428 0.99225008 2.2855916e-38
-0.24949923 0.084884427 1.0072501 1.8063138e-38
-0.24699923 0.084884427 1.0072501 1.760216e-38
-0.24949923 0.084884427 1.0097501 1.7601081e-38
-0.24699923 0.084884427 1.0097501 1.7049355e-38
-0.24699923 0.084884427 1.0122501 1.7785478e-38
-0.24949923 0.087384425 1.0072501 1.6863889e-38
-0.24949923 0.089884423 1.0072501 1.8984759e-38
-0.24699923 0.087384425 1.0072501 1.65873e-38
-0.24699923 0.089884423 1.0047501 1.9446438e-38
-0.24699923 0.089884423 1.0072501 1.8337615e-38
-0.24949923 0.087384425 1.0097501 1.6863889e-38
-0.24699923 0.087384425 1.0097501 1.713868e-38
-0.24699923 0.087384425 1.0122501 1.6955361e-38
-0.24699923 0.089884423 1.0097501 1.7417068e-38
-0.24449922 0.084884427 1.0097501 1.6588737e-38
-0.24449922 0.084884427 1.0122501 1.7415266e-38
-0.24199922 0.084884427 1.0097501 1.5944452e-38
-0.24199922 0.084884427 1.0122501 1.713868e-38
-0.24449922 0.089884423 1.0047501 1.769297e-38
-0.24449922 0.089884423 1.0072501 1.7968832e-38
-0.24199922 0.089884423 1.0072501 1.5112212e-38
-0.24449922 0.087384425 1.0097501 1.732307e-38
-0.24449922 0.087384425 1.0122501 1.8152813e-38
-0.24449922 0.089884423 1.0097501 1.9256302e-38
-0.24199922 0.087384425 1.0097501 1.8062782e-38
-0.24199922 0.087384425 1.0122501 1.8613791e-38
-0.24199922 0.089884423 1.0097501 1.971764e-38
-0.24949923 0.094884425 0.99725008 8.8525783e-39
-0.24699923 0.094884425 0.99725008 1.087297e-38
-0.24949923 0.094884425 0.99975008 9.5822316e-39
-0.24699923 0.094884425 0.99975008 9.6708175e-39
-0.24949923 0.097384423 0.99475008 1.704826e-38
-0.24949923 0.097384423 0.99725008 1.4655114e-38
-0.24949923 0.099884428 0.99725008 1.7781509e-38
-0.24699923 0.097384423 0.99475008 1.6682364e-38
-0.24699923 0.097384423 0.99725008 1.6867099e-38
-0.24699923 0.099884428 0.99475008 1.6676257e-38
-0.24699923 0.099884428 0.99725008 1.6772762e-38
-0.24949923 0.097384423 0.99975008 1.4563647e-38
-0.24699923 0.097384423 0.99975008 1.7051483e-38
-0.24449922 0.094884425 0.99725008 1.2345913e-38
-0.24199922 0.094884425 0.99725008 1.2991283e-38
-0.24449922 0.094884425 0.99975008 1.1423922e-38
-0.24199922 0.094884425 0.99975008 1.2534601e-38
-0.24449922 0.097384423 0.99475008 1.640506e-38
-0.24449922 0.097384423 0.99725008 1.6772768e-38
-0.24449922 0.099884428 0.99475008 1.9997797e-38
-0.24449922 0.099884428 0.99725008 1.6220676e-38
-0.24199922 0.097384423 0.99475008 1.5759691e-38
-0.24199922 0.097384423 0.99725008 1.6403985e-38
-0.24199922 0.099884428 0.99475008 2.1750572e-38
-0.24949923 0.092384428 1.0047501 1.8892551e-38
-0.24949923 0.092384428 1.0072501 1.9078009e-38
-0.24949923 0.094884425 1.0047501 1.1237783e-38
-0.24699923 0.092384428 1.0047501 1.8523408e-38
-0.24699923 0.092384428 1.0072501 1.788091e-38
-0.24699923 0.094884425 1.0047501 9.1201619e-39
-0.24449922 0.092384428 1.0047501 1.6957162e-38
-0.24449922 0.094884425 1.0047501 1.0871118e-38
-0.24199922 0.092384428 1.0047501 1.1990474e-38
-0.24199922 0.094884425 1.0047501 1.2903034e-38
-0.23949923 0.089884423 1.0072501 1.0963797e-38
-0.23699923 0.089884423 1.0072501 9.3968314e-39
-0.23949923 0.087384425 1.0097501 1.8894324e-38
-0.23949923 0.087384425 1.0122501 1.9447498e-38
-0.23949923 0.089884423 1.0097501 1.9630832e-38
-0.23949923 0.089884423 1.0122501 1.8524486e-38
-0.23699923 0.087384425 1.0122501 1.9077311e-38
-0.23699923 0.089884423 1.0097501 1.8156428e-38
-0.23699923 0.089884423 1.0122501 1.7879485e-38
-0.23449923 0.089884423 1.0072501 1.0041398e-38
-0.23199923 0.089884423 1.0072501 1.2162573e-38
-0.23449923 0.089884423 1.0122501 1.6314295e-38
-0.23199923 0.087384425 1.0122501 1.6865689e-38
-0.23199923 0.089884423 1.0097501 1.4470032e-38
-0.23199923 0.089884423 1.0122501 1.4470382e-38
-0.23949923 0.094884425 0.99725008 1.557241e-38
-0.23699923 0.092384428 0.99725008 1.4933464e-38
-0.23699923 0.094884425 0.99725008 1.6680187e-38
-0.23949923 0.092384428 0.99975008 1.0605384e-38
-0.23949923 0.094884425 0.99975008 1.2811189e-38
-0.23699923 0.092384428 0.99975008 8.4819979e-39
-0.23699923 0.094884425 0.99975008 1.576323e-38
-0.23949923 0.097384423 0.99475008 1.4838092e-38
-0.23949923 0.097384423 0.99725008 1.6124901e-38
-0.23949923 0.099884428 0.99475008 2.1843505e-38
-0.23699923 0.097384423 0.99475008 1.6309989e-38
-0.23699923 0.097384423 0.99725008 1.6401115e-38
-0.23449923 0.092384428 0.99725008 1.5763583e-38
-0.23449923 0.094884425 0.99475008 1.7045374e-38
-0.23449923 0.094884425 0.99725008 1.6313942e-38
-0.23199923 0.092384428 0.99725008 1.6772417e-38
-0.23199923 0.094884425 0.99475008 1.5944799e-38
-0.23199923 0.094884425 0.99725008 1.6219947e-38
-0.23449923 0.092384428 0.99975008 1.0408029e-38
-0.23449923 0.094884425 0.99975008 1.6496907e-38
-0.23199923 0.092384428 0.99975008 1.3451539e-38
-0.23199923 0.094884425 0.99975008 1.6403632e-38
-0.23449923 0.097384423 0.99475008 1.7140108e-38
-0.23449923 0.097384423 0.99725008 1.732307e-38
-0.23199923 0.097384423 0.99475008 2.0919365e-38
-0.23949923 0.092384428 1.0047501 7.9309766e-39
-0.23949923 0.094884425 1.0047501 1.3271447e-38
-0.23699923 0.092384428 1.0047501 8.2072033e-39
-0.23699923 0.092384428 1.0097501 1.0132862e-38
-0.23449923 0.092384428 1.0047501 1.0041411e-38
-0.23199923 0.092384428 1.0047501 1.2807967e-38
-0.23449923 0.092384428 1.0097501 1.0409808e-38
-0.23199923 0.092384428 1.0097501 1.2624963e-38
-0.23199923 0.092384428 1.0122501 1.1888512e-38
-0.24949923 0.10488442 0.9772501 2.1843903e-38
-0.24949923 0.10238443 0.9797501 2.1010112e-38
-0.24949923 0.10488442 0.9797501 2.2119411e-38
-0.24699923 0.10238443 0.9797501 2.3507338e-38
-0.24699923 0.10488442 0.9797501 2.1751332e-38
-0.24949923 0.10738443 0.9772501 1.7056189e-38
-0.24949923 0.10988443 0.9772501 1.6034126e-38
-0.24949923 0.10738443 0.9797501 2.0651817e-38
-0.24949923 0.10988443 0.9797501 2.3040994e-38
-0.24699923 0.10738443 0.9797501 2.1844606e-38
-0.24699923 0.10988443 0.9797501 2.313354e-38
-0.24449922 0.10488442 0.9797501 2.0831175e-38
-0.24449922 0.10738443 0.9797501 2.1752052e-38
-0.24949923 0.10238443 0.98475009 2.193207e-38
-0.24949923 0.10238443 0.98725009 1.6862092e-38
-0.24949923 0.10488442 0.98475009 2.3406885e-38
-0.24699923 0.10238443 0.98475009 2.3509872e-38
-0.24699923 0.10238443 0.98725009 1.8060635e-38
-0.24699923 0.10488442 0.98475009 2.1198518e-38
-0.24949923 0.10238443 0.98975009 1.6311792e-38
-0.24699923 0.10238443 0.98975009 1.7602531e-38
-0.24699923 0.10738443 0.98475009 2.1567659e-38
-0.24699923 0.10988443 0.98475009 2.2765118e-38
-0.24449922 0.10238443 0.98475009 2.3507714e-38
-0.24449922 0.10238443 0.98725009 1.9625797e-38
-0.24449922 0.10488442 0.98475009 2.119995e-38
-0.24199922 0.10238443 0.98475009 2.3507714e-38
-0.24199922 0.10238443 0.98725009 2.1748142e-38
-0.24199922 0.10488442 0.98475009 2.184532e-38
-0.24199922 0.10488442 0.98725009 1.9634467e-38
-0.24449922 0.10238443 0.98975009 2.0272589e-38
-0.24449922 0.10238443 0.99225008 2.0641379e-38
-0.24199922 0.10238443 0.98975009 2.1932538e-38
-0.24199922 0.10238443 0.99225008 2.340296e-38
-0.24449922 0.10738443 0.98475009 2.1751688e-38
-0.24449922 0.10988443 0.98475009 2.2029351e-38
-0.24199922 0.10738443 0.98475009 2.2397057e-38
-0.24199922 0.10988443 0.98475009 2.0738612e-38
-0.24199922 0.10988443 0.98725009 2.1383253e-38
-0.24949923 0.11238442 0.9797501 1.8432334e-38
-0.24949923 0.11238442 0.98475009 1.8432334e-38
-0.24949923 0.11238442 0.98725009 1.7692576e-38
-0.24949923 0.11488443 0.98475009 1.5579289e-38
-0.24949923 0.11488443 0.98725009 1.4197055e-38
-0.24699923 0.11238442 0.98475009 1.612561e-38
-0.24699923 0.11238442 0.98725009 1.621532e-38
-0.24699923 0.11488443 0.98725009 1.3090707e-38
-0.24699923 0.11488443 0.98975009 1.3458782e-38
-0.24949923 0.11738443 0.98725009 1.1795653e-38
-0.24949923 0.11738443 0.98975009 1.1246072e-38
-0.24949923 0.11988442 0.98975009 1.0596737e-38
-0.24949923 0.11988442 0.99225008 1.1701995e-38
-0.24699923 0.11738443 0.98975009 1.1338267e-38
-0.24699923 0.11988442 0.98975009 1.124535e-38
-0.24699923 0.11988442 0.99225008 1.3361494e-38
-0.24449922 0.11238442 0.98475009 1.4654439e-38
-0.24449922 0.11238442 0.98725009 1.4285298e-38
-0.24449922 0.11488443 0.98725009 1.262865e-38
-0.24199922 0.11238442 0.98475009 1.9817747e-38
-0.24199922 0.11238442 0.98725009 1.2536811e-38
-0.24449922 0.11488443 0.98975009 1.1337911e-38
-0.24449922 0.11488443 0.99225008 1.1705993e-38
-0.24199922 0.11238442 0.98975009 1.2352065e-38
-0.24199922 0.11488443 0.98975009 1.1796006e-38
-0.24199922 0.11488443 0.99225008 1.2074047e-38
-0.24449922 0.11738443 0.98975009 1.1153156e-38
-0.24449922 0.11738443 0.99225008 1.0784015e-38
-0.24449922 0.11988442 0.98975009 1.0781829e-38
-0.24449922 0.11988442 0.99225008 1.188747e-38
-0.24199922 0.11738443 0.98975009 1.1426848e-38
-0.24199922 0.11738443 0.99225008 1.1427213e-38
-0.23949923 0.10238443 0.98725009 1.6769585e-38
-0.23949923 0.10488442 0.98475009 1.6404351e-38
-0.23949923 0.10488442 0.98725009 1.4932839e-38
-0.23699923 0.10238443 0.98725009 1.7044978e-38
-0.23699923 0.10488442 0.98475009 1.6957146e-38
-0.23699923 0.10488442 0.98725009 1.6772382e-38
-0.23949923 0.10238443 0.98975009 1.6492525e-38
-0.23699923 0.10238443 0.98975009 1.7137893e-38
-0.23949923 0.10738443 0.98475009 2.2487823e-38
-0.23949923 0.10738443 0.98725009 1.7693652e-38
-0.23949923 0.10988443 0.98475009 2.0370906e-38
-0.23949923 0.10988443 0.98725009 1.7881263e-38
-0.23699923 0.10738443 0.98725009 1.8337574e-38
-0.23699923 0.10988443 0.98725009 1.7419564e-38
-0.23949923 0.10988443 0.98975009 1.7971291e-38
-0.23699923 0.10988443 0.98975009 1.6866749e-38
-0.23449923 0.10238443 0.98725009 1.7415616e-38
-0.23449923 0.10488442 0.98725009 1.6771329e-38
-0.23199923 0.10238443 0.98725009 1.6957159e-38
-0.23199923 0.10488442 0.98725009 1.7231951e-38
-0.23449923 0.10238443 0.98975009 1.6771696e-38
-0.23449923 0.10238443 0.99225008 2.2953115e-38
-0.23199923 0.10238443 0.98975009 1.6863889e-38
-0.23199923 0.10238443 0.99225008 2.0004319e-38
-0.23199923 0.10488442 0.98975009 1.7324146e-38
-0.23449923 0.10738443 0.98725009 1.7694358e-38
-0.23449923 0.10988443 0.98725009 1.6220337e-38
-0.23199923 0.10738443 0.98725009 1.8154633e-38
-0.23449923 0.10738443 0.98975009 1.8062432e-38
-0.23449923 0.10988443 0.98975009 1.6035944e-38
-0.23449923 0.10988443 0.99225008 1.5390575e-38
-0.23199923 0.10738443 0.98975009 1.8063153e-38
-0.23199923 0.10988443 0.98975009 1.5574967e-38
-0.23199923 0.10988443 0.99225008 1.4005852e-38
-0.23949923 0.11238442 0.98725009 1.6502667e-38
-0.23949923 0.11238442 0.98975009 1.1891441e-38
-0.23949923 0.11238442 0.99225008 1.6039166e-38
-0.23949923 0.11488443 0.99225008 1.1707773e-38
-0.23699923 0.11238442 0.98975009 1.5303398e-38
-0.23699923 0.11238442 0.99225008 1.4938209e-38
-0.23699923 0.11488443 0.99225008 1.0878011e-38
-0.23449923 0.11238442 0.98975009 1.4011956e-38
-0.23449923 0.11238442 0.99225008 1.42889e-38
-0.24699923 0.11988442 0.99725008 1.1611245e-38
-0.24449922 0.11488443 0.99475008 1.1523024e-38
-0.24199922 0.11488443 0.99475008 1.1611613e-38
-0.24449922 0.11738443 0.99475008 1.096839e-38
-0.24449922 0.11988442 0.99475008 1.1611948e-38
-0.24449922 0.11988442 0.99725008 1.2161541e-38
-0.24199922 0.11738443 0.99475008 1.1334652e-38
-0.24199922 0.11738443 0.99725008 1.1427213e-38
-0.24199922 0.11988442 0.99725008 1.1884955e-38
-0.24199922 0.11738443 0.99975008 1.1333949e-38
-0.24199922 0.11988442 0.99975008 1.1608387e-38
-0.24199922 0.11988442 1.0047501 1.1148487e-38
-0.23199923 0.10988443 0.99475008 1.3821821e-38
-0.23199923 0.10988443 0.99725008 1.3178602e-38
-0.23949923 0.11488443 0.99475008 1.179565e-38
-0.23699923 0.11238442 0.99475008 1.4288903e-38
-0.23699923 0.11488443 0.99475008 1.170346e-38
-0.23699923 0.11488443 0.99725008 1.1520864e-38
-0.23699923 0.11238442 0.99975008 1.4011956e-38
-0.23699923 0.11488443 0.99975008 1.0874788e-38
-0.23949923 0.11738443 0.99725008 1.1333949e-38
-0.23699923 0.11738443 0.99725008 1.1334299e-38
-0.23949923 0.11738443 0.99975008 1.1241753e-38
-0.23949923 0.11988442 0.99975008 1.2253757e-38
-0.23699923 0.11738443 0.99975008 1.2070065e-38
-0.23699923 0.11988442 0.99975008 1.6030867e-38
-0.23449923 0.11238442 0.99475008 1.3643534e-38
-0.23449923 0.11238442 0.99725008 1.2353498e-38
-0.23449923 0.11488443 0.99725008 1.170346e-38
-0.23199923 0.11238442 0.99475008 1.2445341e-38
-0.23199923 0.11238442 0.99725008 1.0970561e-38
-0.23449923 0.11238442 0.99975008 1.2630801e-38
-0.23449923 0.11488443 0.99975008 1.096839e-38
-0.23199923 0.11238442 0.99975008 1.0785812e-38
-0.23199923 0.11488443 0.99975008 1.0876195e-38
-0.23449923 0.11738443 0.99975008 1.5663916e-38
-0.23449923 0.11988442 0.99975008 1.6858869e-38
-0.23199923 0.11738443 0.99975008 1.8986812e-38
-0.23199923 0.11988442 0.99975008 2.0182191e-38
-0.23699923 0.11488443 1.0047501 1.1059885e-38
-0.23949923 0.11988442 1.0047501 1.2440993e-38
-0.23699923 0.11738443 1.0047501 1.1060586e-38
-0.23699923 0.11988442 1.0047501 1.6307455e-38
-0.23449923 0.11488443 1.0047501 1.0968037e-38
-0.23199923 0.11238442 1.0047501 1.1428665e-38
-0.23199923 0.11488443 1.0047501 1.1519768e-38
-0.23449923 0.11738443 1.0047501 1.1241403e-38
-0.23449923 0.11988442 1.0047501 1.6859938e-38
-0.23199923 0.11738443 1.0047501 1.1794539e-38
-0.23199923 0.11988442 1.0047501 1.9262676e-38
-0.22949922 0.097384423 0.98975009 2.3494072e-38
-0.22949922 0.097384423 0.99225008 2.3505209e-38
-0.22949922 0.099884428 0.98975009 2.2210903e-38
-0.22949922 0.099884428 0.99225008 1.9535454e-38
-0.22699922 0.097384423 0.98975009 2.3505211e-38
-0.22699922 0.097384423 0.99225008 2.3505209e-38
-0.22699922 0.099884428 0.98975009 1.9994267e-38
-0.22699922 0.099884428 0.99225008 1.815252e-38
-0.22449923 0.097384423 0.99225008 2.3508805e-38
-0.22449923 0.099884428 0.98975009 1.8242507e-38
-0.22449923 0.099884428 0.99225008 1.7416698e-38
-0.22199923 0.099884428 0.99225008 1.7047206e-38
-0.21949923 0.099884428 0.99225008 1.7047206e-38
-0.22949922 0.087384425 1.0122501 1.4280672e-38
-0.22949922 0.089884423 1.0097501 9.8678191e-39
-0.22949922 0.089884423 1.0122501 9.9614496e-39
-0.22699922 0.087384425 1.0122501 1.3635302e-38
-0.22699922 0.089884423 1.0122501 8.9397391e-39
-0.22449923 0.089884423 1.0122501 1.0322674e-38
-0.22199923 0.089884423 1.0122501 1.1977854e-38
-0.22949922 0.092384428 0.99725008 1.6403632e-38
-0.22949922 0.094884425 0.99475008 1.5575301e-38
-0.22949922 0.094884425 0.99725008 1.5851888e-38
-0.22699922 0.094884425 0.99725008 1.6403635e-38
-0.22949922 0.094884425 0.99975008 1.585152e-38
-0.22699922 0.094884425 0.99975008 1.6493667e-38
-0.22949922 0.097384423 0.99475008 2.2859071e-38
-0.22949922 0.097384423 0.99725008 2.3504439e-38
-0.22699922 0.097384423 0.99475008 2.3507728e-38
-0.22699922 0.097384423 0.99725008 2.3507363e-38
-0.22449923 0.094884425 0.99725008 1.7049004e-38
-0.22199923 0.094884425 0.99725008 1.8980441e-38
-0.22449923 0.094884425 0.99975008 1.7228001e-38
-0.22199923 0.094884425 0.99975008 2.0824353e-38
-0.22449923 0.097384423 0.99475008 2.3506284e-38
-0.22449923 0.097384423 0.99725008 2.3509163e-38
-0.22449923 0.099884428 0.99475008 1.7047557e-38
-0.22199923 0.097384423 0.99475008 2.2491065e-38
-0.22199923 0.097384423 0.99725008 2.3319396e-38
-0.22199923 0.099884428 0.99475008 1.6863891e-38
-0.22199923 0.099884428 0.99725008 2.1385796e-38
-0.22949922 0.092384428 1.0047501 1.3913593e-38
-0.22949922 0.092384428 1.0072501 1.6398575e-38
-0.22949922 0.094884425 1.0047501 1.6219241e-38
-0.22699922 0.092384428 1.0072501 1.713614e-38
-0.22699922 0.094884425 1.0047501 1.6494386e-38
-0.22949922 0.092384428 1.0097501 1.3271467e-38
-0.22949922 0.092384428 1.0122501 1.2074021e-38
-0.22699922 0.092384428 1.0097501 1.594549e-38
-0.22699922 0.092384428 1.0122501 1.3548791e-38
-0.22449923 0.092384428 1.0047501 1.6589081e-38
-0.22449923 0.092384428 1.0072501 1.6495089e-38
-0.22449923 0.094884425 1.0047501 1.7506011e-38
-0.22449923 0.094884425 1.0072501 1.8430138e-38
-0.22199923 0.092384428 1.0047501 1.6312493e-38
-0.22199923 0.092384428 1.0072501 1.6219947e-38
-0.22199923 0.094884425 1.0047501 2.1747325e-38
-0.22199923 0.094884425 1.0072501 2.1841296e-38
-0.22449923 0.092384428 1.0097501 1.659086e-38
-0.22449923 0.092384428 1.0122501 1.6498663e-38
-0.22199923 0.092384428 1.0097501 1.6864244e-38
-0.22199923 0.092384428 1.0122501 1.6219238e-38
-0.22199923 0.097384423 1.0047501 2.1103856e-38
-0.21949923 0.089884423 1.0122501 1.4554659e-38
-0.21949923 0.094884425 0.99975008 2.349946e-38
-0.21699923 0.094884425 0.99975008 2.3508448e-38
-0.21949923 0.097384423 0.99475008 2.1569108e-38
-0.21949923 0.097384423 0.99725008 2.1655584e-38
-0.21949923 0.099884428 0.99475008 1.7048283e-38
-0.21949923 0.099884428 0.99725008 1.668237e-38
-0.21699923 0.097384423 0.99725008 1.8425497e-38
-0.21699923 0.099884428 0.99725008 1.7417784e-38
-0.21949923 0.097384423 0.99975008 2.1102069e-38
-0.21949923 0.099884428 0.99975008 1.7610474e-38
-0.21699923 0.097384423 0.99975008 1.8707451e-38
-0.21449922 0.094884425 0.99975008 2.3507367e-38
-0.21449922 0.099884428 0.99725008 1.7786925e-38
-0.21449922 0.097384423 0.99975008 1.7964159e-38
-0.21449922 0.099884428 0.99975008 1.7879117e-38
-0.21199922 0.097384423 0.99975008 1.7323421e-38
-0.21199922 0.099884428 0.99975008 1.8154627e-38
-0.21949923 0.092384428 1.0072501 1.6219947e-38
-0.21949923 0.094884425 1.0047501 2.2761836e-38
-0.21949923 0.094884425 1.0072501 2.2855807e-38
-0.21699923 0.092384428 1.0072501 1.6401468e-38
-0.21699923 0.094884425 1.0047501 2.3505536e-38
-0.21699923 0.094884425 1.0072501 2.3508057e-38
-0.21949923 0.092384428 1.0097501 1.6772049e-38
-0.21949923 0.092384428 1.0122501 1.649403e-38
-0.21699923 0.092384428 1.0097501 1.6677695e-38
-0.21699923 0.092384428 1.0122501 1.6581925e-38
-0.21699923 0.094884425 1.0097501 2.3507355e-38
-0.21449922 0.094884425 1.0047501 2.3506291e-38
-0.21449922 0.094884425 1.0072501 2.3507016e-38
-0.21199922 0.094884425 1.0047501 2.3319736e-38
-0.21199922 0.094884425 1.0072501 2.2302751e-38
-0.21449922 0.092384428 1.0097501 1.8427272e-38
-0.21449922 0.092384428 1.0122501 1.6766676e-38
-0.21449922 0.094884425 1.0097501 2.350594e-38
-0.21199922 0.092384428 1.0097501 2.2569959e-38
-0.21199922 0.092384428 1.0122501 1.8336834e-38
-0.21199922 0.094884425 1.0097501 2.2302751e-38
-0.21449922 0.097384423 1.0047501 1.6956437e-38
-0.21449922 0.097384423 1.0072501 2.350629e-38
-0.21449922 0.099884428 1.0047501 1.7231948e-38
-0.21199922 0.097384423 1.0047501 1.7415616e-38
-0.21199922 0.097384423 1.0072501 1.9637334e-38
-0.21199922 0.099884428 1.0047501 1.7324146e-38
-0.21199922 0.099884428 1.0072501 1.7785478e-38
-0.22949922 0.10238443 0.98725009 1.7049355e-38
-0.22949922 0.10488442 0.98725009 1.7969869e-38
-0.22699922 0.10238443 0.98725009 1.7234103e-38
-0.22699922 0.10488442 0.98725009 1.824538e-38
-0.22949922 0.10238443 0.98975009 1.6956437e-38
-0.22949922 0.10238443 0.99225008 1.6865689e-38
-0.22949922 0.10488442 0.98975009 1.7692929e-38
-0.22699922 0.10238443 0.98975009 1.7049711e-38
-0.22699922 0.10238443 0.99225008 1.7234472e-38
-0.22699922 0.10488442 0.98975009 1.7694371e-38
-0.22699922 0.10488442 0.99225008 1.7879122e-38
-0.22949922 0.10738443 0.98725009 1.778764e-38
-0.22949922 0.10988443 0.98725009 1.3547733e-38
-0.22699922 0.10738443 0.98725009 1.7602178e-38
-0.22699922 0.10988443 0.98725009 1.2439929e-38
-0.22949922 0.10738443 0.98975009 1.7879122e-38
-0.22949922 0.10988443 0.98975009 1.3271504e-38
-0.22949922 0.10988443 0.99225008 1.7693655e-38
-0.22699922 0.10738443 0.98975009 1.8063151e-38
-0.22699922 0.10738443 0.99225008 1.7694727e-38
-0.22699922 0.10988443 0.98975009 1.3085308e-38
-0.22699922 0.10988443 0.99225008 1.2716886e-38
-0.22449923 0.10238443 0.98975009 1.7879117e-38
-0.22449923 0.10238443 0.99225008 1.7694727e-38
-0.22449923 0.10488442 0.98975009 1.7971681e-38
-0.22449923 0.10488442 0.99225008 1.8706002e-38
-0.22199923 0.10238443 0.99225008 1.7047204e-38
-0.22449923 0.10738443 0.98975009 1.70501e-38
-0.22449923 0.10738443 0.99225008 1.7417784e-38
-0.22449923 0.10988443 0.99225008 1.5761502e-38
-0.21949923 0.10238443 0.99225008 1.7324149e-38
-0.22699922 0.10488442 0.99475008 1.778729e-38
-0.22949922 0.10988443 0.99725008 1.7232317e-38
-0.22699922 0.10738443 0.99475008 1.7049374e-38
-0.22699922 0.10988443 0.99475008 1.5667516e-38
-0.22699922 0.10988443 0.99725008 1.5760784e-38
-0.22449923 0.10238443 0.99475008 1.6496181e-38
-0.22449923 0.10488442 0.99475008 1.7971681e-38
-0.22199923 0.10238443 0.99475008 1.6864607e-38
-0.22199923 0.10488442 0.99475008 1.7879841e-38
-0.22199923 0.10488442 0.99725008 1.7880207e-38
-0.22449923 0.10738443 0.99475008 1.6219972e-38
-0.22449923 0.10738443 0.99725008 1.6496203e-38
-0.22449923 0.10988443 0.99475008 1.4931023e-38
-0.22449923 0.10988443 0.99725008 1.428673e-38
-0.22199923 0.10738443 0.99475008 1.4836348e-38
-0.22199923 0.10738443 0.99725008 1.446684e-38
-0.22199923 0.10988443 0.99725008 1.2352049e-38
-0.22449923 0.10738443 0.99975008 1.4467216e-38
-0.22449923 0.10988443 0.99975008 1.4285654e-38
-0.22199923 0.10738443 0.99975008 1.4006236e-38
-0.22199923 0.10988443 0.99975008 1.1341502e-38
-0.22449923 0.10988443 1.0047501 1.2351359e-38
-0.22449923 0.10988443 1.0072501 1.1708126e-38
-0.22199923 0.10738443 1.0047501 1.3362618e-38
-0.22199923 0.10738443 1.0072501 1.3730683e-38
-0.22199923 0.10988443 1.0047501 1.1890382e-38
-0.22199923 0.10988443 1.0072501 1.2257697e-38
-0.22199923 0.10988443 1.0097501 1.2073312e-38
-0.22949922 0.11238442 0.99725008 1.1244997e-38
-0.22949922 0.11238442 0.99975008 1.2717249e-38
-0.22699922 0.11238442 0.99975008 1.2256264e-38
-0.22449923 0.11238442 0.99975008 1.0966958e-38
-0.22949922 0.11238442 1.0047501 1.2716533e-38
-0.22949922 0.11488443 1.0047501 1.1150989e-38
-0.22949922 0.11488443 1.0072501 1.1609091e-38
-0.22699922 0.11238442 1.0047501 1.115028e-38
-0.22699922 0.11488443 1.0072501 1.289983e-38
-0.22699922 0.11488443 1.0097501 1.4280982e-38
-0.22949922 0.11738443 1.0047501 1.2257327e-38
-0.22949922 0.11738443 1.0072501 1.3912542e-38
-0.22949922 0.11988442 1.0047501 1.9721215e-38
-0.22949922 0.11988442 1.0072501 1.8800002e-38
-0.22699922 0.11738443 1.0047501 1.41877e-38
-0.22699922 0.11738443 1.0072501 1.501853e-38
-0.22699922 0.11988442 1.0047501 1.8892561e-38
-0.22699922 0.11988442 1.0072501 1.926062e-38
-0.22699922 0.11738443 1.0097501 1.6949969e-38
-0.22449923 0.11238442 1.0047501 1.0965169e-38
-0.22449923 0.11238442 1.0072501 1.0596386e-38
-0.22449923 0.11488443 1.0072501 1.1699504e-38
-0.22449923 0.11238442 1.0097501 1.0875491e-38
-0.22449923 0.11488443 1.0097501 1.5295492e-38
-0.22199923 0.11238442 1.0097501 1.1518315e-38
-0.22199923 0.11238442 1.0122501 1.1335002e-38
-0.22199923 0.11488443 1.0097501 1.16105e-38
-0.22199923 0.11488443 1.0122501 1.16105e-38
-0.22449923 0.11738443 1.0072501 1.6031257e-38
-0.22449923 0.11988442 1.0072501 1.8800716e-38
-0.22449923 0.11738443 1.0097501 1.7598941e-38
-0.22449923 0.11738443 1.0122501 1.5757153e-38
-0.22449923 0.11988442 1.0097501 1.9077664e-38
-0.22199923 0.11738443 1.0097501 1.9260605e-38
-0.22199923 0.11738443 1.0122501 1.9352801e-38
-0.22199923 0.11988442 1.0097501 1.9076955e-38
-0.21949923 0.10238443 0.99475008 1.723375e-38
-0.21949923 0.10238443 0.99725008 1.7509977e-38
-0.21949923 0.10488442 0.99475008 1.8064232e-38
-0.21949923 0.10488442 0.99725008 1.8064583e-38
-0.21699923 0.10238443 0.99725008 1.7694374e-38
-0.21699923 0.10488442 0.99725008 1.8339021e-38
-0.21949923 0.10488442 0.99975008 1.7419213e-38
-0.21699923 0.10238443 0.99975008 1.8707084e-38
-0.21699923 0.10488442 0.99975008 1.7509264e-38
-0.21949923 0.10738443 0.99975008 1.7234472e-38
-0.21699923 0.10738443 0.99975008 1.686461e-38
-0.21449922 0.10238443 0.99725008 1.833974e-38
-0.21449922 0.10238443 0.99975008 1.8062797e-38
-0.21449922 0.10488442 0.99975008 1.7232317e-38
-0.21199922 0.10238443 0.99975008 1.8523055e-38
-0.21199922 0.10488442 0.99975008 1.6404733e-38
-0.21449922 0.10738443 0.99975008 1.640579e-38
-0.21199922 0.10738443 0.99975008 1.4840275e-38
-0.21949923 0.10738443 1.0047501 1.2901999e-38
-0.21949923 0.10738443 1.0072501 1.2808728e-38
-0.21949923 0.10988443 1.0047501 1.13361e-38
-0.21949923 0.10988443 1.0072501 1.1428295e-38
-0.21699923 0.10738443 1.0047501 1.2255911e-38
-0.21699923 0.10738443 1.0072501 1.1518345e-38
-0.21699923 0.10988443 1.0072501 1.1519062e-38
-0.21949923 0.10988443 1.0097501 1.0967334e-38
-0.21699923 0.10988443 1.0097501 1.0689301e-38
-0.21699923 0.10988443 1.0122501 1.050489e-38
-0.21449922 0.10238443 1.0047501 1.8433015e-38
-0.21449922 0.10488442 1.0047501 1.6035947e-38
-0.21199922 0.10238443 1.0047501 1.8154627e-38
-0.21199922 0.10238443 1.0072501 1.8338296e-38
-0.21199922 0.10488442 1.0072501 1.5757912e-38
-0.21449922 0.10488442 1.0097501 1.5113992e-38
-0.21199922 0.10488442 1.0097501 1.4005849e-38
-0.21449922 0.10738443 1.0047501 1.5022512e-38
-0.21449922 0.10738443 1.0072501 1.4196705e-38
-0.21449922 0.10738443 1.0097501 1.4008719e-38
-0.21449922 0.10738443 1.0122501 1.3459138e-38
-0.21449922 0.10988443 1.0097501 1.1425444e-38
-0.21449922 0.10988443 1.0122501 1.0964465e-38
-0.21199922 0.10738443 1.0097501 1.2168747e-38
-0.21199922 0.10738443 1.0122501 1.2628287e-38
-0.21199922 0.10988443 1.0122501 1.1242106e-38
-0.21949923 0.11238442 1.0097501 1.1241033e-38
-0.21949923 0.11238442 1.0122501 1.1517261e-38
-0.21949923 0.11488443 1.0097501 1.151975e-38
-0.21949923 0.11488443 1.0122501 1.225196e-38
-0.21699923 0.11238442 1.0122501 1.1517261e-38
-0.21699923 0.11488443 1.0122501 1.3266114e-38
-0.21949923 0.11738443 1.0097501 1.9167693e-38
-0.21949923 0.11738443 1.0122501 1.8614535e-38
-0.21949923 0.11988442 1.0097501 1.8339024e-38
-0.21949923 0.11988442 1.0122501 1.8523055e-38
-0.21699923 0.11738443 1.0122501 1.9446085e-38
-0.21699923 0.11988442 1.0097501 1.8614532e-38
-0.21699923 0.11988442 1.0122501 1.8524139e-38
-0.21449922 0.11738443 1.0122501 1.8985466e-38
-0.21449922 0.11988442 1.0122501 1.8431942e-38
-0.21199922 0.11738443 1.0122501 1.8707451e-38
-0.21199922 0.11988442 1.0122501 1.8615607e-38
-0.24699923 0.084884427 1.0147501 1.8152818e-38
-0.24699923 0.084884427 1.0197501 1.7784756e-38
-0.24699923 0.087384425 1.0147501 1.6864242e-38
-0.24449922 0.084884427 1.0147501 1.7414191e-38
-0.24199922 0.082384422 1.0147501 1.8707787e-38
-0.24199922 0.084884427 1.0147501 1.72298e-38
-0.24449922 0.084884427 1.0197501 1.7139399e-38
-0.24199922 0.082384422 1.0197501 1.9074049e-38
-0.24199922 0.082384422 1.0222501 1.8705633e-38
-0.24199922 0.084884427 1.0197501 1.6770975e-38
-0.24199922 0.084884427 1.0222501 1.6678051e-38
-0.24449922 0.087384425 1.0147501 1.5853685e-38
-0.24199922 0.087384425 1.0147501 1.5943367e-38
-0.24199922 0.087384425 1.0197501 1.5944452e-38
-0.23949923 0.084884427 1.0147501 1.6679127e-38
-0.23699923 0.084884427 1.0147501 1.667913e-38
-0.23949923 0.082384422 1.0197501 1.7600728e-38
-0.23949923 0.082384422 1.0222501 1.7694355e-38
-0.23949923 0.084884427 1.0197501 1.6679849e-38
-0.23949923 0.084884427 1.0222501 1.6954288e-38
-0.23699923 0.082384422 1.0197501 1.6864963e-38
-0.23699923 0.082384422 1.0222501 1.7325572e-38
-0.23699923 0.084884427 1.0197501 1.6956437e-38
-0.23949923 0.087384425 1.0147501 1.9170913e-38
-0.23699923 0.087384425 1.0147501 1.8341195e-38
-0.23699923 0.089884423 1.0147501 1.7509982e-38
-0.23949923 0.087384425 1.0197501 1.8799665e-38
-0.23949923 0.089884423 1.0197501 1.8155352e-38
-0.23699923 0.087384425 1.0197501 1.8523438e-38
-0.23449923 0.084884427 1.0147501 1.6956806e-38
-0.23199923 0.084884427 1.0147501 1.6956806e-38
-0.23449923 0.082384422 1.0197501 1.6772765e-38
-0.23449923 0.082384422 1.0222501 1.594373e-38
-0.23449923 0.084884427 1.0197501 1.7417418e-38
-0.23199923 0.082384422 1.0197501 1.6496537e-38
-0.23199923 0.082384422 1.0222501 1.5667866e-38
-0.23199923 0.084884427 1.0197501 1.8523396e-38
-0.23449923 0.087384425 1.0147501 1.8064232e-38
-0.23449923 0.089884423 1.0147501 1.6221026e-38
-0.23199923 0.087384425 1.0147501 1.6865689e-38
-0.23199923 0.089884423 1.0147501 1.4378187e-38
-0.23449923 0.087384425 1.0197501 1.7879841e-38
-0.23199923 0.087384425 1.0197501 1.925846e-38
-0.23199923 0.082384422 1.0247501 1.5850462e-38
-0.22949922 0.084884427 1.0147501 1.7970591e-38
-0.22949922 0.082384422 1.0197501 1.5851537e-38
-0.22949922 0.082384422 1.0222501 1.5943367e-38
-0.22949922 0.084884427 1.0197501 1.8523406e-38
-0.22949922 0.084884427 1.0222501 1.9078014e-38
-0.22699922 0.082384422 1.0197501 1.6679143e-38
-0.22699922 0.082384422 1.0222501 1.631179e-38
-0.22699922 0.084884427 1.0197501 1.9446791e-38
-0.22699922 0.084884427 1.0222501 1.9538634e-38
-0.22949922 0.087384425 1.0147501 1.3451987e-38
-0.22949922 0.089884423 1.0147501 8.8540203e-39
-0.22699922 0.087384425 1.0147501 1.1701302e-38
-0.22699922 0.089884423 1.0147501 9.029411e-39
-0.22949922 0.087384425 1.0197501 1.9903829e-38
-0.22699922 0.087384425 1.0197501 1.7972384e-38
-0.22449923 0.082384422 1.0197501 1.6953942e-38
-0.22449923 0.082384422 1.0222501 1.6218537e-38
-0.22449923 0.084884427 1.0197501 1.8063897e-38
-0.22449923 0.084884427 1.0222501 1.797028e-38
-0.22199923 0.082384422 1.0197501 1.6955384e-38
-0.22199923 0.082384422 1.0222501 1.6863907e-38
-0.22199923 0.084884427 1.0197501 1.7694769e-38
-0.22199923 0.084884427 1.0222501 1.7049004e-38
-0.22449923 0.087384425 1.0147501 1.0870768e-38
-0.22449923 0.089884423 1.0147501 1.2253011e-38
-0.22199923 0.087384425 1.0147501 1.1423583e-38
-0.22199923 0.089884423 1.0147501 1.2715419e-38
-0.22449923 0.087384425 1.0197501 1.7234835e-38
-0.22449923 0.087384425 1.0222501 1.7234835e-38
-0.22199923 0.087384425 1.0197501 1.6958608e-38
-0.22199923 0.087384425 1.0222501 1.4565462e-38
-0.22949922 0.082384422 1.0247501 1.5850817e-38
-0.22699922 0.082384422 1.0247501 1.6311436e-38
-0.22449923 0.082384422 1.0247501 1.6678441e-38
-0.22199923 0.082384422 1.0247501 1.7784771e-38
-0.22199923 0.082384422 1.0272501 1.686461e-38
-0.22199923 0.084884427 1.0272501 1.8244308e-38
-0.21949923 0.082384422 1.0222501 1.8707451e-38
-0.21949923 0.084884427 1.0197501 1.7141553e-38
-0.21949923 0.084884427 1.0222501 1.6219244e-38
-0.21699923 0.082384422 1.0222501 1.8799997e-38
-0.21699923 0.084884427 1.0222501 1.2899167e-38
-0.21949923 0.087384425 1.0147501 1.2900883e-38
-0.21949923 0.089884423 1.0147501 1.3821047e-38
-0.21699923 0.087384425 1.0147501 1.2900883e-38
-0.21699923 0.089884423 1.0147501 1.6491865e-38
-0.21949923 0.087384425 1.0197501 1.2809024e-38
-0.21949923 0.087384425 1.0222501 1.1985435e-38
-0.21949923 0.089884423 1.0197501 1.5110706e-38
-0.21699923 0.087384425 1.0197501 1.4561482e-38
-0.21699923 0.087384425 1.0222501 1.0232995e-38
-0.21699923 0.089884423 1.0197501 1.695319e-38
-0.21449922 0.082384422 1.0222501 1.8891467e-38
-0.21449922 0.084884427 1.0222501 1.1885658e-38
-0.21449922 0.089884423 1.0147501 1.6860647e-38
-0.21199922 0.089884423 1.0147501 1.5944083e-38
-0.21449922 0.087384425 1.0197501 1.6128124e-38
-0.21449922 0.087384425 1.0222501 1.1882799e-38
-0.21449922 0.089884423 1.0197501 1.612884e-38
-0.21199922 0.087384425 1.0222501 1.2622169e-38
-0.21199922 0.089884423 1.0197501 1.5575301e-38
-0.21199922 0.089884423 1.0222501 1.6128124e-38
-0.21949923 0.082384422 1.0247501 1.9536483e-38
-0.21699923 0.082384422 1.0247501 1.9075863e-38
-0.21699923 0.084884427 1.0247501 1.1885015e-38
-0.21449922 0.082384422 1.0247501 1.8524486e-38
-0.21449922 0.082384422 1.0272501 1.9353536e-38
-0.21449922 0.084884427 1.0247501 1.1792393e-38
-0.21449922 0.084884427 1.0272501 1.1607642e-38
-0.21199922 0.082384422 1.0272501 1.8985466e-38
-0.21199922 0.084884427 1.0247501 1.3267834e-38
-0.21199922 0.084884427 1.0272501 1.3178157e-38
-0.21449922 0.082384422 1.0297501 1.9077664e-38
-0.21449922 0.084884427 1.0297501 1.8155702e-38
-0.21199922 0.082384422 1.0297501 1.8800706e-38
-0.21199922 0.084884427 1.0297501 1.7787979e-38
-0.21199922 0.087384425 1.0247501 1.4279868e-38
-0.21699923 0.092384428 1.0147501 1.6033054e-38
-0.21449922 0.092384428 1.0147501 1.6310367e-38
-0.21199922 0.092384428 1.0147501 2.1101606e-38
-0.22199923 0.11738443 1.0147501 1.8341458e-38
-0.21199922 0.10738443 1.0147501 1.1522311e-38
-0.21199922 0.10988443 1.0147501 1.1518693e-38
-0.21199922 0.10738443 1.0197501 1.1708129e-38
-0.21199922 0.10988443 1.0197501 1.1610869e-38
-0.21699923 0.11238442 1.0147501 1.3270721e-38
-0.21699923 0.11488443 1.0147501 1.3173918e-38
-0.21699923 0.11488443 1.0197501 1.6766631e-38
-0.21949923 0.11738443 1.0147501 1.8522708e-38
-0.21699923 0.11738443 1.0147501 1.9354245e-38
-0.21449922 0.11238442 1.0147501 1.5575613e-38
-0.21449922 0.11488443 1.0147501 1.7135774e-38
-0.21199922 0.11238442 1.0147501 1.6493311e-38
-0.21199922 0.11488443 1.0147501 1.8056316e-38
-0.21449922 0.11238442 1.0197501 1.6217779e-38
-0.21449922 0.11488443 1.0197501 1.7965553e-38
-0.21199922 0.11238442 1.0197501 1.1331796e-38
-0.21199922 0.11238442 1.0222501 1.1424698e-38
-0.21199922 0.11488443 1.0197501 1.9533614e-38
-0.21199922 0.11488443 1.0222501 1.9808394e-38
-0.21449922 0.11738443 1.0147501 1.9077661e-38
-0.21199922 0.11738443 1.0147501 1.870852e-38
-0.21199922 0.11738443 1.0197501 1.9628313e-38
-0.21199922 0.11238442 1.0247501 1.0871876e-38
-0.21199922 0.11488443 1.0247501 1.9999539e-38
-0.20949923 0.079884425 1.0297501 1.6770973e-38
-0.20949923 0.079884425 1.0347501 1.9439952e-38
-0.20949923 0.092384428 1.0097501 2.3494068e-38
-0.20949923 0.092384428 1.0122501 2.3503047e-38
-0.20949923 0.094884425 1.0097501 2.1657383e-38
-0.20699923 0.092384428 1.0097501 2.3503047e-38
-0.20699923 0.092384428 1.0122501 2.3503047e-38
-0.20699923 0.094884425 1.0097501 1.9165949e-38
-0.20699923 0.094884425 1.0122501 1.8889362e-38
-0.20949923 0.097384423 1.0047501 1.6681295e-38
-0.20949923 0.097384423 1.0072501 1.65891e-38
-0.20949923 0.099884428 1.0047501 1.7416342e-38
-0.20949923 0.099884428 1.0072501 1.7969516e-38
-0.20699923 0.097384423 1.0072501 1.7417781e-38
-0.20699923 0.099884428 1.0072501 1.8614888e-38
-0.20949923 0.097384423 1.0097501 1.7424999e-38
-0.20949923 0.099884428 1.0097501 1.8338293e-38
-0.20699923 0.097384423 1.0097501 1.7786922e-38
-0.20699923 0.097384423 1.0122501 1.6315402e-38
-0.20699923 0.099884428 1.0097501 1.8430138e-38
-0.20449923 0.092384428 1.0097501 2.3509161e-38
-0.20449923 0.092384428 1.0122501 2.0095761e-38
-0.20449923 0.094884425 1.0097501 1.7693652e-38
-0.20449923 0.094884425 1.0122501 1.4928502e-38
-0.20199923 0.092384428 1.0122501 1.6410475e-38
-0.20199923 0.094884425 1.0097501 1.6129509e-38
-0.20199923 0.094884425 1.0122501 1.5576713e-38
-0.20449923 0.097384423 1.0097501 1.8155346e-38
-0.20449923 0.097384423 1.0122501 1.8339024e-38
-0.20449923 0.099884428 1.0097501 1.8063507e-38
-0.20449923 0.099884428 1.0122501 1.8522687e-38
-0.20199923 0.097384423 1.0097501 1.8155346e-38
-0.20199923 0.097384423 1.0122501 1.8339377e-38
-0.20199923 0.099884428 1.0097501 1.8155702e-38
-0.20199923 0.099884428 1.0122501 1.8891116e-38
-0.19699922 0.089884423 1.0122501 2.2116149e-38
-0.19449922 0.089884423 1.0122501 2.1380381e-38
-0.19949922 0.092384428 1.0122501 1.5672551e-38
-0.19949922 0.094884425 1.0097501 1.7143661e-38
-0.19949922 0.094884425 1.0122501 1.6774898e-38
-0.19699922 0.092384428 1.0122501 1.5299808e-38
-0.19699922 0.094884425 1.0122501 1.6590172e-38
-0.19949922 0.097384423 1.0097501 1.8062782e-38
-0.19949922 0.097384423 1.0122501 1.7970235e-38
-0.19949922 0.099884428 1.0122501 1.8061714e-38
-0.19699922 0.097384423 1.0122501 1.7694005e-38
-0.19699922 0.099884428 1.0122501 1.8153166e-38
-0.19449922 0.092384428 1.0097501 1.7139402e-38
-0.19449922 0.092384428 1.0122501 1.7321627e-38
-0.19449922 0.094884425 1.0097501 1.787697e-38
-0.19449922 0.094884425 1.0122501 1.8152112e-38
-0.19199923 0.092384428 1.0097501 1.9352097e-38
-0.19199923 0.092384428 1.0122501 1.999421e-38
-0.19199923 0.094884425 1.0097501 1.9628328e-38
-0.19199923 0.094884425 1.0122501 2.008605e-38
-0.19449922 0.097384423 1.0097501 1.8428679e-38
-0.19449922 0.097384423 1.0122501 1.8427973e-38
