# .PCD v0.7 - Point Cloud Data file format
VERSION 0.7
FIELDS x y z rgb
SIZE 4 4 4 4
TYPE F F F F
COUNT 1 1 1 1
WIDTH 1029
HEIGHT 1
VIEWPOINT 0 0 0 1 0 0 0
POINTS 1029
DATA ascii
-0.30260018 0.056045346 1.0697501 1.82461e-38
-0.30260018 0.058545347 1.0697501 1.5668222e-38
-0.30260018 0.058545347 1.07225 1.8337574e-38
-0.30010015 0.056045346 1.0697501 1.7877317e-38
-0.30010015 0.058545347 1.0697501 1.6036276e-38
-0.30010015 0.058545347 1.07225 1.6494386e-38
-0.29760015 0.056045346 1.0697501 1.6957156e-38
-0.29760015 0.058545347 1.0697501 1.6495102e-38
-0.29760015 0.058545347 1.07225 1.6497254e-38
-0.30510017 0.068545349 1.05725 1.2998823e-38
-0.30510017 0.066045344 1.06225 1.2533281e-38
-0.30510017 0.068545349 1.05975 1.2630042e-38
-0.30510017 0.068545349 1.06225 9.9560771e-39
-0.30260018 0.068545349 1.05975 1.5576373e-38
-0.30260018 0.068545349 1.06225 1.0600718e-38
-0.30010015 0.068545349 1.05975 1.5577824e-38
-0.30010015 0.068545349 1.06225 1.2164078e-38
-0.29760015 0.066045344 1.06225 1.2165482e-38
-0.29760015 0.068545349 1.05975 1.5758263e-38
-0.29760015 0.068545349 1.06225 1.3268608e-38
-0.30510017 0.063545346 1.06725 1.972268e-38
-0.30510017 0.061045349 1.0697501 1.4932824e-38
-0.30510017 0.061045349 1.07225 1.5300159e-38
-0.30510017 0.063545346 1.0697501 1.8986915e-38
-0.30510017 0.063545346 1.07225 1.8527008e-38
-0.30260018 0.061045349 1.0697501 1.576114e-38
-0.30260018 0.061045349 1.07225 1.6496554e-38
-0.30260018 0.063545346 1.0697501 1.8345135e-38
-0.30260018 0.063545346 1.07225 1.9080192e-38
-0.30510017 0.066045344 1.06725 1.1700646e-38
-0.30510017 0.068545349 1.06725 1.0416334e-38
-0.30260018 0.066045344 1.06725 1.1333949e-38
-0.30260018 0.068545349 1.06725 1.1426513e-38
-0.30510017 0.066045344 1.0697501 1.188539e-38
-0.30510017 0.066045344 1.07225 1.9169508e-38
-0.30260018 0.066045344 1.0697501 1.1702361e-38
-0.29760015 0.063545346 1.06725 1.5394891e-38
-0.30010015 0.061045349 1.0697501 1.6680592e-38
-0.30010015 0.061045349 1.07225 1.7048304e-38
-0.30010015 0.063545346 1.0697501 1.6685629e-38
-0.30010015 0.063545346 1.07225 1.8340507e-38
-0.29760015 0.061045349 1.0697501 1.7049374e-38
-0.29760015 0.061045349 1.07225 1.7232696e-38
-0.29760015 0.063545346 1.0697501 1.7052634e-38
-0.29760015 0.063545346 1.07225 1.7049415e-38
-0.30010015 0.066045344 1.06725 1.1149556e-38
-0.30010015 0.068545349 1.06725 1.2164428e-38
-0.29760015 0.066045344 1.06725 1.179706e-38
-0.30010015 0.066045344 1.0697501 1.1794557e-38
-0.29510015 0.058545347 1.05725 1.6127042e-38
-0.29260015 0.058545347 1.05725 1.6772412e-38
-0.29510015 0.058545347 1.05975 1.65873e-38
-0.29510015 0.058545347 1.0697501 1.7142626e-38
-0.29510015 0.058545347 1.07225 1.7234819e-38
-0.29260015 0.056045346 1.07225 1.6585881e-38
-0.29260015 0.058545347 1.0697501 1.7604681e-38
-0.29260015 0.058545347 1.07225 1.8065658e-38
-0.28760016 0.053545348 1.07225 1.8338293e-38
-0.29010016 0.056045346 1.07225 1.6401131e-38
-0.29010016 0.058545347 1.07225 1.8434441e-38
-0.28760016 0.056045346 1.07225 1.6033424e-38
-0.28760016 0.058545347 1.07225 1.8803962e-38
-0.29510015 0.063545346 1.06225 1.5487093e-38
-0.29260015 0.063545346 1.06225 1.1349423e-38
-0.29260015 0.068545349 1.05725 1.6311073e-38
-0.29510015 0.066045344 1.06225 1.2258036e-38
-0.29510015 0.068545349 1.05975 1.5943014e-38
-0.29510015 0.068545349 1.06225 1.3545555e-38
-0.29260015 0.066045344 1.06225 1.309174e-38
-0.29260015 0.068545349 1.05975 1.6309639e-38
-0.29260015 0.068545349 1.06225 1.5848974e-38
-0.29010016 0.063545346 1.06225 8.2076013e-39
-0.28760016 0.063545346 1.06225 9.4983401e-39
-0.29010016 0.068545349 1.05725 1.7601812e-38
-0.28760016 0.068545349 1.05725 1.9999583e-38
-0.29010016 0.066045344 1.05975 1.4750562e-38
-0.29010016 0.066045344 1.06225 1.465766e-38
-0.29010016 0.068545349 1.05975 1.7784769e-38
-0.28760016 0.066045344 1.05975 1.5026789e-38
-0.28760016 0.066045344 1.06225 1.5210834e-38
-0.28760016 0.068545349 1.05975 1.548418e-38
-0.29510015 0.063545346 1.06725 1.1255423e-38
-0.29260015 0.063545346 1.06725 1.0517858e-38
-0.29510015 0.061045349 1.0697501 1.8339377e-38
-0.29510015 0.061045349 1.07225 1.8431939e-38
-0.29510015 0.063545346 1.0697501 1.613031e-38
-0.29510015 0.063545346 1.07225 1.5576786e-38
-0.29260015 0.061045349 1.0697501 1.9630479e-38
-0.29260015 0.061045349 1.07225 1.9353892e-38
-0.29260015 0.063545346 1.0697501 1.2255262e-38
-0.29510015 0.066045344 1.06725 1.318357e-38
-0.29260015 0.066045344 1.06725 1.318357e-38
-0.29010016 0.063545346 1.06725 9.1302765e-39
-0.28760016 0.063545346 1.06725 1.1975355e-38
-0.29010016 0.061045349 1.0697501 1.9353892e-38
-0.29010016 0.061045349 1.07225 1.9169861e-38
-0.29010016 0.063545346 1.0697501 1.1333305e-38
-0.28760016 0.061045349 1.0697501 1.8251498e-38
-0.28760016 0.061045349 1.07225 1.7329183e-38
-0.28760016 0.063545346 1.0697501 1.1423979e-38
-0.30510017 0.073545344 1.03975 1.6497254e-38
-0.30260018 0.071045347 1.03975 1.4287451e-38
-0.30260018 0.073545344 1.03975 1.3643501e-38
-0.30510017 0.076045349 1.03975 1.6311068e-38
-0.30260018 0.076045349 1.03975 1.2259495e-38
-0.30510017 0.073545344 1.04475 1.6773844e-38
-0.30260018 0.071045347 1.04475 1.363882e-38
-0.30260018 0.073545344 1.04475 1.3552032e-38
-0.30260018 0.073545344 1.04725 1.0233359e-38
-0.30260018 0.073545344 1.04975 1.041774e-38
-0.30510017 0.076045349 1.04475 1.6496158e-38
-0.30260018 0.076045349 1.04475 1.2626838e-38
-0.30260018 0.076045349 1.04725 1.0506339e-38
-0.30260018 0.078545347 1.04725 1.1885655e-38
-0.30260018 0.076045349 1.04975 1.1426863e-38
-0.30010015 0.071045347 1.04475 1.4376385e-38
-0.30010015 0.073545344 1.04475 1.3181108e-38
-0.30010015 0.073545344 1.04975 2.1281331e-38
-0.29760015 0.073545344 1.04975 2.35034e-38
-0.30010015 0.076045349 1.04725 1.2343415e-38
-0.30010015 0.078545347 1.04475 1.032156e-38
-0.30010015 0.078545347 1.04725 1.1793462e-38
-0.30010015 0.076045349 1.04975 1.7598565e-38
-0.30010015 0.078545347 1.04975 1.649544e-38
-0.29760015 0.076045349 1.04975 2.1839527e-38
-0.29760015 0.078545347 1.04975 1.8525558e-38
-0.30260018 0.081045344 1.04725 7.8344579e-39
-0.30010015 0.081045344 1.04475 1.0778585e-38
-0.30010015 0.081045344 1.04725 1.059277e-38
-0.30010015 0.081045344 1.04975 1.7415248e-38
-0.30010015 0.08354535 1.04975 1.6956793e-38
-0.29760015 0.081045344 1.04975 2.054848e-38
-0.29760015 0.08354535 1.04975 1.870634e-38
-0.29510015 0.073545344 1.04975 2.3507002e-38
-0.29260015 0.073545344 1.04975 2.3509886e-38
-0.29510015 0.076045349 1.04725 2.3130247e-38
-0.29510015 0.078545347 1.04725 2.267327e-38
-0.29260015 0.076045349 1.04725 2.2675068e-38
-0.29260015 0.078545347 1.04725 2.2307742e-38
-0.29510015 0.076045349 1.04975 2.2761483e-38
-0.29510015 0.078545347 1.04975 2.2213382e-38
-0.29260015 0.076045349 1.04975 2.3042774e-38
-0.29260015 0.078545347 1.04975 2.2308821e-38
-0.29010016 0.073545344 1.04975 2.3509886e-38
-0.28760016 0.073545344 1.04975 2.2861645e-38
-0.29010016 0.076045349 1.04725 2.2309191e-38
-0.29010016 0.078545347 1.04725 2.2218078e-38
-0.28760016 0.076045349 1.04725 2.0004659e-38
-0.28760016 0.078545347 1.04725 2.0189774e-38
-0.29010016 0.076045349 1.04975 2.2308473e-38
-0.29010016 0.078545347 1.04975 2.240139e-38
-0.28760016 0.076045349 1.04975 1.9819191e-38
-0.28760016 0.078545347 1.04975 2.0373086e-38
-0.29510015 0.081045344 1.04975 2.3505218e-38
-0.29260015 0.081045344 1.04975 2.3413374e-38
-0.29260015 0.08354535 1.04975 1.5849058e-38
-0.29010016 0.081045344 1.04975 2.2954914e-38
-0.29010016 0.08354535 1.04975 1.3550982e-38
-0.28760016 0.081045344 1.04975 2.1295751e-38
-0.28760016 0.08354535 1.04975 1.2628666e-38
-0.30510017 0.071045347 1.05475 1.4561129e-38
-0.30510017 0.071045347 1.05725 1.4283836e-38
-0.30510017 0.073545344 1.05475 1.2997081e-38
-0.30510017 0.073545344 1.05725 1.3088908e-38
-0.30260018 0.071045347 1.05475 1.5942622e-38
-0.30260018 0.071045347 1.05725 1.6034467e-38
-0.30260018 0.073545344 1.05475 1.4927025e-38
-0.30260018 0.073545344 1.05725 1.4742275e-38
-0.30510017 0.071045347 1.05975 1.4375328e-38
-0.30510017 0.071045347 1.06225 1.4932077e-38
-0.30510017 0.073545344 1.05975 1.2811268e-38
-0.30260018 0.071045347 1.05975 1.6035186e-38
-0.30260018 0.071045347 1.06225 1.5208664e-38
-0.30510017 0.076045349 1.05475 1.0968406e-38
-0.30510017 0.076045349 1.05725 1.0601406e-38
-0.30260018 0.076045349 1.05475 1.3720916e-38
-0.30260018 0.076045349 1.05725 1.3629446e-38
-0.30260018 0.078545347 1.05475 1.1425036e-38
-0.30010015 0.071045347 1.05725 1.5944096e-38
-0.30010015 0.073545344 1.05475 2.0458403e-38
-0.30010015 0.073545344 1.05725 2.0366207e-38
-0.29760015 0.071045347 1.05725 1.5575673e-38
-0.29760015 0.073545344 1.05475 2.3505895e-38
-0.29760015 0.073545344 1.05725 2.3505528e-38
-0.30010015 0.071045347 1.06225 1.5574603e-38
-0.29760015 0.071045347 1.05975 1.6218893e-38
-0.30010015 0.076045349 1.05475 2.1189121e-38
-0.30010015 0.076045349 1.05725 2.1373879e-38
-0.29760015 0.076045349 1.05475 2.3506274e-38
-0.30260018 0.081045344 1.05475 1.1330319e-38
-0.30260018 0.08354535 1.05725 1.1516175e-38
-0.30510017 0.08354535 1.05975 1.1056273e-38
-0.30260018 0.086045347 1.05725 1.2530321e-38
-0.30510017 0.086045347 1.05975 1.2161522e-38
-0.30510017 0.086045347 1.06225 1.1978222e-38
-0.30510017 0.088545345 1.06225 1.1061661e-38
-0.30260018 0.088545345 1.05975 1.4563666e-38
-0.30260018 0.088545345 1.06225 1.4656211e-38
-0.30010015 0.081045344 1.05475 1.7876209e-38
-0.30010015 0.08354535 1.05475 1.7232304e-38
-0.29760015 0.081045344 1.05475 2.3502701e-38
-0.29760015 0.08354535 1.05475 1.870634e-38
-0.29760015 0.08354535 1.05725 1.9074043e-38
-0.30010015 0.086045347 1.05725 1.6038815e-38
-0.30010015 0.088545345 1.05725 1.3549536e-38
-0.29760015 0.086045347 1.05725 1.382648e-38
-0.29760015 0.088545345 1.05725 1.1613428e-38
-0.30010015 0.088545345 1.05975 1.4009069e-38
-0.30010015 0.088545345 1.06225 1.4286398e-38
-0.29760015 0.088545345 1.05975 1.2256296e-38
-0.29510015 0.071045347 1.05725 1.6310367e-38
-0.29510015 0.073545344 1.05475 2.3508092e-38
-0.29510015 0.073545344 1.05725 2.3508092e-38
-0.29260015 0.071045347 1.05725 1.8891469e-38
-0.29260015 0.073545344 1.05475 2.3509886e-38
-0.29260015 0.073545344 1.05725 2.3509527e-38
-0.29510015 0.071045347 1.05975 1.7417078e-38
-0.29260015 0.071045347 1.05975 1.9351727e-38
-0.29510015 0.076045349 1.05475 2.3509886e-38
-0.29260015 0.076045349 1.05475 2.3509527e-38
-0.29010016 0.071045347 1.05725 1.9905621e-38
-0.29010016 0.073545344 1.05475 2.3509886e-38
-0.28760016 0.071045347 1.05725 2.3497673e-38
-0.28760016 0.073545344 1.05475 2.2858069e-38
-0.28760016 0.073545344 1.05725 2.3042457e-38
-0.29010016 0.071045347 1.05975 2.0365881e-38
-0.29010016 0.076045349 1.05475 2.2400668e-38
-0.28760016 0.076045349 1.05475 2.0097238e-38
-0.28760016 0.078545347 1.05475 1.9357487e-38
-0.29510015 0.081045344 1.05475 2.2954564e-38
-0.29510015 0.08354535 1.05475 1.7416024e-38
-0.29510015 0.08354535 1.05725 1.7324907e-38
-0.29260015 0.081045344 1.05475 2.175602e-38
-0.29260015 0.08354535 1.05475 1.6125285e-38
-0.29510015 0.086045347 1.05725 1.4190609e-38
-0.29510015 0.088545345 1.05725 1.1522322e-38
-0.29260015 0.086045347 1.05475 1.345376e-38
-0.29260015 0.086045347 1.05725 1.3821827e-38
-0.29260015 0.088545345 1.05725 1.0047921e-38
-0.29010016 0.081045344 1.05475 2.0557124e-38
-0.29010016 0.08354535 1.05475 1.2813067e-38
-0.28760016 0.081045344 1.05475 1.7888491e-38
-0.28760016 0.08354535 1.05475 1.2813079e-38
-0.28760016 0.08354535 1.05725 1.1618114e-38
-0.29010016 0.086045347 1.05475 1.133793e-38
-0.29010016 0.086045347 1.05725 1.1153901e-38
-0.29010016 0.088545345 1.05725 9.4025515e-39
-0.28760016 0.086045347 1.05725 1.0973093e-38
-0.28760016 0.088545345 1.05725 1.0137926e-38
-0.29010016 0.086045347 1.05975 1.143011e-38
-0.29010016 0.088545345 1.05975 9.6798223e-39
-0.28760016 0.086045347 1.05975 1.1429762e-38
-0.28760016 0.088545345 1.05975 9.7720179e-39
-0.28510016 0.056045346 1.07225 1.6312143e-38
-0.28510016 0.058545347 1.07225 1.7420346e-38
-0.28510016 0.063545346 1.06225 1.05989e-38
-0.28510016 0.068545349 1.05725 2.350409e-38
-0.28260016 0.068545349 1.05725 2.3506975e-38
-0.28510016 0.066045344 1.05975 1.5665348e-38
-0.28510016 0.066045344 1.06225 1.5391275e-38
-0.28510016 0.068545349 1.05975 1.5023922e-38
-0.28260016 0.066045344 1.05975 1.5848663e-38
-0.28260016 0.066045344 1.06225 1.5665348e-38
-0.28260016 0.068545349 1.05975 2.3509886e-38
-0.28010017 0.068545349 1.05725 2.3509886e-38
-0.28010017 0.066045344 1.06225 1.5941934e-38
-0.28010017 0.068545349 1.05975 2.3509886e-38
-0.28010017 0.068545349 1.06225 1.7141573e-38
-0.27760017 0.066045344 1.06225 1.5757915e-38
-0.27760017 0.068545349 1.05975 2.3509886e-38
-0.27760017 0.068545349 1.06225 1.8432659e-38
-0.28510016 0.063545346 1.06725 1.271292e-38
-0.28260016 0.063545346 1.06725 1.3357215e-38
-0.28510016 0.061045349 1.0697501 1.6132823e-38
-0.28510016 0.061045349 1.07225 1.6224658e-38
-0.28510016 0.063545346 1.0697501 1.207187e-38
-0.28510016 0.063545346 1.07225 1.1889255e-38
-0.28260016 0.061045349 1.07225 1.5672203e-38
-0.28260016 0.063545346 1.0697501 1.4002584e-38
-0.28260016 0.063545346 1.07225 1.2624685e-38
-0.28260016 0.066045344 1.06725 1.5758263e-38
-0.28010017 0.063545346 1.06725 1.5387297e-38
-0.27760017 0.063545346 1.06725 1.5847915e-38
-0.28010017 0.061045349 1.07225 1.0888069e-38
-0.28010017 0.063545346 1.0697501 1.5479493e-38
-0.28010017 0.063545346 1.07225 1.3642393e-38
-0.27760017 0.063545346 1.0697501 1.6036629e-38
-0.27760017 0.063545346 1.07225 1.5026436e-38
-0.28010017 0.066045344 1.06725 1.5851537e-38
-0.27760017 0.066045344 1.06725 1.5298363e-38
-0.27510017 0.066045344 1.06225 1.6033408e-38
-0.27510017 0.068545349 1.05975 2.3229357e-38
-0.27510017 0.068545349 1.06225 1.907516e-38
-0.27260017 0.066045344 1.06225 2.0919776e-38
-0.27260017 0.068545349 1.05975 2.3320834e-38
-0.27260017 0.068545349 1.06225 2.2855181e-38
-0.27010018 0.066045344 1.06225 2.3137112e-38
-0.27010018 0.068545349 1.05975 2.1662379e-38
-0.27010018 0.068545349 1.06225 2.3229703e-38
-0.26760015 0.066045344 1.06225 2.3321551e-38
-0.26760015 0.068545349 1.05975 2.0740424e-38
-0.26760015 0.068545349 1.06225 2.3509527e-38
-0.27510017 0.063545346 1.06725 1.6219576e-38
-0.27260017 0.063545346 1.06725 1.5392357e-38
-0.27510017 0.063545346 1.0697501 1.5944434e-38
-0.27510017 0.063545346 1.07225 1.5118992e-38
-0.27260017 0.063545346 1.0697501 1.5298726e-38
-0.27260017 0.063545346 1.07225 1.520761e-38
-0.27510017 0.066045344 1.06725 2.0458798e-38
-0.27510017 0.068545349 1.06725 2.2671866e-38
-0.27260017 0.066045344 1.06725 2.2585026e-38
-0.27260017 0.068545349 1.06725 2.3507367e-38
-0.27510017 0.066045344 1.0697501 2.0550996e-38
-0.27510017 0.066045344 1.07225 1.6310325e-38
-0.27010018 0.063545346 1.06725 1.511577e-38
-0.27010018 0.063545346 1.0697501 1.5205108e-38
-0.27010018 0.063545346 1.07225 1.5298729e-38
-0.26760015 0.063545346 1.0697501 1.6772793e-38
-0.26760015 0.063545346 1.07225 1.5758268e-38
-0.27010018 0.066045344 1.06725 2.2861254e-38
-0.27010018 0.068545349 1.06725 2.3322976e-38
-0.26760015 0.066045344 1.06725 2.2953845e-38
-0.26760015 0.068545349 1.06725 2.2216996e-38
-0.27010018 0.066045344 1.0697501 2.3506657e-38
-0.27010018 0.066045344 1.07225 1.5021796e-38
-0.26760015 0.066045344 1.0697501 2.3138956e-38
-0.26760015 0.066045344 1.07225 1.6404731e-38
-0.28510016 0.076045349 1.04975 1.8619927e-38
-0.28510016 0.078545347 1.04975 1.9908508e-38
-0.28510016 0.071045347 1.05725 2.3508809e-38
-0.28510016 0.073545344 1.05475 2.2489651e-38
-0.28510016 0.073545344 1.05725 2.0549957e-38
-0.28260016 0.071045347 1.05725 2.3509168e-38
-0.28260016 0.073545344 1.05475 2.0826899e-38
-0.28260016 0.073545344 1.05725 1.981239e-38
-0.28260016 0.071045347 1.05975 2.3509886e-38
-0.28510016 0.076045349 1.05475 1.7605775e-38
-0.28510016 0.076045349 1.05725 1.8434441e-38
-0.28510016 0.078545347 1.05475 2.0093258e-38
-0.28260016 0.076045349 1.05475 1.8524459e-38
-0.28260016 0.076045349 1.05725 1.787909e-38
-0.28260016 0.078545347 1.05475 2.0644262e-38
-0.28260016 0.078545347 1.05725 1.9906696e-38
-0.28010017 0.071045347 1.05725 2.3509886e-38
-0.28010017 0.073545344 1.05725 1.88018e-38
-0.27760017 0.071045347 1.05725 2.3509161e-38
-0.27760017 0.073545344 1.05725 1.6502257e-38
-0.28010017 0.071045347 1.05975 2.3509886e-38
-0.27760017 0.071045347 1.05975 2.3509158e-38
-0.28010017 0.076045349 1.05725 1.9264536e-38
-0.28010017 0.078545347 1.05725 2.0460597e-38
-0.27760017 0.076045349 1.05725 2.0189044e-38
-0.27760017 0.078545347 1.05725 2.0831543e-38
-0.28510016 0.081045344 1.05475 2.0279817e-38
-0.28510016 0.081045344 1.05725 2.0463467e-38
-0.28510016 0.08354535 1.05725 1.1157136e-38
-0.28260016 0.081045344 1.05725 1.8342967e-38
-0.28260016 0.08354535 1.05725 1.5215911e-38
-0.28510016 0.08354535 1.05975 1.13401e-38
-0.28260016 0.081045344 1.05975 1.6589507e-38
-0.28260016 0.08354535 1.05975 1.0787277e-38
-0.28510016 0.086045347 1.05725 1.0143693e-38
-0.28510016 0.086045347 1.05975 1.0877309e-38
-0.28510016 0.086045347 1.06225 1.0970211e-38
-0.28510016 0.088545345 1.05975 1.0967337e-38
-0.28510016 0.088545345 1.06225 1.1981487e-38
-0.28260016 0.086045347 1.05975 1.0693994e-38
-0.28260016 0.086045347 1.06225 1.0785109e-38
-0.28260016 0.088545345 1.06225 1.2443188e-38
-0.28010017 0.081045344 1.05725 1.6588085e-38
-0.28010017 0.081045344 1.05975 1.5850519e-38
-0.28010017 0.08354535 1.05975 1.051105e-38
-0.27760017 0.081045344 1.05975 1.4471141e-38
-0.27760017 0.081045344 1.06225 1.3458066e-38
-0.27760017 0.08354535 1.05975 1.2447872e-38
-0.27760017 0.08354535 1.06225 1.1707423e-38
-0.28010017 0.086045347 1.05975 1.0785459e-38
-0.28010017 0.086045347 1.06225 1.0324851e-38
-0.28010017 0.088545345 1.06225 1.4194905e-38
-0.27760017 0.086045347 1.06225 1.0416291e-38
-0.27760017 0.088545345 1.06225 1.6316404e-38
-0.28260016 0.088545345 1.06725 1.4285303e-38
-0.28010017 0.086045347 1.06725 1.0138996e-38
-0.28010017 0.088545345 1.06725 1.6038402e-38
-0.27760017 0.086045347 1.06725 1.0323387e-38
-0.27760017 0.088545345 1.06725 1.6961773e-38
-0.27510017 0.073545344 1.05725 1.4566149e-38
-0.27260017 0.073545344 1.05725 1.7971702e-38
-0.27510017 0.071045347 1.05975 2.0744036e-38
-0.27510017 0.073545344 1.05975 1.7971336e-38
-0.27260017 0.071045347 1.05975 2.1389406e-38
-0.27260017 0.071045347 1.06225 2.2768386e-38
-0.27260017 0.073545344 1.05975 2.3041737e-38
-0.27510017 0.076045349 1.05725 2.0557828e-38
-0.27510017 0.078545347 1.05725 2.0093978e-38
-0.27260017 0.076045349 1.05725 1.9631943e-38
-0.27510017 0.076045349 1.05975 1.972342e-38
-0.27510017 0.078545347 1.05975 1.8345158e-38
-0.27260017 0.076045349 1.05975 1.9539029e-38
-0.27260017 0.078545347 1.05975 1.7330646e-38
-0.27010018 0.071045347 1.05975 2.1386515e-38
-0.27010018 0.071045347 1.06225 2.0648944e-38
-0.27010018 0.073545344 1.05975 2.2859847e-38
-0.26760015 0.071045347 1.05975 2.1109579e-38
-0.26760015 0.071045347 1.06225 2.092554e-38
-0.26760015 0.073545344 1.05975 2.2124083e-38
-0.26760015 0.073545344 1.06225 2.2399941e-38
-0.27010018 0.076045349 1.05975 1.7785885e-38
-0.27010018 0.078545347 1.05975 1.5304497e-38
-0.27010018 0.078545347 1.06225 1.4106317e-38
-0.26760015 0.076045349 1.05975 1.7324907e-38
-0.26760015 0.076045349 1.06225 2.1292891e-38
-0.26760015 0.078545347 1.05975 1.4566932e-38
-0.26760015 0.078545347 1.06225 1.6130305e-38
-0.26760015 0.071045347 1.06725 1.8251866e-38
-0.26760015 0.073545344 1.06725 2.0281244e-38
-0.26760015 0.076045349 1.06725 1.981884e-38
-0.26760015 0.078545347 1.06725 1.3366236e-38
-0.27510017 0.081045344 1.05975 1.2812711e-38
-0.27510017 0.08354535 1.05975 1.2075479e-38
-0.27510017 0.08354535 1.06225 1.2074053e-38
-0.27260017 0.081045344 1.05975 1.2075144e-38
-0.27260017 0.08354535 1.06225 1.170527e-38
-0.27510017 0.086045347 1.06225 1.1333949e-38
-0.27510017 0.088545345 1.06225 1.9080167e-38
-0.27260017 0.086045347 1.06225 1.0875491e-38
-0.27010018 0.081045344 1.05975 1.1707072e-38
-0.27010018 0.081045344 1.06225 1.1153899e-38
-0.27010018 0.08354535 1.06225 1.1612703e-38
-0.26760015 0.081045344 1.05975 1.0971671e-38
-0.27010018 0.086045347 1.06225 1.1519412e-38
-0.27260017 0.08354535 1.06725 1.1337567e-38
-0.27510017 0.086045347 1.06725 1.2716883e-38
-0.27510017 0.088545345 1.06725 2.0002101e-38
-0.27260017 0.086045347 1.06725 1.382288e-38
-0.27260017 0.088545345 1.06725 1.9357136e-38
-0.27260017 0.088545345 1.0697501 1.9632647e-38
-0.27010018 0.08354535 1.06725 1.1428312e-38
-0.26760015 0.081045344 1.06725 1.0231955e-38
-0.26760015 0.08354535 1.06725 1.0509248e-38
-0.27010018 0.08354535 1.0697501 1.0600365e-38
-0.26760015 0.081045344 1.0697501 1.0877677e-38
-0.26760015 0.08354535 1.0697501 1.0232302e-38
-0.27010018 0.086045347 1.06725 1.2165877e-38
-0.27010018 0.086045347 1.0697501 1.5482407e-38
-0.27010018 0.088545345 1.0697501 1.9080192e-38
-0.27010018 0.088545345 1.07225 1.9448982e-38
-0.26760015 0.086045347 1.0697501 1.4839922e-38
-0.26760015 0.086045347 1.07225 1.5390206e-38
-0.26760015 0.088545345 1.07225 1.9357139e-38
-0.30260018 0.058545347 1.0797501 1.7601078e-38
-0.30010015 0.058545347 1.07725 1.6313945e-38
-0.29760015 0.058545347 1.07725 1.6036645e-38
-0.30010015 0.058545347 1.0797501 1.7048263e-38
-0.29760015 0.058545347 1.0797501 1.612884e-38
-0.30010015 0.056045346 1.0847501 1.7692923e-38
-0.30010015 0.058545347 1.0847501 1.631431e-38
-0.29760015 0.056045346 1.0847501 1.7141906e-38
-0.29760015 0.058545347 1.0847501 1.6129193e-38
-0.29760015 0.061045349 1.07725 1.8154633e-38
-0.29260015 0.053545348 1.07725 1.8890383e-38
-0.29260015 0.053545348 1.0797501 1.8615591e-38
-0.29510015 0.058545347 1.07725 1.7511765e-38
-0.29260015 0.056045346 1.07725 1.6403285e-38
-0.29260015 0.058545347 1.07725 1.5576025e-38
-0.29510015 0.056045346 1.0797501 1.6587677e-38
-0.29510015 0.058545347 1.0797501 1.6036645e-38
-0.29260015 0.056045346 1.0797501 1.6403632e-38
-0.29260015 0.058545347 1.0797501 1.5300161e-38
-0.29010016 0.053545348 1.07725 1.8337574e-38
-0.28760016 0.053545348 1.07725 1.8153181e-38
-0.29010016 0.053545348 1.0797501 1.852304e-38
-0.28760016 0.053545348 1.0797501 1.787947e-38
-0.29010016 0.056045346 1.07725 1.6311436e-38
-0.29010016 0.058545347 1.07725 1.5484923e-38
-0.28760016 0.056045346 1.07725 1.6219241e-38
-0.28760016 0.058545347 1.07725 1.6038096e-38
-0.29010016 0.056045346 1.0797501 1.6219244e-38
-0.28760016 0.056045346 1.0797501 1.622067e-38
-0.28760016 0.058545347 1.0797501 1.6680244e-38
-0.29010016 0.053545348 1.0847501 1.8338646e-38
-0.28760016 0.053545348 1.0847501 1.7695074e-38
-0.29510015 0.061045349 1.07725 1.8707448e-38
-0.28510016 0.053545348 1.07725 1.7600375e-38
-0.28510016 0.053545348 1.0797501 1.7418132e-38
-0.28260016 0.053545348 1.0797501 1.6035929e-38
-0.28510016 0.056045346 1.07725 1.6495458e-38
-0.28510016 0.058545347 1.07725 1.7511466e-38
-0.28260016 0.058545347 1.07725 1.6315052e-38
-0.28510016 0.056045346 1.0797501 1.6588381e-38
-0.28510016 0.058545347 1.0797501 1.6958651e-38
-0.28260016 0.056045346 1.0797501 1.6682017e-38
-0.28260016 0.058545347 1.0797501 1.6406522e-38
-0.28010017 0.053545348 1.0797501 1.5758982e-38
-0.28010017 0.058545347 1.07725 1.5393095e-38
-0.28010017 0.056045346 1.0797501 1.6866408e-38
-0.28010017 0.058545347 1.0797501 1.2165572e-38
-0.27760017 0.058545347 1.0797501 1.1428005e-38
-0.28510016 0.053545348 1.0847501 1.6220676e-38
-0.28260016 0.053545348 1.0847501 1.6128121e-38
-0.28510016 0.056045346 1.0847501 1.7049357e-38
-0.28510016 0.058545347 1.0847501 1.7693658e-38
-0.28260016 0.056045346 1.0847501 1.7141553e-38
-0.28260016 0.058545347 1.0847501 1.8062081e-38
-0.28010017 0.053545348 1.0847501 1.4930301e-38
-0.27760017 0.053545348 1.0847501 1.474843e-38
-0.28010017 0.056045346 1.0847501 1.7972037e-38
-0.28010017 0.056045346 1.08725 1.8433015e-38
-0.28010017 0.058545347 1.0847501 1.8800012e-38
-0.27760017 0.056045346 1.0847501 1.8620277e-38
-0.27760017 0.056045346 1.08725 1.8712826e-38
-0.27760017 0.058545347 1.0847501 1.8619922e-38
-0.28510016 0.061045349 1.07725 1.5671484e-38
-0.28260016 0.061045349 1.07725 1.2451445e-38
-0.28010017 0.061045349 1.07725 1.1437653e-38
-0.27760017 0.061045349 1.07725 8.9505725e-39
-0.27760017 0.063545346 1.07725 1.5118288e-38
-0.28010017 0.061045349 1.0797501 8.8529707e-39
-0.27760017 0.061045349 1.0797501 9.6827314e-39
-0.27510017 0.058545347 1.0797501 1.1609456e-38
-0.27260017 0.058545347 1.0797501 1.1889961e-38
-0.27010018 0.058545347 1.0797501 1.2350579e-38
-0.26760015 0.058545347 1.0797501 1.2630045e-38
-0.27510017 0.053545348 1.0847501 1.5670386e-38
-0.27260017 0.053545348 1.0847501 1.6402931e-38
-0.27260017 0.053545348 1.08725 1.6864986e-38
-0.27510017 0.056045346 1.0847501 1.8896864e-38
-0.27510017 0.056045346 1.08725 1.8897217e-38
-0.27510017 0.058545347 1.0847501 1.7974552e-38
-0.27260017 0.056045346 1.0847501 1.7512175e-38
-0.27260017 0.056045346 1.08725 1.7419624e-38
-0.27260017 0.058545347 1.0847501 1.5121179e-38
-0.27010018 0.051045347 1.0847501 1.7142626e-38
-0.27010018 0.053545348 1.0847501 1.8062797e-38
-0.27010018 0.053545348 1.08725 1.7878042e-38
-0.26760015 0.051045347 1.0847501 1.7142626e-38
-0.26760015 0.053545348 1.0847501 1.8339743e-38
-0.26760015 0.053545348 1.08725 1.8246826e-38
-0.27010018 0.056045346 1.0847501 1.7145167e-38
-0.27010018 0.056045346 1.08725 1.6960055e-38
-0.27010018 0.058545347 1.0847501 1.3281566e-38
-0.26760015 0.056045346 1.0847501 1.6315405e-38
-0.26760015 0.056045346 1.08725 1.603774e-38
-0.26760015 0.058545347 1.0847501 1.1529849e-38
-0.27510017 0.061045349 1.07725 1.1516908e-38
-0.27260017 0.061045349 1.07725 1.2439223e-38
-0.27260017 0.063545346 1.07725 1.548277e-38
-0.27260017 0.061045349 1.0797501 1.3361159e-38
-0.27010018 0.061045349 1.07725 1.2902699e-38
-0.27010018 0.063545346 1.07725 1.5573518e-38
-0.26760015 0.061045349 1.07725 1.5019589e-38
-0.26760015 0.063545346 1.07725 1.6311792e-38
-0.27010018 0.061045349 1.0797501 1.3545552e-38
-0.26760015 0.061045349 1.0797501 1.5204688e-38
-0.27260017 0.061045349 1.0847501 1.2165838e-38
-0.27010018 0.061045349 1.0847501 1.2906277e-38
-0.26760015 0.061045349 1.0847501 1.3090668e-38
-0.25760016 0.048545346 1.09725 1.705078e-38
-0.25760016 0.048545346 1.09975 1.7050061e-38
-0.25760016 0.048545346 1.10475 1.6957156e-38
-0.25510016 0.048545346 1.09725 1.7234454e-38
-0.25260016 0.046045348 1.09725 1.5854051e-38
-0.25260016 0.048545346 1.09725 1.7880189e-38
-0.25510016 0.046045348 1.09975 1.5578178e-38
-0.25510016 0.048545346 1.09975 1.7511415e-38
-0.25260016 0.046045348 1.09975 1.6036647e-38
-0.25260016 0.048545346 1.09975 1.8341168e-38
-0.25010017 0.046045348 1.09725 1.5761856e-38
-0.25010017 0.048545346 1.09725 1.8433009e-38
-0.25010017 0.046045348 1.09975 1.5390925e-38
-0.25010017 0.048545346 1.09975 1.8434807e-38
-0.24760017 0.046045348 1.09975 1.5025737e-38
-0.24760017 0.048545346 1.09975 1.8436965e-38
-0.25510016 0.048545346 1.10475 1.7695443e-38
-0.25260016 0.048545346 1.10475 1.7972753e-38
-0.25010017 0.048545346 1.10475 1.8987615e-38
-0.25010017 0.048545346 1.10725 1.8435529e-38
-0.24760017 0.048545346 1.10475 1.8340135e-38
-0.24760017 0.048545346 1.10725 1.8432687e-38
-0.24510016 0.046045348 1.09725 1.5941957e-38
-0.24510016 0.048545346 1.09725 1.8616352e-38
-0.24260016 0.046045348 1.09725 1.7415266e-38
-0.24260016 0.048545346 1.09725 1.7326317e-38
-0.24510016 0.046045348 1.09975 1.6127068e-38
-0.24510016 0.048545346 1.09975 1.7694413e-38
-0.24260016 0.046045348 1.09975 1.7324502e-38
-0.24260016 0.048545346 1.09975 1.7327033e-38
-0.24010016 0.046045348 1.09975 1.778405e-38
-0.24010016 0.048545346 1.09975 1.7049371e-38
-0.23760016 0.046045348 1.09975 1.8705652e-38
-0.23760016 0.048545346 1.09975 1.5298406e-38
-0.24510016 0.048545346 1.10475 1.7971352e-38
-0.24260016 0.048545346 1.10475 1.7235188e-38
-0.24260016 0.048545346 1.10725 1.7694008e-38
-0.24010016 0.048545346 1.10475 1.4928544e-38
-0.24010016 0.048545346 1.10725 1.8429419e-38
-0.23760016 0.048545346 1.10475 1.4283175e-38
-0.23760016 0.048545346 1.10725 1.9074789e-38
-0.23260017 0.048545346 1.09725 1.3270407e-38
-0.23510017 0.048545346 1.09975 1.3915412e-38
-0.23260017 0.046045348 1.09975 1.9169131e-38
-0.23260017 0.048545346 1.09975 1.3177141e-38
-0.23010015 0.046045348 1.09725 1.8893255e-38
-0.23010015 0.048545346 1.09475 1.4652272e-38
-0.23010015 0.048545346 1.09725 1.474159e-38
-0.22760016 0.046045348 1.09725 1.9538624e-38
-0.22760016 0.048545346 1.09475 1.7694727e-38
-0.22760016 0.048545346 1.09725 1.7600013e-38
-0.23010015 0.046045348 1.09975 1.8433365e-38
-0.23010015 0.048545346 1.09975 1.4651195e-38
-0.23510017 0.048545346 1.10475 1.3914707e-38
-0.23510017 0.048545346 1.10725 1.8985813e-38
-0.23260017 0.048545346 1.10475 1.8801422e-38
-0.26510015 0.063545346 1.0697501 1.8522339e-38
-0.26510015 0.063545346 1.07225 1.7417062e-38
-0.26260015 0.063545346 1.0697501 2.2760443e-38
-0.26260015 0.063545346 1.07225 2.0828219e-38
-0.26510015 0.066045344 1.06725 2.1385093e-38
-0.26510015 0.068545349 1.06725 1.9360376e-38
-0.26260015 0.066045344 1.06725 2.1017036e-38
-0.26260015 0.068545349 1.06725 1.7055844e-38
-0.26510015 0.066045344 1.0697501 2.1017383e-38
-0.26510015 0.066045344 1.07225 1.8985112e-38
-0.26510015 0.068545349 1.0697501 1.9544773e-38
-0.26260015 0.066045344 1.0697501 2.0830121e-38
-0.26260015 0.066045344 1.07225 2.2758644e-38
-0.26260015 0.068545349 1.0697501 1.6407249e-38
-0.26010016 0.063545346 1.0697501 2.3405813e-38
-0.26010016 0.063545346 1.07225 2.1934927e-38
-0.26010016 0.066045344 1.06725 2.1197812e-38
-0.26010016 0.068545349 1.06725 1.7421399e-38
-0.26010016 0.066045344 1.0697501 2.0830121e-38
-0.26010016 0.066045344 1.07225 2.3497289e-38
-0.26010016 0.068545349 1.0697501 1.7421399e-38
-0.25760016 0.066045344 1.0697501 1.9810249e-38
-0.25760016 0.066045344 1.07225 1.870534e-38
-0.25760016 0.068545349 1.0697501 1.7513598e-38
-0.25760016 0.068545349 1.07225 1.6960421e-38
-0.25510016 0.066045344 1.0697501 1.8980488e-38
-0.25510016 0.066045344 1.07225 1.7328115e-38
-0.25510016 0.068545349 1.0697501 1.6868228e-38
-0.25510016 0.068545349 1.07225 1.6775661e-38
-0.25260016 0.066045344 1.07225 1.7235919e-38
-0.25260016 0.068545349 1.07225 1.6960053e-38
-0.25010017 0.066045344 1.07225 1.6683831e-38
-0.25010017 0.068545349 1.07225 1.7420678e-38
-0.24760017 0.066045344 1.07225 1.6868576e-38
-0.24760017 0.068545349 1.07225 1.8156797e-38
-0.26510015 0.071045347 1.06225 1.8435906e-38
-0.26510015 0.073545344 1.06225 2.0372367e-38
-0.26510015 0.076045349 1.06225 2.0187621e-38
-0.26510015 0.071045347 1.06725 1.8526652e-38
-0.26510015 0.073545344 1.06725 1.9357505e-38
-0.26260015 0.071045347 1.06725 1.7881283e-38
-0.26260015 0.073545344 1.06725 1.8251157e-38
-0.26260015 0.071045347 1.0697501 1.7699057e-38
-0.26260015 0.073545344 1.0697501 1.8251142e-38
-0.26510015 0.076045349 1.06725 1.8254034e-38
-0.26510015 0.078545347 1.06725 1.4472563e-38
-0.26260015 0.076045349 1.06725 1.7608665e-38
-0.26510015 0.078545347 1.0697501 1.2999228e-38
-0.26260015 0.076045349 1.0697501 1.7329554e-38
-0.26260015 0.078545347 1.0697501 1.345771e-38
-0.26010016 0.071045347 1.06725 1.7422476e-38
-0.26010016 0.073545344 1.06725 1.8158949e-38
-0.26010016 0.071045347 1.0697501 1.7883807e-38
-0.26010016 0.073545344 1.0697501 1.8066751e-38
-0.25760016 0.071045347 1.0697501 1.8341914e-38
-0.25760016 0.071045347 1.07225 1.8250063e-38
-0.25760016 0.073545344 1.07225 1.7328832e-38
-0.26010016 0.076045349 1.0697501 1.7606141e-38
-0.26010016 0.078545347 1.07225 1.3088928e-38
-0.25760016 0.076045349 1.07225 1.6683113e-38
-0.25760016 0.078545347 1.07225 1.1705991e-38
-0.26510015 0.081045344 1.0697501 1.041774e-38
-0.26510015 0.081045344 1.07225 1.0232989e-38
-0.26510015 0.08354535 1.0697501 1.069215e-38
-0.26510015 0.08354535 1.07225 1.0876901e-38
-0.26260015 0.081045344 1.0697501 1.0139387e-38
-0.26260015 0.081045344 1.07225 1.0783646e-38
-0.26260015 0.08354535 1.07225 1.2161564e-38
-0.26510015 0.086045347 1.0697501 1.7053613e-38
-0.26510015 0.086045347 1.07225 1.7698983e-38
-0.26510015 0.088545345 1.07225 1.8711066e-38
-0.26260015 0.086045347 1.07225 1.8803612e-38
-0.26260015 0.088545345 1.07225 1.8434104e-38
-0.26010016 0.081045344 1.07225 1.133863e-38
-0.25760016 0.081045344 1.07225 1.152158e-38
-0.25510016 0.071045347 1.07225 1.8158949e-38
-0.25510016 0.073545344 1.07225 1.6314365e-38
-0.25260016 0.071045347 1.07225 1.8158949e-38
-0.25260016 0.073545344 1.07225 1.5668996e-38
-0.25510016 0.076045349 1.07225 1.4292516e-38
-0.25010017 0.071045347 1.07225 1.8434823e-38
-0.25010017 0.073545344 1.07225 1.4010196e-38
-0.24760017 0.071045347 1.07225 1.8709968e-38
-0.24510016 0.066045344 1.07225 1.7604343e-38
-0.24510016 0.068545349 1.07225 1.8800368e-38
-0.24260016 0.066045344 1.07225 1.8156799e-38
-0.24260016 0.068545349 1.07225 1.8802166e-38
-0.26510015 0.058545347 1.0797501 1.4197407e-38
-0.26260015 0.058545347 1.0797501 1.4658026e-38
-0.26010016 0.058545347 1.0797501 1.5300877e-38
-0.25760016 0.058545347 1.0797501 1.5574953e-38
-0.26510015 0.051045347 1.0847501 1.8063501e-38
-0.26510015 0.051045347 1.08725 1.5485629e-38
-0.26510015 0.053545348 1.0847501 1.9168778e-38
-0.26510015 0.053545348 1.08725 1.8340096e-38
-0.26260015 0.051045347 1.0847501 1.8432642e-38
-0.26260015 0.051045347 1.08725 1.5573153e-38
-0.26260015 0.053545348 1.0847501 1.9260974e-38
-0.26260015 0.053545348 1.08725 1.8159302e-38
-0.26510015 0.056045346 1.0847501 1.2718744e-38
-0.26510015 0.056045346 1.08725 1.29017e-38
-0.26510015 0.058545347 1.0847501 8.8540427e-39
-0.26260015 0.056045346 1.0847501 1.1704233e-38
-0.26260015 0.058545347 1.0847501 9.4994121e-39
-0.26010016 0.051045347 1.0847501 1.871247e-38
-0.26010016 0.051045347 1.08725 1.5944452e-38
-0.26010016 0.053545348 1.0847501 1.8619554e-38
-0.26010016 0.053545348 1.08725 1.7512848e-38
-0.25760016 0.051045347 1.0847501 1.8248659e-38
-0.25760016 0.051045347 1.08725 1.5667166e-38
-0.25760016 0.053545348 1.08725 1.6866425e-38
-0.26010016 0.051045347 1.0897501 1.6128124e-38
-0.25760016 0.051045347 1.0897501 1.6036671e-38
-0.25760016 0.053545348 1.0897501 1.7972782e-38
-0.26010016 0.056045346 1.0847501 1.0044632e-38
-0.26010016 0.056045346 1.08725 1.0503818e-38
-0.26010016 0.058545347 1.0847501 1.1521211e-38
-0.25760016 0.056045346 1.0847501 1.2162964e-38
-0.25760016 0.056045346 1.08725 1.2256236e-38
-0.25760016 0.058545347 1.0847501 1.2623238e-38
-0.26510015 0.061045349 1.07725 1.5665306e-38
-0.26510015 0.063545346 1.07725 1.6864607e-38
-0.26260015 0.061045349 1.07725 1.5760038e-38
-0.26260015 0.063545346 1.07725 2.2026391e-38
-0.26510015 0.061045349 1.0797501 1.5482008e-38
-0.26260015 0.061045349 1.0797501 1.5852221e-38
-0.26010016 0.063545346 1.07725 2.2951998e-38
-0.25760016 0.063545346 1.07725 2.3321141e-38
-0.26010016 0.061045349 1.0797501 1.5301584e-38
-0.26010016 0.063545346 1.0797501 2.258072e-38
-0.25760016 0.061045349 1.0797501 1.576008e-38
-0.25760016 0.063545346 1.0797501 2.3507374e-38
-0.26010016 0.061045349 1.0847501 1.5300877e-38
-0.25760016 0.061045349 1.0847501 1.5391275e-38
-0.25510016 0.051045347 1.08725 1.5760449e-38
-0.25510016 0.053545348 1.08725 1.4935336e-38
-0.25510016 0.051045347 1.0897501 1.7602528e-38
-0.25510016 0.053545348 1.0897501 1.7329551e-38
-0.25260016 0.051045347 1.0897501 1.8155702e-38
-0.25260016 0.053545348 1.0897501 1.2907032e-38
-0.25510016 0.056045346 1.08725 1.2813375e-38
-0.25510016 0.058545347 1.0847501 1.3360804e-38
-0.25510016 0.058545347 1.08725 1.4743725e-38
-0.25260016 0.056045346 1.08725 1.3091019e-38
-0.25260016 0.058545347 1.08725 1.5019954e-38
-0.25260016 0.056045346 1.0897501 1.2352397e-38
-0.25010017 0.051045347 1.0897501 1.8707804e-38
-0.25010017 0.053545348 1.0897501 9.7760018e-39
-0.24760017 0.053545348 1.0897501 1.1518343e-38
-0.25010017 0.056045346 1.08725 1.3367625e-38
-0.25010017 0.058545347 1.08725 1.5852235e-38
-0.24760017 0.056045346 1.08725 1.5392005e-38
-0.24760017 0.058545347 1.0847501 1.5760038e-38
-0.24760017 0.058545347 1.08725 1.5759672e-38
-0.25010017 0.056045346 1.0897501 1.3274726e-38
-0.25510016 0.063545346 1.07725 2.3509527e-38
-0.25260016 0.063545346 1.07725 2.3507016e-38
-0.25510016 0.061045349 1.0797501 1.6958623e-38
-0.25510016 0.063545346 1.0797501 2.3509527e-38
-0.25260016 0.061045349 1.0797501 1.907551e-38
-0.25260016 0.063545346 1.0797501 2.3507016e-38
-0.25010017 0.063545346 1.07725 2.3507374e-38
-0.24760017 0.063545346 1.07725 2.1013108e-38
-0.25010017 0.061045349 1.0797501 1.9905274e-38
-0.25010017 0.063545346 1.0797501 2.1842139e-38
-0.24760017 0.061045349 1.0797501 2.3495514e-38
-0.24760017 0.063545346 1.0797501 2.1012026e-38
-0.25010017 0.066045344 1.07725 2.1572352e-38
-0.24760017 0.066045344 1.07725 1.7145523e-38
-0.24760017 0.068545349 1.07725 1.8248994e-38
-0.25510016 0.061045349 1.0847501 1.5576025e-38
-0.25510016 0.061045349 1.08725 1.6309639e-38
-0.25260016 0.061045349 1.0847501 1.9997467e-38
-0.25260016 0.061045349 1.08725 1.7600375e-38
-0.25010017 0.061045349 1.0847501 2.3310045e-38
-0.24760017 0.061045349 1.0847501 2.3494436e-38
-0.26260015 0.051045347 1.09475 1.5758265e-38
-0.25760016 0.051045347 1.09475 1.6587327e-38
-0.25760016 0.051045347 1.09725 1.7786569e-38
-0.25510016 0.051045347 1.09475 1.8155352e-38
-0.25510016 0.051045347 1.09725 1.8155352e-38
-0.25510016 0.053545348 1.09475 1.2541477e-38
-0.25260016 0.051045347 1.09475 1.8800718e-38
-0.25260016 0.051045347 1.09725 1.88e-38
-0.25260016 0.053545348 1.09475 1.3178294e-38
-0.25010017 0.051045347 1.09475 1.8892195e-38
-0.25010017 0.051045347 1.09725 1.9079811e-38
-0.25010017 0.053545348 1.09475 1.2440729e-38
-0.24760017 0.051045347 1.09475 1.8987265e-38
-0.24760017 0.051045347 1.09725 1.8434091e-38
-0.24760017 0.053545348 1.09475 1.1332147e-38
-0.24760017 0.053545348 1.09725 1.0963374e-38
-0.25010017 0.051045347 1.09975 1.9263492e-38
-0.24760017 0.051045347 1.09975 1.8065658e-38
-0.25760016 0.078545347 1.07725 1.133793e-38
-0.26260015 0.081045344 1.07725 1.1244623e-38
-0.26260015 0.08354535 1.07725 1.4189868e-38
-0.26260015 0.08354535 1.0797501 1.3637063e-38
-0.26510015 0.088545345 1.07725 1.9447523e-38
-0.26260015 0.086045347 1.07725 1.8802889e-38
-0.26260015 0.088545345 1.07725 1.8709614e-38
-0.26260015 0.086045347 1.0797501 1.9817041e-38
-0.26260015 0.088545345 1.0797501 1.9539732e-38
-0.26010016 0.081045344 1.07725 1.1521582e-38
-0.26010016 0.08354535 1.07725 1.4745187e-38
-0.25760016 0.081045344 1.07725 1.1060602e-38
-0.26010016 0.08354535 1.0797501 1.5205442e-38
-0.25760016 0.081045344 1.0797501 1.0600367e-38
-0.25760016 0.08354535 1.0797501 1.5573171e-38
-0.26010016 0.086045347 1.07725 1.9357136e-38
-0.26010016 0.088545345 1.07725 1.8619927e-38
-0.26010016 0.086045347 1.0797501 1.972483e-38
-0.26010016 0.088545345 1.0797501 1.9540804e-38
-0.25760016 0.086045347 1.0797501 1.8895808e-38
-0.25760016 0.088545345 1.0797501 1.8712135e-38
-0.26010016 0.08354535 1.0847501 1.4838455e-38
-0.25760016 0.08354535 1.0847501 1.6031272e-38
-0.26010016 0.086045347 1.0847501 1.9080545e-38
-0.25760016 0.086045347 1.0847501 1.9447182e-38
-0.25260016 0.073545344 1.07725 1.4748818e-38
-0.25510016 0.076045349 1.07725 1.3647146e-38
-0.25510016 0.078545347 1.07725 1.041705e-38
-0.25260016 0.076045349 1.07725 1.2632266e-38
-0.25510016 0.078545347 1.0797501 1.0511751e-38
-0.25260016 0.078545347 1.0797501 1.0693264e-38
-0.25010017 0.073545344 1.07725 1.3733969e-38
-0.24760017 0.071045347 1.07725 1.815787e-38
-0.24760017 0.073545344 1.07725 1.7789459e-38
-0.25010017 0.073545344 1.0797501 1.7513945e-38
-0.24760017 0.073545344 1.0797501 1.7328482e-38
-0.25010017 0.076045349 1.07725 1.1434081e-38
-0.25010017 0.076045349 1.0797501 1.143011e-38
-0.25010017 0.078545347 1.0797501 1.0232286e-38
-0.24760017 0.076045349 1.0797501 1.235101e-38
-0.25260016 0.078545347 1.0847501 1.0415941e-38
-0.25010017 0.076045349 1.0847501 1.1616299e-38
-0.25010017 0.078545347 1.0847501 1.0691802e-38
-0.24760017 0.076045349 1.0847501 1.0692545e-38
-0.24760017 0.078545347 1.0847501 1.0876195e-38
-0.24760017 0.078545347 1.08725 1.1245353e-38
-0.25510016 0.081045344 1.07725 1.0782239e-38
-0.25510016 0.081045344 1.0797501 1.0966989e-38
-0.25260016 0.081045344 1.0797501 1.1242805e-38
-0.25510016 0.088545345 1.0797501 1.8711416e-38
-0.25260016 0.088545345 1.0797501 1.8620293e-38
-0.25510016 0.08354535 1.0847501 1.833904e-38
-0.25260016 0.081045344 1.0847501 1.1611948e-38
-0.25260016 0.08354535 1.0847501 1.9725183e-38
-0.25260016 0.08354535 1.08725 1.8343976e-38
-0.25510016 0.086045347 1.0847501 1.8895808e-38
-0.25260016 0.086045347 1.0847501 1.8619218e-38
-0.25260016 0.086045347 1.08725 1.9540433e-38
-0.25010017 0.081045344 1.0847501 1.2439226e-38
-0.25010017 0.08354535 1.0847501 1.9261719e-38
-0.25010017 0.08354535 1.08725 1.8618868e-38
-0.24760017 0.081045344 1.0847501 1.3084608e-38
-0.24760017 0.081045344 1.08725 1.6032682e-38
-0.24760017 0.08354535 1.08725 1.9540086e-38
-0.25010017 0.086045347 1.0847501 1.8250791e-38
-0.25010017 0.086045347 1.08725 1.8711416e-38
-0.24760017 0.086045347 1.0847501 1.8434823e-38
-0.24760017 0.086045347 1.08725 2.0001062e-38
-0.24510016 0.058545347 1.0797501 2.3133878e-38
-0.24260016 0.058545347 1.0797501 2.3506654e-38
-0.23760016 0.058545347 1.07725 2.3506298e-38
-0.24010016 0.058545347 1.0797501 2.3509168e-38
-0.23760016 0.058545347 1.0797501 2.350594e-38
-0.24510016 0.053545348 1.0897501 1.2163712e-38
-0.24260016 0.053545348 1.0897501 1.3269314e-38
-0.24510016 0.056045346 1.08725 1.5207613e-38
-0.24510016 0.058545347 1.0847501 1.5391278e-38
-0.24260016 0.056045346 1.08725 1.5851181e-38
-0.24260016 0.058545347 1.0847501 1.5759714e-38
-0.24260016 0.056045346 1.0897501 1.6035929e-38
-0.24010016 0.056045346 1.08725 1.640219e-38
-0.24010016 0.058545347 1.0847501 1.7050453e-38
-0.23760016 0.058545347 1.0847501 2.0181502e-38
-0.24010016 0.056045346 1.0897501 1.6310718e-38
-0.23760016 0.056045346 1.0897501 1.7692923e-38
-0.24510016 0.063545346 1.07725 1.9441459e-38
-0.24260016 0.063545346 1.07725 1.8519863e-38
-0.24510016 0.061045349 1.0797501 2.3507373e-38
-0.24510016 0.063545346 1.0797501 1.9348911e-38
-0.24260016 0.061045349 1.0797501 2.3508092e-38
-0.24260016 0.063545346 1.0797501 1.8061361e-38
-0.24510016 0.066045344 1.07725 1.7880936e-38
-0.24510016 0.068545349 1.07725 1.8524501e-38
-0.24260016 0.066045344 1.07725 1.8341914e-38
-0.24260016 0.068545349 1.07725 1.8709251e-38
-0.24260016 0.066045344 1.0797501 1.8526658e-38
-0.24260016 0.068545349 1.0797501 1.8526658e-38
-0.24010016 0.063545346 1.07725 1.8245396e-38
-0.23760016 0.061045349 1.07725 2.2217722e-38
-0.23760016 0.063545346 1.07725 1.7052971e-38
-0.24010016 0.061045349 1.0797501 2.3506291e-38
-0.24010016 0.063545346 1.0797501 1.8245394e-38
-0.23760016 0.061045349 1.0797501 2.2676182e-38
-0.23760016 0.063545346 1.0797501 1.7511427e-38
-0.24010016 0.066045344 1.07725 1.8618851e-38
-0.24010016 0.068545349 1.07725 1.8524501e-38
-0.24010016 0.066045344 1.0797501 1.8802886e-38
-0.24010016 0.068545349 1.0797501 1.8434104e-38
-0.23760016 0.066045344 1.0797501 1.8158599e-38
-0.23760016 0.068545349 1.0797501 1.8526669e-38
-0.24510016 0.061045349 1.0847501 2.3505575e-38
-0.23760016 0.061045349 1.0847501 2.3413745e-38
-0.23760016 0.068545349 1.0847501 1.8434472e-38
-0.23510017 0.058545347 1.07725 2.3506298e-38
-0.23510017 0.058545347 1.0797501 2.3321551e-38
-0.23260017 0.058545347 1.0797501 2.0643965e-38
-0.23510017 0.058545347 1.0847501 2.2944139e-38
-0.23260017 0.058545347 1.08725 2.3402597e-38
-0.23510017 0.056045346 1.0897501 1.9997797e-38
-0.23510017 0.058545347 1.0897501 2.3220366e-38
-0.23260017 0.056045346 1.0897501 2.1844601e-38
-0.23260017 0.058545347 1.0897501 2.3505571e-38
-0.23010015 0.053545348 1.0897501 1.5851167e-38
-0.22760016 0.051045347 1.0897501 1.6680184e-38
-0.22760016 0.053545348 1.0897501 1.5297618e-38
-0.23010015 0.056045346 1.08725 2.2673267e-38
-0.23010015 0.058545347 1.08725 2.3411935e-38
-0.22760016 0.056045346 1.08725 2.212373e-38
-0.22760016 0.058545347 1.08725 2.2677254e-38
-0.23010015 0.056045346 1.0897501 2.3502654e-38
-0.23010015 0.058545347 1.0897501 2.3505931e-38
-0.22760016 0.056045346 1.0897501 2.2122613e-38
-0.22760016 0.058545347 1.0897501 2.350592e-38
-0.23510017 0.061045349 1.07725 2.0926983e-38
-0.23510017 0.063545346 1.07725 1.6683829e-38
-0.23510017 0.061045349 1.0797501 2.1385443e-38
-0.23510017 0.063545346 1.0797501 1.7327036e-38
-0.23260017 0.061045349 1.0797501 1.6045321e-38
-0.23260017 0.063545346 1.0797501 1.7606494e-38
-0.23510017 0.066045344 1.0797501 1.7604346e-38
-0.23510017 0.068545349 1.0797501 1.8433738e-38
-0.23260017 0.066045344 1.0797501 1.8342261e-38
-0.23510017 0.061045349 1.0847501 1.742753e-38
-0.23510017 0.063545346 1.0847501 1.7236635e-38
-0.23260017 0.061045349 1.0847501 1.6228987e-38
-0.23260017 0.061045349 1.08725 1.723521e-38
-0.23260017 0.063545346 1.0847501 1.7789809e-38
-0.23260017 0.063545346 1.08725 1.7698339e-38
-0.23510017 0.066045344 1.0847501 1.8064601e-38
-0.23510017 0.068545349 1.0847501 1.7973854e-38
-0.23260017 0.066045344 1.0847501 1.8617775e-38
-0.23260017 0.066045344 1.08725 1.8250791e-38
-0.23260017 0.068545349 1.0847501 1.7328835e-38
-0.23260017 0.068545349 1.08725 1.4751671e-38
-0.23010015 0.061045349 1.0847501 1.732776e-38
-0.23010015 0.061045349 1.08725 1.732776e-38
-0.23010015 0.063545346 1.0847501 1.8158949e-38
-0.23010015 0.063545346 1.08725 1.8435176e-38
-0.22760016 0.061045349 1.08725 1.7601825e-38
-0.22760016 0.063545346 1.08725 1.8527377e-38
-0.22760016 0.061045349 1.0897501 1.5850828e-38
-0.23010015 0.066045344 1.0847501 1.871212e-38
-0.23010015 0.066045344 1.08725 1.8251142e-38
-0.23010015 0.068545349 1.08725 1.4563336e-38
-0.22760016 0.066045344 1.08725 1.8250791e-38
-0.22760016 0.068545349 1.08725 1.4931767e-38
-0.23010015 0.068545349 1.0897501 1.2631171e-38
-0.22760016 0.066045344 1.0897501 1.8250791e-38
-0.22760016 0.068545349 1.0897501 1.3639581e-38
-0.24510016 0.051045347 1.09725 1.7235919e-38
-0.24510016 0.053545348 1.09475 1.3083845e-38
-0.24510016 0.053545348 1.09725 1.1979273e-38
-0.24260016 0.051045347 1.09725 1.5395581e-38
-0.24260016 0.053545348 1.09475 1.3268595e-38
-0.24260016 0.053545348 1.09725 1.3179614e-38
-0.24510016 0.051045347 1.09975 1.6866059e-38
-0.24260016 0.051045347 1.09975 1.5855108e-38
-0.24260016 0.053545348 1.09975 1.3823914e-38
-0.24510016 0.056045346 1.09475 1.5850462e-38
-0.24510016 0.056045346 1.09725 1.3084574e-38
-0.24260016 0.056045346 1.09475 1.6128127e-38
-0.24260016 0.056045346 1.09725 1.4282737e-38
-0.24010016 0.051045347 1.09725 1.4195603e-38
-0.24010016 0.053545348 1.09475 1.3638448e-38
-0.24010016 0.053545348 1.09725 1.2996322e-38
-0.23760016 0.053545348 1.09475 1.4834842e-38
-0.23760016 0.053545348 1.09725 1.3734278e-38
-0.24010016 0.051045347 1.09975 1.4564369e-38
-0.24010016 0.053545348 1.09975 1.327181e-38
-0.23760016 0.051045347 1.09975 1.1156767e-38
-0.23760016 0.053545348 1.09975 1.5026088e-38
-0.24010016 0.056045346 1.09475 1.6678777e-38
-0.24010016 0.056045346 1.09725 1.4374934e-38
-0.23760016 0.056045346 1.09475 1.9537894e-38
-0.23760016 0.056045346 1.09725 1.5852241e-38
-0.23760016 0.056045346 1.09975 1.5849354e-38
-0.24010016 0.051045347 1.10475 1.0973444e-38
-0.23760016 0.051045347 1.10475 1.1157836e-38
-0.23510017 0.053545348 1.09725 1.5024272e-38
-0.23260017 0.051045347 1.09725 1.2536092e-38
-0.23260017 0.053545348 1.09725 1.4932102e-38
-0.23510017 0.051045347 1.09975 1.1798525e-38
-0.23510017 0.053545348 1.09975 1.5300526e-38
-0.23260017 0.051045347 1.09975 1.3362974e-38
-0.23260017 0.053545348 1.09975 1.5667869e-38
-0.23510017 0.056045346 1.09475 2.1013025e-38
-0.23510017 0.056045346 1.09725 1.5852241e-38
-0.23510017 0.058545347 1.09475 2.3494789e-38
-0.23260017 0.056045346 1.09475 2.3042035e-38
-0.23260017 0.056045346 1.09725 1.5944083e-38
-0.23260017 0.058545347 1.09475 2.3505572e-38
-0.23510017 0.056045346 1.09975 1.5115051e-38
-0.23010015 0.051045347 1.09475 1.4559334e-38
-0.23010015 0.051045347 1.09725 1.5019589e-38
-0.23010015 0.053545348 1.09475 1.5483105e-38
-0.23010015 0.053545348 1.09725 1.5481679e-38
-0.22760016 0.051045347 1.09475 1.6495442e-38
-0.22760016 0.051045347 1.09725 1.6126663e-38
-0.22760016 0.053545348 1.09475 1.5574967e-38
-0.23010015 0.056045346 1.09475 2.2307395e-38
-0.23510017 0.051045347 1.10475 1.1890366e-38
-0.24510016 0.071045347 1.07725 1.7881639e-38
