# .PCD v0.7 - Point Cloud Data file format
VERSION 0.7
FIELDS x y z rgb
SIZE 4 4 4 4
TYPE F F F F
COUNT 1 1 1 1
WIDTH 1007
HEIGHT 1
VIEWPOINT 0 0 0 1 0 0 0
POINTS 1007
DATA ascii
-0.3083739 0.15447848 0.87225008 1.391254e-38
-0.31087393 0.15697847 0.86475009 1.4284579e-38
-0.31087393 0.15697847 0.86725008 1.6404689e-38
-0.31087393 0.15947847 0.86475009 2.304379e-38
-0.3083739 0.15697847 0.86475009 1.4467176e-38
-0.3083739 0.15697847 0.86725008 1.5300161e-38
-0.3083739 0.15947847 0.86475009 2.2767298e-38
-0.31087393 0.15697847 0.86975008 1.5853335e-38
-0.31587392 0.15197848 0.87475008 7.1919654e-39
-0.31587392 0.15197848 0.87725008 7.6507673e-39
-0.31587392 0.15447848 0.87475008 7.8366159e-39
-0.31587392 0.15447848 0.87725008 8.2957864e-39
-0.31337392 0.15197848 0.87725008 8.390098e-39
-0.31337392 0.15447848 0.87475008 1.0597436e-38
-0.31337392 0.15447848 0.87725008 1.0412679e-38
-0.31587392 0.15197848 0.87975007 1.622356e-38
-0.31587392 0.15197848 0.88225007 1.5485995e-38
-0.31587392 0.15447848 0.87975007 7.0979523e-39
-0.31587392 0.15447848 0.88225007 8.4804958e-39
-0.31337392 0.15197848 0.88225007 8.4866797e-39
-0.31337392 0.15447848 0.87975007 1.0320859e-38
-0.31337392 0.15447848 0.88225007 9.0333094e-39
-0.31087393 0.15197848 0.87725008 1.1061643e-38
-0.31087393 0.15447848 0.87475008 1.0781478e-38
-0.31087393 0.15447848 0.87725008 1.0874383e-38
-0.3083739 0.15197848 0.87475008 1.3087068e-38
-0.3083739 0.15197848 0.87725008 1.281336e-38
-0.3083739 0.15447848 0.87475008 1.5389098e-38
-0.31087393 0.15197848 0.88225007 8.6645787e-39
-0.31087393 0.15447848 0.87975007 1.0783996e-38
-0.31087393 0.15447848 0.88225007 1.0785054e-38
-0.3083739 0.15447848 0.87975007 1.2166931e-38
-0.3083739 0.15447848 0.88225007 1.6494736e-38
-0.3058739 0.15197848 0.86475009 1.3819614e-38
-0.3058739 0.15197848 0.86725008 1.5847918e-38
-0.3058739 0.15447848 0.86475009 1.5391616e-38
-0.3058739 0.15447848 0.86725008 1.5483471e-38
-0.3033739 0.15197848 0.86475009 1.6312496e-38
-0.3033739 0.15197848 0.86725008 1.612883e-38
-0.3033739 0.15447848 0.86475009 1.4378553e-38
-0.3033739 0.15447848 0.86725008 1.5205815e-38
-0.3058739 0.15197848 0.86975008 1.5479505e-38
-0.3058739 0.15447848 0.86975008 1.5576025e-38
-0.3058739 0.15447848 0.87225008 1.6309256e-38
-0.3033739 0.15197848 0.86975008 1.6219591e-38
-0.3033739 0.15447848 0.86975008 1.4469329e-38
-0.3033739 0.15447848 0.87225008 1.4560445e-38
-0.3058739 0.15697847 0.86475009 1.4928154e-38
-0.3058739 0.15697847 0.86725008 1.5021401e-38
-0.3058739 0.15947847 0.86475009 1.621854e-38
-0.3033739 0.15697847 0.86475009 2.2121856e-38
-0.3033739 0.15697847 0.86725008 1.465406e-38
-0.3033739 0.15697847 0.86975008 1.483881e-38
-0.30087391 0.15447848 0.86725008 1.465371e-38
-0.30087391 0.15447848 0.86975008 1.5573869e-38
-0.30087391 0.15447848 0.87225008 1.5205093e-38
-0.29837391 0.15447848 0.86975008 1.7694333e-38
-0.29837391 0.15447848 0.87225008 1.447038e-38
-0.30087391 0.15697847 0.86475009 2.3411499e-38
-0.30087391 0.15697847 0.86725008 2.2676179e-38
-0.29837391 0.15697847 0.86475009 2.2859125e-38
-0.29837391 0.15697847 0.86725008 2.304496e-38
-0.29837391 0.15947847 0.86475009 1.5663899e-38
-0.29837391 0.15947847 0.86725008 2.2399237e-38
-0.30087391 0.15697847 0.86975008 1.5482755e-38
-0.29837391 0.15697847 0.86975008 2.322577e-38
-0.29837391 0.15697847 0.87225008 2.2757931e-38
-0.29837391 0.15947847 0.86975008 2.1940768e-38
-0.29837391 0.15947847 0.87225008 2.2950622e-38
-0.3058739 0.15447848 0.87475008 1.6036276e-38
-0.3058739 0.15447848 0.87725008 1.6496537e-38
-0.3033739 0.15197848 0.87725008 1.5853335e-38
-0.3033739 0.15447848 0.87475008 1.6035926e-38
-0.3033739 0.15447848 0.87725008 1.5853335e-38
-0.3058739 0.15447848 0.87975007 1.5668938e-38
-0.3058739 0.15447848 0.88225007 1.5761856e-38
-0.3033739 0.15197848 0.88225007 1.455611e-38
-0.3033739 0.15447848 0.87975007 1.576114e-38
-0.3033739 0.15447848 0.88225007 1.6037729e-38
-0.30087391 0.15197848 0.87725008 1.594408e-38
-0.30087391 0.15447848 0.87475008 1.5392335e-38
-0.29837391 0.15197848 0.87475008 1.5851885e-38
-0.29837391 0.15197848 0.87725008 1.6311045e-38
-0.29837391 0.15447848 0.87475008 1.4654767e-38
-0.30087391 0.15197848 0.87975007 1.5757168e-38
-0.30087391 0.15197848 0.88225007 1.6032682e-38
-0.29837391 0.15197848 0.87975007 1.6312496e-38
-0.29837391 0.15197848 0.88225007 1.622067e-38
-0.31587392 0.14447847 0.88475007 1.5758986e-38
-0.31587392 0.14447847 0.88725007 1.5758982e-38
-0.31337392 0.14447847 0.88475007 1.5482758e-38
-0.31337392 0.14447847 0.88725007 1.5390556e-38
-0.31337392 0.14447847 0.88975006 1.566642e-38
-0.31587392 0.14697848 0.88475007 1.5483471e-38
-0.31587392 0.14697848 0.88725007 1.5576025e-38
-0.31587392 0.14947848 0.88475007 1.7329188e-38
-0.31587392 0.14947848 0.88725007 1.907551e-38
-0.31337392 0.14697848 0.88475007 1.529908e-38
-0.31337392 0.14697848 0.88725007 1.5483476e-38
-0.31337392 0.14947848 0.88475007 1.751358e-38
-0.31337392 0.14947848 0.88725007 1.8344763e-38
-0.31587392 0.14697848 0.88975006 1.5117568e-38
-0.31337392 0.14697848 0.88975006 1.6311792e-38
-0.31337392 0.14947848 0.88975006 1.880357e-38
-0.31087393 0.14447847 0.88475007 1.5573871e-38
-0.31087393 0.14447847 0.88725007 1.5759337e-38
-0.3083739 0.14447847 0.88475007 1.7692576e-38
-0.3083739 0.14447847 0.88725007 1.6589453e-38
-0.31087393 0.14197847 0.88975006 1.5943014e-38
-0.31087393 0.14447847 0.88975006 1.5758265e-38
-0.3083739 0.14197847 0.88975006 1.5851537e-38
-0.3083739 0.14447847 0.88975006 1.5759335e-38
-0.31087393 0.14697848 0.88475007 1.6219241e-38
-0.31087393 0.14697848 0.88725007 1.5944096e-38
-0.31087393 0.14947848 0.88475007 1.7606128e-38
-0.31087393 0.14947848 0.88725007 1.7146221e-38
-0.3083739 0.14697848 0.88725007 1.6773509e-38
-0.3083739 0.14947848 0.88725007 1.6682762e-38
-0.31087393 0.14697848 0.88975006 1.6588399e-38
-0.31087393 0.14947848 0.88975006 1.6133882e-38
-0.3083739 0.14697848 0.88975006 1.8337945e-38
-0.3083739 0.14947848 0.88975006 1.4835998e-38
-0.31087393 0.14197847 0.89475006 1.6127395e-38
-0.31087393 0.14197847 0.89725006 1.6679849e-38
-0.31087393 0.14447847 0.89475006 1.5850817e-38
-0.3083739 0.14197847 0.89475006 1.5758972e-38
-0.3083739 0.14447847 0.89475006 1.5483476e-38
-0.31587392 0.15197848 0.88475007 1.0608258e-38
-0.31587392 0.15197848 0.88725007 1.3176833e-38
-0.31337392 0.15197848 0.88475007 7.8373194e-39
-0.31337392 0.15197848 0.88725007 9.0326928e-39
-0.31337392 0.15447848 0.88475007 1.1704863e-38
-0.31087393 0.15197848 0.88475007 7.466767e-39
-0.31087393 0.15197848 0.88725007 7.744765e-39
-0.31087393 0.15447848 0.88475007 1.29034e-38
-0.31087393 0.15447848 0.88725007 1.281336e-38
-0.3083739 0.15197848 0.88725007 1.050454e-38
-0.3083739 0.15447848 0.88725007 1.5852979e-38
-0.31087393 0.15197848 0.88975006 7.1919654e-39
-0.31087393 0.15447848 0.88975006 1.5116426e-38
-0.3083739 0.15197848 0.88975006 8.4804958e-39
-0.3083739 0.15447848 0.88975006 1.5853335e-38
-0.31087393 0.15697847 0.88475007 1.548094e-38
-0.31087393 0.15697847 0.88725007 1.6312143e-38
-0.3083739 0.15697847 0.88475007 1.6494736e-38
-0.3083739 0.15697847 0.88725007 1.6404338e-38
-0.31087393 0.15697847 0.88975006 1.5853683e-38
-0.3083739 0.15697847 0.88975006 1.557674e-38
-0.3058739 0.14197847 0.88975006 1.5482755e-38
-0.3058739 0.14447847 0.88975006 1.5392005e-38
-0.3033739 0.14197847 0.88975006 1.5944446e-38
-0.3033739 0.14447847 0.88975006 1.7049018e-38
-0.3058739 0.14697848 0.88975006 1.9538639e-38
-0.3058739 0.14947848 0.88975006 1.1519062e-38
-0.3033739 0.14697848 0.88975006 1.6501235e-38
-0.3033739 0.14947848 0.88975006 7.3752776e-39
-0.30087391 0.14447847 0.88975006 1.7416359e-38
-0.29837391 0.14447847 0.88975006 1.8706005e-38
-0.30087391 0.14697848 0.88975006 1.5579639e-38
-0.30087391 0.14947848 0.88975006 6.5458771e-39
-0.29837391 0.14697848 0.88975006 8.8583405e-39
-0.29837391 0.14947848 0.88975006 9.6801123e-39
-0.3058739 0.14197847 0.89475006 1.5481673e-38
-0.3058739 0.14447847 0.89475006 1.4929948e-38
-0.3033739 0.14197847 0.89475006 1.5298363e-38
-0.3033739 0.14197847 0.89725006 1.5850465e-38
-0.3033739 0.14447847 0.89475006 1.5574597e-38
-0.30087391 0.14197847 0.89475006 1.5391631e-38
-0.30087391 0.14197847 0.89725006 1.548312e-38
-0.30087391 0.14447847 0.89475006 1.8339024e-38
-0.29837391 0.14197847 0.89475006 1.5667872e-38
-0.29837391 0.14197847 0.89725006 1.5116133e-38
-0.29837391 0.14447847 0.89475006 1.8892198e-38
-0.29837391 0.14197847 0.89975005 1.5300877e-38
-0.30087391 0.14697848 0.89475006 1.511366e-38
-0.29837391 0.14697848 0.89475006 1.3822921e-38
-0.3058739 0.15197848 0.88475007 1.1517948e-38
-0.3058739 0.15197848 0.88725007 9.0333416e-39
-0.3058739 0.15447848 0.88475007 1.6128843e-38
-0.3033739 0.15197848 0.88475007 1.1522989e-38
-0.3033739 0.15197848 0.88725007 1.363917e-38
-0.3058739 0.15197848 0.88975006 1.1979318e-38
-0.3033739 0.15197848 0.88975006 1.3270057e-38
-0.30087391 0.15197848 0.88475007 1.5576682e-38
-0.30087391 0.15197848 0.88725007 1.5116057e-38
-0.29837391 0.15197848 0.88475007 1.6222052e-38
-0.29837391 0.15197848 0.88725007 1.6222405e-38
-0.30087391 0.15197848 0.88975006 8.8485776e-39
-0.29837391 0.15197848 0.88975006 1.6038447e-38
-0.31087393 0.16197848 0.86475009 2.3134989e-38
-0.3083739 0.16197848 0.86475009 1.5944083e-38
-0.3083739 0.16447848 0.86475009 1.5021772e-38
-0.31087393 0.16947848 0.86475009 1.6866408e-38
-0.3083739 0.16697848 0.86475009 1.6037726e-38
-0.3083739 0.16947848 0.86475009 1.6683093e-38
-0.31337392 0.17447847 0.86725008 1.1154226e-38
-0.31337392 0.17447847 0.86975008 8.9480334e-39
-0.31587392 0.17697847 0.86475009 1.1156024e-38
-0.31587392 0.17697847 0.86725008 1.0047897e-38
-0.31587392 0.17947848 0.86475009 1.1799576e-38
-0.31587392 0.17947848 0.86725008 1.0693614e-38
-0.31337392 0.17697847 0.86475009 1.0601421e-38
-0.31337392 0.17697847 0.86725008 1.1887122e-38
-0.31337392 0.17947848 0.86475009 1.0693967e-38
-0.31337392 0.17947848 0.86725008 1.0232639e-38
-0.31587392 0.17947848 0.86975008 9.6801754e-39
-0.31337392 0.17697847 0.86975008 1.1794925e-38
-0.31337392 0.17697847 0.87225008 1.078581e-38
-0.31337392 0.17947848 0.86975008 1.0870822e-38
-0.31337392 0.17947848 0.87225008 1.1055917e-38
-0.31087393 0.17197847 0.86475009 1.2349936e-38
-0.31087393 0.17447847 0.86475009 8.7636421e-39
-0.31087393 0.17447847 0.86725008 1.106311e-38
-0.3083739 0.17197847 0.86475009 1.087586e-38
-0.3083739 0.17197847 0.86725008 9.9546113e-39
-0.3083739 0.17447847 0.86725008 9.1288149e-39
-0.31087393 0.17447847 0.86975008 9.8624171e-39
-0.3083739 0.17447847 0.86975008 1.0965169e-38
-0.3083739 0.17447847 0.87225008 1.059855e-38
-0.31087393 0.17697847 0.86475009 1.1611607e-38
-0.31087393 0.17697847 0.86725008 1.2072217e-38
-0.31087393 0.17697847 0.86975008 1.1708102e-38
-0.31087393 0.17697847 0.87225008 1.1247867e-38
-0.31087393 0.17947848 0.86975008 1.2811908e-38
-0.31087393 0.17947848 0.87225008 1.3641324e-38
-0.3083739 0.17697847 0.86975008 1.1523712e-38
-0.3083739 0.17697847 0.87225008 1.059963e-38
-0.3083739 0.17947848 0.86975008 1.5393035e-38
-0.3083739 0.17947848 0.87225008 1.5393767e-38
-0.3083739 0.17447847 0.87475008 1.1059888e-38
-0.3083739 0.17697847 0.87475008 1.0138292e-38
-0.3083739 0.17697847 0.87725008 1.0784015e-38
-0.3083739 0.17947848 0.87475008 1.6223169e-38
-0.3083739 0.17947848 0.87725008 1.014044e-38
-0.3058739 0.16197848 0.86475009 1.6399316e-38
-0.3058739 0.16447848 0.86475009 1.5481676e-38
-0.3058739 0.16697848 0.86475009 1.6406153e-38
-0.3058739 0.16947848 0.86475009 1.6222115e-38
-0.3033739 0.16697848 0.86475009 1.7418866e-38
-0.3033739 0.16947848 0.86475009 1.2442505e-38
-0.3033739 0.16947848 0.86725008 1.2902409e-38
-0.30087391 0.16447848 0.86475009 1.6223188e-38
-0.29837391 0.16197848 0.86475009 1.6498349e-38
-0.29837391 0.16197848 0.86725008 1.7417418e-38
-0.29837391 0.16447848 0.86475009 1.6866059e-38
-0.30087391 0.16697848 0.86475009 1.7326311e-38
-0.30087391 0.16697848 0.86725008 1.815787e-38
-0.30087391 0.16947848 0.86475009 1.2073722e-38
-0.30087391 0.16947848 0.86725008 1.0784015e-38
-0.29837391 0.16697848 0.86475009 1.5392357e-38
-0.29837391 0.16697848 0.86725008 1.4199572e-38
-0.29837391 0.16947848 0.86475009 1.087586e-38
-0.29837391 0.16947848 0.86725008 9.5862169e-39
-0.29837391 0.16947848 0.86975008 9.6787657e-39
-0.29837391 0.16947848 0.87225008 1.0875507e-38
-0.3058739 0.17197847 0.86475009 9.5872693e-39
-0.3058739 0.17197847 0.86725008 1.3181474e-38
-0.3058739 0.17447847 0.86725008 1.0876561e-38
-0.3033739 0.17197847 0.86475009 9.5869162e-39
-0.3033739 0.17197847 0.86725008 1.0239128e-38
-0.3058739 0.17197847 0.86975008 1.0506728e-38
-0.3058739 0.17447847 0.86975008 9.6798223e-39
-0.3058739 0.17447847 0.87225008 1.2073286e-38
-0.3033739 0.17197847 0.86975008 1.106311e-38
-0.3033739 0.17447847 0.86975008 1.2439923e-38
-0.3033739 0.17447847 0.87225008 1.1522659e-38
-0.3058739 0.17697847 0.86975008 1.0233342e-38
-0.3058739 0.17697847 0.87225008 1.1150241e-38
-0.3058739 0.17947848 0.87225008 1.6865709e-38
-0.30087391 0.17197847 0.86725008 9.6773167e-39
-0.29837391 0.17197847 0.86725008 9.9542638e-39
-0.30087391 0.17197847 0.86975008 1.1431185e-38
-0.30087391 0.17447847 0.86975008 1.2075457e-38
-0.30087391 0.17447847 0.87225008 1.1246072e-38
-0.29837391 0.17197847 0.86975008 1.1431185e-38
-0.29837391 0.17197847 0.87225008 1.160874e-38
-0.29837391 0.17447847 0.87225008 1.0415238e-38
-0.3058739 0.17447847 0.87475008 1.2347728e-38
-0.3058739 0.17697847 0.87475008 1.1150241e-38
-0.3058739 0.17697847 0.87725008 1.115061e-38
-0.3058739 0.17947848 0.87475008 1.7232693e-38
-0.3058739 0.17947848 0.87725008 1.0875141e-38
-0.3033739 0.17697847 0.87475008 1.2903067e-38
-0.3033739 0.17697847 0.87725008 1.4563608e-38
-0.3033739 0.17947848 0.87475008 1.7512131e-38
-0.3033739 0.17947848 0.87725008 1.612488e-38
-0.30087391 0.17447847 0.87475008 9.6805257e-39
-0.29837391 0.17197847 0.87475008 1.0875847e-38
-0.29837391 0.17197847 0.87725008 1.409763e-38
-0.29837391 0.17447847 0.87475008 9.7702186e-39
-0.29837391 0.17447847 0.87725008 1.1148822e-38
-0.30087391 0.17447847 0.87975007 1.014044e-38
-0.29837391 0.17447847 0.87975007 1.1149909e-38
-0.30087391 0.17697847 0.87475008 1.6131641e-38
-0.30087391 0.17697847 0.87725008 1.6223502e-38
-0.30087391 0.17947848 0.87475008 1.6957512e-38
-0.30087391 0.17947848 0.87725008 1.7325919e-38
-0.29837391 0.17697847 0.87725008 1.7786936e-38
-0.29837391 0.17947848 0.87725008 1.7879841e-38
-0.30087391 0.17947848 0.87975007 1.8063854e-38
-0.29837391 0.17947848 0.87975007 1.8062081e-38
-0.28837392 0.14947848 0.87975007 1.4284935e-38
-0.29587391 0.15447848 0.86975008 1.9169463e-38
-0.29587391 0.15447848 0.87225008 2.2582086e-38
-0.29337391 0.15197848 0.87225008 1.4559347e-38
-0.29337391 0.15447848 0.86975008 2.3321551e-38
-0.29337391 0.15447848 0.87225008 1.6125606e-38
-0.29587391 0.15947847 0.86475009 1.5482407e-38
-0.29587391 0.15947847 0.86725008 1.5205462e-38
-0.29337391 0.15947847 0.86725008 1.5209765e-38
-0.29587391 0.15697847 0.86975008 1.935288e-38
-0.29587391 0.15697847 0.87225008 2.3503058e-38
-0.29587391 0.15947847 0.86975008 1.5032246e-38
-0.29587391 0.15947847 0.87225008 1.714161e-38
-0.29337391 0.15697847 0.86975008 1.6036291e-38
-0.29337391 0.15697847 0.87225008 2.2952762e-38
-0.29337391 0.15947847 0.86975008 1.5390206e-38
-0.29337391 0.15947847 0.87225008 1.5482755e-38
-0.29087391 0.15197848 0.87225008 1.5481663e-38
-0.29087391 0.15447848 0.86975008 2.3509886e-38
-0.29087391 0.15447848 0.87225008 2.3134293e-38
-0.28837392 0.15197848 0.87225008 1.9813384e-38
-0.28837392 0.15447848 0.87225008 2.2120509e-38
-0.29087391 0.15697847 0.86975008 1.5760065e-38
-0.29087391 0.15697847 0.87225008 2.1295048e-38
-0.29087391 0.15947847 0.86975008 1.5851184e-38
-0.29087391 0.15947847 0.87225008 1.5760418e-38
-0.28837392 0.15697847 0.87225008 1.917419e-38
-0.28837392 0.15947847 0.87225008 1.612884e-38
-0.29587391 0.15197848 0.87475008 1.4560426e-38
-0.29587391 0.15197848 0.87725008 1.6956413e-38
-0.29587391 0.15447848 0.87475008 1.4839161e-38
-0.29337391 0.15197848 0.87475008 1.5578178e-38
-0.29337391 0.15197848 0.87725008 1.57615e-38
-0.29587391 0.15197848 0.87975007 1.6496887e-38
-0.29087391 0.15197848 0.87475008 1.8154576e-38
-0.29087391 0.15197848 0.87725008 1.4195956e-38
-0.29087391 0.15447848 0.87475008 2.1282079e-38
-0.28837392 0.15197848 0.87475008 2.2582477e-38
-0.28837392 0.15197848 0.87725008 1.3917574e-38
-0.28837392 0.15447848 0.87475008 2.3505571e-38
-0.29087391 0.15197848 0.88225007 1.4837388e-38
-0.28837392 0.15197848 0.87975007 1.4747338e-38
-0.28837392 0.15197848 0.88225007 1.437605e-38
-0.28837392 0.15697847 0.87475008 1.4756373e-38
-0.28837392 0.15947847 0.87475008 1.6680942e-38
-0.28587392 0.14947848 0.87975007 1.5666417e-38
-0.28337392 0.14697848 0.88225007 1.5483471e-38
-0.28337392 0.14947848 0.87975007 1.7879075e-38
-0.28337392 0.14947848 0.88225007 1.4931356e-38
-0.28087392 0.14697848 0.88225007 1.4837038e-38
-0.28087392 0.14947848 0.87975007 2.1382902e-38
-0.28087392 0.14947848 0.88225007 1.4745555e-38
-0.2783739 0.14947848 0.88225007 1.6495458e-38
-0.28587392 0.15197848 0.87225008 2.322855e-38
-0.28587392 0.15447848 0.87225008 1.6955091e-38
-0.28337392 0.15447848 0.87225008 1.6036647e-38
-0.28587392 0.15697847 0.87225008 1.3647865e-38
-0.28587392 0.15947847 0.87225008 1.5485992e-38
-0.28337392 0.15697847 0.87225008 1.6127045e-38
-0.28337392 0.15947847 0.87225008 1.6958605e-38
-0.28087392 0.15447848 0.87225008 1.5393796e-38
-0.28087392 0.15697847 0.87225008 1.622032e-38
-0.28087392 0.15947847 0.87225008 1.7417784e-38
-0.28587392 0.15197848 0.87475008 2.3320042e-38
-0.28587392 0.15197848 0.87725008 1.4470748e-38
-0.28587392 0.15447848 0.87475008 1.6681018e-38
-0.28337392 0.15197848 0.87475008 2.3414816e-38
-0.28337392 0.15197848 0.87725008 2.2858428e-38
-0.28337392 0.15447848 0.87475008 1.5392357e-38
-0.28587392 0.15197848 0.87975007 1.7232672e-38
-0.28587392 0.15197848 0.88225007 1.5941931e-38
-0.28337392 0.15197848 0.87975007 2.1834545e-38
-0.28337392 0.15197848 0.88225007 2.3495868e-38
-0.28587392 0.15697847 0.87475008 1.3740061e-38
-0.28587392 0.15947847 0.87475008 1.6865692e-38
-0.28337392 0.15697847 0.87475008 1.6034129e-38
-0.28337392 0.15947847 0.87475008 1.7049723e-38
-0.28087392 0.15197848 0.87475008 2.2582204e-38
-0.28087392 0.15197848 0.87725008 2.2213068e-38
-0.28087392 0.15447848 0.87475008 1.511686e-38
-0.28087392 0.15447848 0.87725008 1.9175993e-38
-0.2783739 0.15197848 0.87725008 1.9724492e-38
-0.2783739 0.15447848 0.87475008 1.5212285e-38
-0.2783739 0.15447848 0.87725008 1.2827808e-38
-0.28087392 0.15197848 0.87975007 2.3504861e-38
-0.28087392 0.15197848 0.88225007 2.3505575e-38
-0.28087392 0.15447848 0.87975007 2.2213068e-38
-0.28087392 0.15447848 0.88225007 1.9723773e-38
-0.2783739 0.15197848 0.87975007 2.1474748e-38
-0.2783739 0.15197848 0.88225007 2.0829363e-38
-0.2783739 0.15447848 0.87975007 1.1076093e-38
-0.2783739 0.15447848 0.88225007 1.3365808e-38
-0.28087392 0.15697847 0.87475008 1.6219244e-38
-0.28087392 0.15697847 0.87725008 1.649583e-38
-0.28087392 0.15947847 0.87475008 1.7234116e-38
-0.28087392 0.15947847 0.87725008 1.7326311e-38
-0.2783739 0.15697847 0.87475008 1.6865689e-38
-0.2783739 0.15697847 0.87725008 1.7693652e-38
-0.2783739 0.15947847 0.87475008 1.7786572e-38
-0.2783739 0.15947847 0.87725008 1.7051159e-38
-0.28087392 0.15947847 0.87975007 1.7418863e-38
-0.2783739 0.15947847 0.87975007 1.7234472e-38
-0.2783739 0.15947847 0.88225007 1.6866764e-38
-0.29587391 0.14947848 0.88725007 1.4189122e-38
-0.29337391 0.14947848 0.88725007 1.5386593e-38
-0.29587391 0.14697848 0.88975006 7.8366285e-39
-0.29587391 0.14947848 0.88975006 1.4188766e-38
-0.29337391 0.14697848 0.88975006 8.2940138e-39
-0.29337391 0.14947848 0.88975006 1.5664255e-38
-0.29087391 0.14947848 0.88475007 1.6496537e-38
-0.29087391 0.14947848 0.88725007 1.6311792e-38
-0.28837392 0.14947848 0.88475007 1.57615e-38
-0.28837392 0.14947848 0.88725007 1.5392707e-38
-0.29087391 0.14697848 0.88975006 1.0964775e-38
-0.29087391 0.14947848 0.88975006 1.5852585e-38
-0.28837392 0.14697848 0.88975006 1.2071121e-38
-0.28837392 0.14947848 0.88975006 1.5668222e-38
-0.29587391 0.14197847 0.89475006 1.6036294e-38
-0.29587391 0.14197847 0.89725006 1.5577837e-38
-0.29587391 0.14447847 0.89475006 1.7789441e-38
-0.29587391 0.14447847 0.89725006 1.7606158e-38
-0.29337391 0.14197847 0.89475006 1.6037024e-38
-0.29337391 0.14197847 0.89725006 1.5577837e-38
-0.29337391 0.14447847 0.89475006 1.622356e-38
-0.29337391 0.14447847 0.89725006 1.6960788e-38
-0.29587391 0.14197847 0.89975005 1.5300526e-38
-0.29337391 0.14197847 0.89975005 1.7142254e-38
-0.29587391 0.14697848 0.89475006 8.9376386e-39
-0.29337391 0.14697848 0.89475006 7.8344635e-39
-0.29087391 0.14197847 0.89475006 1.7786569e-38
-0.29087391 0.14197847 0.89725006 1.8707451e-38
-0.29087391 0.14447847 0.89475006 1.0144043e-38
-0.29087391 0.14447847 0.89725006 1.4376089e-38
-0.28837392 0.14197847 0.89725006 1.9631548e-38
-0.28837392 0.14447847 0.89475006 9.8627674e-39
-0.28837392 0.14447847 0.89725006 1.2903053e-38
-0.29087391 0.14197847 0.89975005 1.9813782e-38
-0.29087391 0.14447847 0.89975005 1.3177141e-38
-0.28837392 0.14197847 0.89975005 1.9260608e-38
-0.28837392 0.14197847 0.90225011 1.8341545e-38
-0.28837392 0.14447847 0.89975005 1.1702011e-38
-0.29087391 0.14697848 0.89475006 9.675809e-39
-0.28837392 0.14697848 0.89475006 1.1979318e-38
-0.29587391 0.15197848 0.88475007 1.6313604e-38
-0.29587391 0.15197848 0.88725007 1.5854054e-38
-0.29337391 0.15197848 0.88475007 1.511577e-38
-0.29337391 0.15197848 0.88725007 1.5207259e-38
-0.29587391 0.15197848 0.88975006 1.5853698e-38
-0.29087391 0.15197848 0.88475007 1.5113616e-38
-0.28837392 0.15197848 0.88475007 1.4560443e-38
-0.28587392 0.14697848 0.88475007 1.5576025e-38
-0.28587392 0.14947848 0.88475007 1.5023553e-38
-0.28587392 0.14947848 0.88725007 1.5759337e-38
-0.28337392 0.14697848 0.88475007 1.5575306e-38
-0.28337392 0.14697848 0.88725007 1.6033758e-38
-0.28337392 0.14947848 0.88475007 1.5023203e-38
-0.28587392 0.14697848 0.88975006 1.4556107e-38
-0.28587392 0.14947848 0.88975006 1.5667866e-38
-0.28337392 0.14697848 0.88975006 1.4007256e-38
-0.28087392 0.14697848 0.88475007 1.4559724e-38
-0.28087392 0.14697848 0.88725007 1.5850811e-38
-0.28087392 0.14947848 0.88475007 1.4929948e-38
-0.28087392 0.14947848 0.88725007 1.4192382e-38
-0.2783739 0.14697848 0.88475007 1.4927786e-38
-0.2783739 0.14947848 0.88475007 1.6495102e-38
-0.2783739 0.14947848 0.88725007 1.50189e-38
-0.28087392 0.14697848 0.88975006 1.6217429e-38
-0.28587392 0.14447847 0.89475006 1.0965131e-38
-0.28587392 0.14447847 0.89725006 1.1149522e-38
-0.28337392 0.14447847 0.89475006 1.123992e-38
-0.28587392 0.14197847 0.89975005 1.8156781e-38
-0.28587392 0.14197847 0.90225011 1.8063529e-38
-0.28587392 0.14447847 0.89975005 1.1609447e-38
-0.28587392 0.14447847 0.90225011 1.4190924e-38
-0.28337392 0.14197847 0.89975005 1.7510317e-38
-0.28337392 0.14197847 0.90225011 1.8062771e-38
-0.28337392 0.14447847 0.90225011 1.7601786e-38
-0.28587392 0.14697848 0.89475006 1.3546974e-38
-0.28337392 0.14697848 0.89475006 1.446858e-38
-0.28587392 0.14697848 0.89975005 1.4284174e-38
-0.28087392 0.15197848 0.88475007 2.1382193e-38
-0.2783739 0.15197848 0.88475007 2.1197809e-38
-0.29587391 0.16197848 0.86475009 1.6959314e-38
-0.29587391 0.16197848 0.86725008 1.5944096e-38
-0.29587391 0.16447848 0.86475009 1.7327036e-38
-0.29587391 0.16447848 0.86725008 1.7143718e-38
-0.29337391 0.16197848 0.86475009 1.7327386e-38
-0.29337391 0.16197848 0.86725008 1.6589465e-38
-0.29337391 0.16447848 0.86475009 1.7972756e-38
-0.29337391 0.16447848 0.86725008 1.7879851e-38
-0.29587391 0.16197848 0.86975008 1.6312885e-38
-0.29587391 0.16197848 0.87225008 1.8615607e-38
-0.29587391 0.16447848 0.86975008 1.732703e-38
-0.29587391 0.16447848 0.87225008 1.7419585e-38
-0.29337391 0.16197848 0.86975008 1.7049723e-38
-0.29337391 0.16197848 0.87225008 1.6958961e-38
-0.29337391 0.16447848 0.86975008 1.7327386e-38
-0.29337391 0.16447848 0.87225008 1.7051876e-38
-0.29587391 0.16697848 0.86475009 1.3553502e-38
-0.29587391 0.16697848 0.86725008 1.2262763e-38
-0.29337391 0.16697848 0.86725008 1.0329876e-38
-0.29587391 0.16697848 0.86975008 1.2626893e-38
-0.29587391 0.16697848 0.87225008 1.2074078e-38
-0.29587391 0.16947848 0.86975008 1.0876914e-38
-0.29587391 0.16947848 0.87225008 1.1430087e-38
-0.29337391 0.16697848 0.86975008 1.1798214e-38
-0.29337391 0.16697848 0.87225008 1.1059883e-38
-0.29337391 0.16947848 0.86975008 9.5923112e-39
-0.29337391 0.16947848 0.87225008 1.0414513e-38
-0.29087391 0.16197848 0.86975008 1.7326311e-38
-0.29087391 0.16197848 0.87225008 1.7786572e-38
-0.29087391 0.16447848 0.87225008 1.6590172e-38
-0.28837392 0.16197848 0.87225008 1.7234472e-38
-0.28837392 0.16447848 0.87225008 1.4747002e-38
-0.29087391 0.16697848 0.87225008 1.5393428e-38
-0.29337391 0.16447848 0.87475008 1.6683093e-38
-0.29337391 0.16447848 0.87725008 1.6406506e-38
-0.29587391 0.16697848 0.87475008 1.2257037e-38
-0.29587391 0.16947848 0.87475008 9.6812824e-39
-0.29587391 0.16947848 0.87725008 1.0785815e-38
-0.29337391 0.16697848 0.87475008 1.1153153e-38
-0.29337391 0.16697848 0.87725008 1.557639e-38
-0.29337391 0.16947848 0.87475008 1.0415238e-38
-0.29337391 0.16947848 0.87725008 1.0688229e-38
-0.29337391 0.16697848 0.87975007 1.4289972e-38
-0.29337391 0.16697848 0.88225007 1.4011953e-38
-0.29337391 0.16947848 0.87975007 1.0230838e-38
-0.29337391 0.16947848 0.88225007 1.0415941e-38
-0.29087391 0.16197848 0.87475008 1.6958961e-38
-0.29087391 0.16447848 0.87475008 1.5761152e-38
-0.29087391 0.16447848 0.87725008 1.4286382e-38
-0.28837392 0.16197848 0.87475008 1.7511061e-38
-0.28837392 0.16197848 0.87725008 1.7511427e-38
-0.28837392 0.16447848 0.87475008 1.7694376e-38
-0.28837392 0.16447848 0.87725008 1.7786216e-38
-0.28837392 0.16447848 0.87975007 1.7694021e-38
-0.29087391 0.16697848 0.87725008 1.3831149e-38
-0.29087391 0.16697848 0.87975007 1.2538255e-38
-0.29087391 0.16697848 0.88225007 1.2444988e-38
-0.29087391 0.16947848 0.88225007 1.106311e-38
-0.28837392 0.16697848 0.87975007 1.152199e-38
-0.28837392 0.16697848 0.88225007 1.1889328e-38
-0.29587391 0.17197847 0.87225008 1.179491e-38
-0.29587391 0.17197847 0.87475008 1.2163684e-38
-0.29587391 0.17197847 0.87725008 1.2532825e-38
-0.29587391 0.17447847 0.87475008 1.1150259e-38
-0.29587391 0.17447847 0.87725008 1.1701642e-38
-0.29337391 0.17197847 0.87475008 1.142976e-38
-0.29587391 0.17447847 0.87975007 1.3730309e-38
-0.29587391 0.17447847 0.88225007 1.3546619e-38
-0.29337391 0.17197847 0.87975007 1.1521227e-38
-0.29337391 0.17197847 0.88225007 1.1245368e-38
-0.29337391 0.17447847 0.88225007 1.4653677e-38
-0.29587391 0.17697847 0.87725008 1.778764e-38
-0.29587391 0.17947848 0.87725008 1.7696526e-38
-0.29587391 0.17697847 0.87975007 1.7787996e-38
-0.29587391 0.17947848 0.87975007 1.7696523e-38
-0.29337391 0.17697847 0.87975007 1.8433015e-38
-0.29337391 0.17697847 0.88225007 1.7597491e-38
-0.29337391 0.17947848 0.87975007 1.7880557e-38
-0.29337391 0.17947848 0.88225007 1.7880554e-38
-0.29087391 0.17947848 0.88225007 1.7237342e-38
-0.28587392 0.16197848 0.87475008 1.7512133e-38
-0.28587392 0.16197848 0.87725008 1.7695093e-38
-0.28587392 0.16447848 0.87725008 1.7419585e-38
-0.28337392 0.16197848 0.87725008 1.7786936e-38
-0.28587392 0.16197848 0.87975007 1.6866042e-38
-0.28587392 0.16447848 0.87975007 1.6958961e-38
-0.28587392 0.16447848 0.88225007 1.6221395e-38
-0.28337392 0.16197848 0.87975007 1.5114363e-38
-0.28337392 0.16197848 0.88225007 1.5299825e-38
-0.28337392 0.16447848 0.88225007 1.2633688e-38
-0.28587392 0.16697848 0.88225007 1.0785812e-38
-0.28087392 0.16197848 0.87725008 1.7786216e-38
-0.2783739 0.16197848 0.87725008 1.7419579e-38
-0.28087392 0.16197848 0.87975007 1.7510708e-38
-0.28087392 0.16197848 0.88225007 1.7418866e-38
-0.2783739 0.16197848 0.87975007 1.677421e-38
-0.2783739 0.16197848 0.88225007 1.7049723e-38
-0.29587391 0.16947848 0.88475007 1.0137926e-38
-0.29337391 0.16947848 0.88475007 9.954261e-39
-0.29087391 0.16947848 0.88475007 1.1155303e-38
-0.29087391 0.16947848 0.88725007 1.1616281e-38
-0.28837392 0.16697848 0.88475007 1.1336118e-38
-0.28837392 0.16947848 0.88475007 9.6845068e-39
-0.28837392 0.16947848 0.88725007 1.0139742e-38
-0.28837392 0.16947848 0.88975006 1.1154249e-38
-0.29587391 0.17197847 0.88475007 1.1338618e-38
-0.29587391 0.17447847 0.88475007 1.1153873e-38
-0.29337391 0.17197847 0.88475007 1.0968037e-38
-0.29337391 0.17197847 0.88725007 1.1886755e-38
-0.29337391 0.17447847 0.88475007 1.0323377e-38
-0.29337391 0.17447847 0.88725007 1.0968746e-38
-0.29587391 0.17697847 0.88475007 1.4928852e-38
-0.29587391 0.17697847 0.88725007 1.8157482e-38
-0.29337391 0.17697847 0.88475007 1.7880542e-38
-0.29337391 0.17697847 0.88725007 1.8064933e-38
-0.29337391 0.17947848 0.88475007 1.7327015e-38
-0.29087391 0.17197847 0.88475007 1.1607642e-38
-0.29087391 0.17197847 0.88725007 1.2718293e-38
-0.29087391 0.17447847 0.88475007 1.2808353e-38
-0.29087391 0.17447847 0.88725007 1.3730315e-38
-0.28837392 0.17197847 0.88475007 1.2900533e-38
-0.28837392 0.17197847 0.88725007 1.2349898e-38
-0.28837392 0.17447847 0.88725007 1.4560429e-38
-0.29087391 0.17447847 0.88975006 1.36374e-38
-0.28837392 0.17197847 0.88975006 1.1153153e-38
-0.28837392 0.17447847 0.88975006 1.861092e-38
-0.29087391 0.17697847 0.88475007 1.8154999e-38
-0.29087391 0.17697847 0.88725007 1.760398e-38
-0.29087391 0.17947848 0.88475007 1.7235191e-38
-0.28837392 0.17697847 0.88725007 1.7973837e-38
-0.28837392 0.17947848 0.88475007 1.7419216e-38
-0.29087391 0.17697847 0.88975006 1.7786942e-38
-0.28837392 0.17697847 0.88975006 1.8615604e-38
-0.28587392 0.16447848 0.88475007 1.3001752e-38
-0.28587392 0.16447848 0.88725007 1.2725165e-38
-0.28337392 0.16447848 0.88475007 1.3640662e-38
-0.28337392 0.16447848 0.88725007 1.0789057e-38
-0.28337392 0.16447848 0.88975006 1.1797839e-38
-0.28587392 0.16697848 0.88475007 1.0507786e-38
-0.28587392 0.16697848 0.88725007 1.0598194e-38
-0.28587392 0.16947848 0.88725007 1.1153876e-38
-0.28337392 0.16697848 0.88725007 1.1245353e-38
-0.28587392 0.16697848 0.88975006 1.1707399e-38
-0.28587392 0.16947848 0.88975006 1.2349882e-38
-0.28337392 0.16697848 0.88975006 1.0417037e-38
-0.28337392 0.16947848 0.88975006 1.2902681e-38
-0.28087392 0.16197848 0.88475007 1.7142624e-38
-0.28087392 0.16447848 0.88475007 1.1522322e-38
-0.28087392 0.16447848 0.88725007 1.1889313e-38
-0.2783739 0.16197848 0.88725007 1.6038447e-38
-0.28087392 0.16197848 0.88975006 1.576223e-38
-0.28087392 0.16447848 0.88975006 1.1521252e-38
-0.2783739 0.16197848 0.88975006 1.5393446e-38
-0.2783739 0.16447848 0.88975006 1.3084198e-38
-0.28087392 0.16697848 0.88975006 1.0052563e-38
-0.28087392 0.16947848 0.88975006 1.2535699e-38
-0.28337392 0.16447848 0.89475006 1.6957159e-38
-0.28337392 0.16447848 0.89725006 1.6130642e-38
-0.28337392 0.16697848 0.89475006 1.0785459e-38
-0.28337392 0.16697848 0.89725006 1.1336468e-38
-0.28337392 0.16947848 0.89475006 1.2260554e-38
-0.28337392 0.16947848 0.89725006 1.1891792e-38
-0.28337392 0.16697848 0.89975005 1.1337564e-38
-0.28337392 0.16947848 0.89975005 1.2074751e-38
-0.28087392 0.16447848 0.89475006 1.1520876e-38
-0.28087392 0.16447848 0.89725006 1.5485273e-38
-0.2783739 0.16447848 0.89475006 1.2716844e-38
-0.2783739 0.16447848 0.89725006 1.309393e-38
-0.28087392 0.16697848 0.89475006 1.142976e-38
-0.28087392 0.16697848 0.89725006 1.0877306e-38
-0.28087392 0.16947848 0.89475006 1.1153876e-38
-0.28087392 0.16947848 0.89725006 1.1430813e-38
-0.2783739 0.16697848 0.89475006 1.4001823e-38
-0.2783739 0.16697848 0.89725006 1.2900533e-38
-0.2783739 0.16947848 0.89475006 1.1242101e-38
-0.28087392 0.16697848 0.89975005 1.0874788e-38
-0.28087392 0.16947848 0.89975005 1.0967687e-38
-0.28587392 0.17197847 0.88725007 9.8613353e-39
-0.28587392 0.17447847 0.88725007 1.9354596e-38
-0.28337392 0.17447847 0.88725007 1.7418876e-38
-0.28587392 0.17197847 0.88975006 9.585456e-39
-0.28587392 0.17447847 0.88975006 1.9078009e-38
-0.28337392 0.17197847 0.88975006 1.3361884e-38
-0.28337392 0.17447847 0.88975006 1.7972402e-38
-0.28587392 0.17697847 0.88725007 1.7787276e-38
-0.28337392 0.17697847 0.88725007 1.7418863e-38
-0.28587392 0.17697847 0.88975006 1.8247898e-38
-0.28337392 0.17697847 0.88975006 1.7602178e-38
-0.28087392 0.17447847 0.88725007 1.7695823e-38
-0.28087392 0.17197847 0.88975006 1.6766657e-38
-0.28087392 0.17447847 0.88975006 1.7879122e-38
-0.2783739 0.17197847 0.88975006 1.8986179e-38
-0.2783739 0.17447847 0.88975006 1.7786925e-38
-0.28087392 0.17697847 0.88725007 1.7418863e-38
-0.2783739 0.17697847 0.88725007 1.7879485e-38
-0.28087392 0.17697847 0.88975006 1.7694374e-38
-0.2783739 0.17697847 0.88975006 1.7878766e-38
-0.28337392 0.17197847 0.89475006 1.2718993e-38
-0.28337392 0.17197847 0.89725006 1.1798522e-38
-0.28087392 0.17197847 0.89475006 1.5758619e-38
-0.28087392 0.17197847 0.89725006 1.124535e-38
-0.2783739 0.17197847 0.89475006 1.8067412e-38
-0.2758739 0.14947848 0.88225007 1.8247176e-38
-0.2733739 0.14697848 0.88225007 2.0460189e-38
-0.2733739 0.14947848 0.88225007 2.1562978e-38
-0.26837391 0.14697848 0.87475008 2.0458795e-38
-0.26837391 0.14947848 0.87475008 1.7695095e-38
-0.26837391 0.14947848 0.87725008 1.7879854e-38
-0.2708739 0.14697848 0.88225007 2.0828657e-38
-0.2708739 0.14947848 0.87975007 1.8432295e-38
-0.2708739 0.14947848 0.88225007 2.0919773e-38
-0.26837391 0.14697848 0.88225007 2.0459864e-38
-0.2758739 0.15447848 0.87475008 1.5672904e-38
-0.2758739 0.15447848 0.87725008 1.3556702e-38
-0.2758739 0.15197848 0.87975007 2.1012672e-38
-0.2758739 0.15197848 0.88225007 2.0091439e-38
-0.2758739 0.15447848 0.87975007 1.3097165e-38
-0.2758739 0.15447848 0.88225007 1.3742534e-38
-0.2733739 0.15197848 0.88225007 1.4935689e-38
-0.2733739 0.15447848 0.87975007 1.5579247e-38
-0.2733739 0.15447848 0.88225007 1.6868182e-38
-0.2758739 0.15697847 0.87475008 1.7142276e-38
-0.2758739 0.15697847 0.87725008 1.7787646e-38
-0.2758739 0.15947847 0.87475008 1.7786572e-38
-0.2758739 0.15947847 0.87725008 1.6313236e-38
-0.2758739 0.15697847 0.87975007 1.7694371e-38
-0.2758739 0.15697847 0.88225007 1.7238785e-38
-0.2758739 0.15947847 0.87975007 1.7051154e-38
-0.2758739 0.15947847 0.88225007 1.6036645e-38
-0.2733739 0.15697847 0.87975007 1.7787292e-38
-0.2733739 0.15697847 0.88225007 1.760433e-38
-0.2733739 0.15947847 0.87975007 1.4746286e-38
-0.2733739 0.15947847 0.88225007 1.4746286e-38
-0.2708739 0.15447848 0.87725008 1.7692929e-38
-0.26837391 0.15197848 0.87475008 1.5855147e-38
-0.26837391 0.15197848 0.87725008 1.6864638e-38
-0.26837391 0.15447848 0.87725008 1.7231954e-38
-0.2708739 0.15197848 0.87975007 1.3643884e-38
-0.2708739 0.15197848 0.88225007 1.3458782e-38
-0.2708739 0.15447848 0.87975007 1.7509264e-38
-0.2708739 0.15447848 0.88225007 1.7692573e-38
-0.26837391 0.15447848 0.87975007 1.677421e-38
-0.2708739 0.15697847 0.87725008 1.7142607e-38
-0.2708739 0.15947847 0.87725008 1.3731015e-38
-0.26837391 0.15697847 0.87725008 1.732844e-38
-0.26837391 0.15947847 0.87725008 1.8525188e-38
-0.2708739 0.15697847 0.87975007 1.7142974e-38
-0.2708739 0.15697847 0.88225007 1.723375e-38
-0.2708739 0.15947847 0.87975007 1.3545565e-38
-0.2708739 0.15947847 0.88225007 1.8615604e-38
-0.26837391 0.15697847 0.87975007 1.7328087e-38
-0.26837391 0.15947847 0.87975007 1.8524489e-38
-0.26337391 0.14947848 0.87225008 2.0736458e-38
-0.26587391 0.14697848 0.87475008 2.027511e-38
-0.26587391 0.14947848 0.87475008 1.9167337e-38
-0.26587391 0.14947848 0.87725008 2.0919054e-38
-0.26337391 0.14947848 0.87475008 2.0737533e-38
-0.26337391 0.15197848 0.87225008 2.0736814e-38
-0.26587391 0.15197848 0.87475008 2.0919754e-38
-0.26587391 0.15197848 0.87725008 1.9352428e-38
-0.26587391 0.15447848 0.87475008 2.0920109e-38
-0.26587391 0.15447848 0.87725008 1.9076198e-38
-0.26337391 0.15197848 0.87475008 2.0920849e-38
-0.26337391 0.15197848 0.87725008 2.0921203e-38
-0.26337391 0.15447848 0.87475008 2.0921924e-38
-0.26337391 0.15447848 0.87725008 2.1014117e-38
-0.26587391 0.15697847 0.87725008 1.8524462e-38
-0.26337391 0.15697847 0.87725008 2.0274757e-38
-0.26587391 0.15697847 0.87975007 1.9999245e-38
-0.26087391 0.15197848 0.87475008 2.036875e-38
-0.2758739 0.14697848 0.88475007 1.9077951e-38
-0.2758739 0.14947848 0.88475007 2.1468988e-38
-0.2733739 0.14697848 0.88475007 2.0645277e-38
-0.2733739 0.14947848 0.88475007 2.1745215e-38
-0.2708739 0.14697848 0.88475007 2.046095e-38
-0.2758739 0.15197848 0.88475007 2.0921589e-38
-0.2758739 0.15947847 0.88475007 1.502109e-38
-0.2733739 0.15947847 0.88475007 1.3178958e-38
-0.2708739 0.16197848 0.88225007 1.8248209e-38
-0.2758739 0.16197848 0.88475007 1.3920083e-38
-0.2758739 0.16197848 0.88725007 1.3184325e-38
-0.2733739 0.16197848 0.88475007 1.2901234e-38
-0.2733739 0.16197848 0.88725007 1.3452964e-38
-0.2758739 0.16197848 0.88975006 1.1709198e-38
-0.2758739 0.16447848 0.88975006 1.4929556e-38
-0.2733739 0.16197848 0.88975006 1.2994138e-38
-0.2733739 0.16447848 0.88975006 1.6494017e-38
-0.2758739 0.16697848 0.88975006 1.5385845e-38
-0.2733739 0.16697848 0.88975006 1.7413057e-38
-0.2708739 0.16197848 0.88475007 1.8707746e-38
-0.2708739 0.16197848 0.88725007 1.843153e-38
-0.2708739 0.16197848 0.88975006 1.8617712e-38
-0.2708739 0.16447848 0.88975006 1.6862796e-38
-0.2758739 0.16447848 0.89475006 1.5201126e-38
-0.2733739 0.16447848 0.89475006 1.7045039e-38
-0.2758739 0.16697848 0.89475006 1.7504184e-38
-0.2758739 0.16697848 0.89725006 1.7043206e-38
-0.2758739 0.16947848 0.89475006 1.5205066e-38
-0.2733739 0.16697848 0.89475006 1.6951726e-38
-0.2733739 0.16947848 0.89475006 1.6310718e-38
-0.2733739 0.16947848 0.89725006 1.612738e-38
-0.2758739 0.16947848 0.89975005 1.538942e-38
-0.2758739 0.16947848 0.90225011 1.7043206e-38
-0.2733739 0.16947848 0.89975005 1.5943364e-38
-0.2733739 0.16947848 0.90225011 1.6957156e-38
-0.2708739 0.16697848 0.89475006 1.6957141e-38
-0.2708739 0.16947848 0.89475006 1.7232672e-38
-0.26837391 0.16947848 0.89475006 1.760181e-38
-0.2758739 0.17197847 0.88975006 1.8617756e-38
-0.2758739 0.17447847 0.88975006 1.7512133e-38
-0.2733739 0.17197847 0.88975006 1.7329907e-38
-0.2733739 0.17447847 0.88975006 1.7512854e-38
-0.2758739 0.17697847 0.88975006 1.7603977e-38
-0.2733739 0.17697847 0.88975006 1.7696526e-38
-0.2758739 0.17197847 0.89475006 1.7882008e-38
-0.2758739 0.17447847 0.89475006 1.7144437e-38
-0.2733739 0.17197847 0.89475006 1.7329907e-38
-0.2733739 0.17197847 0.89725006 1.6495105e-38
-0.2733739 0.17447847 0.89475006 1.7605049e-38
-0.2733739 0.17197847 0.89975005 1.723267e-38
-0.2708739 0.17197847 0.89475006 1.6865689e-38
-0.2708739 0.17197847 0.89725006 1.7233753e-38
-0.2708739 0.17447847 0.89475006 1.686604e-38
-0.26837391 0.17197847 0.89475006 1.7417784e-38
-0.26837391 0.17447847 0.89475006 1.6956087e-38
-0.2708739 0.17197847 0.89975005 1.7694005e-38
-0.35837391 0.18447848 0.8547501 9.4950611e-39
-0.36087391 0.18697847 0.85725009 1.2260198e-38
-0.36087391 0.18947847 0.85725009 1.3089962e-38
-0.35837391 0.18697847 0.8547501 1.0231897e-38
-0.35837391 0.18697847 0.85725009 1.0232974e-38
-0.35837391 0.18947847 0.85725009 1.0231526e-38
-0.36087391 0.18697847 0.85975009 1.0598888e-38
-0.36087391 0.18947847 0.85975009 1.06014e-38
-0.35837391 0.19197847 0.85725009 9.9549378e-39
-0.36087391 0.19197847 0.85975009 1.1427201e-38
-0.34837392 0.18197848 0.84225011 1.6398928e-38
-0.34587392 0.18197848 0.84225011 1.1334299e-38
-0.34337392 0.18197848 0.84225011 8.9375713e-39
-0.3408739 0.18197848 0.84225011 1.4104855e-38
-0.3383739 0.18197848 0.84225011 6.2786761e-39
-0.35337391 0.18197848 0.84475011 9.7687515e-39
-0.35337391 0.18197848 0.8472501 1.0229008e-38
-0.35587391 0.18197848 0.8497501 7.8345e-39
-0.35337391 0.18197848 0.8497501 1.1055188e-38
-0.35337391 0.18447848 0.8497501 1.2627204e-38
-0.35087392 0.18197848 0.84475011 1.3729943e-38
-0.35087392 0.18197848 0.8472501 1.2720103e-38
-0.35087392 0.18447848 0.8472501 1.3177842e-38
-0.34837392 0.18197848 0.84475011 1.9631167e-38
-0.34837392 0.18197848 0.8472501 2.0272233e-38
-0.34837392 0.18447848 0.8472501 1.3177842e-38
-0.35087392 0.18197848 0.8497501 1.6032666e-38
-0.35087392 0.18447848 0.8497501 1.2350977e-38
-0.34837392 0.18447848 0.8497501 1.1426497e-38
-0.35587391 0.18197848 0.8547501 8.112519e-39
-0.35587391 0.18447848 0.8547501 1.0137924e-38
-0.35337391 0.18197848 0.8547501 1.3086012e-38
-0.35337391 0.18447848 0.8547501 1.2535362e-38
-0.35587391 0.18697847 0.8547501 1.1799226e-38
-0.35587391 0.18947847 0.8547501 1.096945e-38
-0.35337391 0.18697847 0.8547501 1.1156024e-38
-0.35337391 0.18947847 0.8547501 1.2072936e-38
-0.35087392 0.18697847 0.8547501 8.5745467e-39
-0.35087392 0.18947847 0.8547501 1.096839e-38
-0.34837392 0.18697847 0.8547501 8.0213729e-39
-0.34837392 0.18947847 0.8547501 1.0876195e-38
-0.34837392 0.19447848 0.8497501 1.8525192e-38
-0.35587391 0.19197847 0.8547501 1.0966228e-38
-0.35337391 0.19197847 0.8547501 1.1703768e-38
-0.35087392 0.19197847 0.8547501 1.11528e-38
-0.34837392 0.19197847 0.8547501 8.9407929e-39
-0.34587392 0.18197848 0.84475011 1.0875847e-38
-0.34587392 0.18447848 0.8472501 1.0691099e-38
-0.34337392 0.18197848 0.84475011 1.5121535e-38
-0.34337392 0.18197848 0.8472501 1.34613e-38
-0.34337392 0.18447848 0.8472501 7.9299256e-39
-0.34587392 0.18447848 0.8497501 8.9393832e-39
-0.34337392 0.18447848 0.8497501 8.575295e-39
-0.34587392 0.18697847 0.8497501 8.7571555e-39
-0.34337392 0.18697847 0.8497501 9.4025249e-39
-0.3408739 0.18197848 0.84475011 1.3646045e-38
-0.3408739 0.18197848 0.8472501 9.2292838e-39
-0.3408739 0.18447848 0.8472501 9.2220657e-39
-0.3383739 0.18197848 0.84475011 6.6474586e-39
-0.3383739 0.18197848 0.8472501 6.6478062e-39
-0.3383739 0.18447848 0.8472501 9.6830425e-39
-0.3408739 0.18447848 0.8497501 1.1154207e-38
-0.3383739 0.18197848 0.8497501 8.1146546e-39
-0.3383739 0.18447848 0.8497501 1.0327708e-38
-0.3408739 0.18697847 0.8497501 1.096839e-38
-0.3383739 0.18697847 0.8497501 1.1246756e-38
-0.34587392 0.18697847 0.8547501 1.0140443e-38
-0.34587392 0.18947847 0.8547501 9.8627674e-39
-0.34337392 0.18697847 0.8547501 8.3869339e-39
-0.34337392 0.18947847 0.8547501 8.6645787e-39
-0.3383739 0.18447848 0.8547501 1.0601068e-38
-0.3408739 0.18697847 0.8547501 9.4946631e-39
-0.3408739 0.18947847 0.8547501 1.1424695e-38
-0.3383739 0.18697847 0.8547501 1.0599984e-38
-0.3383739 0.18947847 0.8547501 1.5291874e-38
-0.3383739 0.18947847 0.85725009 1.5851167e-38
-0.34587392 0.19197847 0.8497501 1.6591619e-38
-0.34587392 0.19447848 0.8497501 1.6776368e-38
-0.34337392 0.19197847 0.8497501 1.6959677e-38
-0.34337392 0.19447848 0.8497501 1.6499421e-38
-0.3408739 0.19197847 0.8497501 1.6773862e-38
-0.3408739 0.19447848 0.8497501 1.6313955e-38
-0.3383739 0.19197847 0.8497501 1.6589453e-38
-0.3383739 0.19447848 0.8497501 1.6222109e-38
-0.34587392 0.19197847 0.8547501 1.4470748e-38
-0.34337392 0.19197847 0.8547501 1.7049708e-38
-0.3408739 0.19197847 0.8547501 1.6499423e-38
-0.3383739 0.19197847 0.8547501 1.686856e-38
-0.3358739 0.18197848 0.84475011 7.7444329e-39
-0.3358739 0.18197848 0.8472501 8.1132154e-39
-0.3358739 0.18197848 0.8497501 7.9299256e-39
-0.3358739 0.18447848 0.8497501 1.0783662e-38
-0.3333739 0.18197848 0.8497501 1.0048245e-38
-0.33087391 0.18197848 0.8497501 1.0602125e-38
-0.3358739 0.18447848 0.8547501 9.9546113e-39
-0.3333739 0.18197848 0.8547501 1.0232995e-38
-0.3333739 0.18447848 0.8547501 9.9549378e-39
-0.3333739 0.18197848 0.85975009 1.06025e-38
-0.3333739 0.18447848 0.85975009 1.179706e-38
-0.3333739 0.18447848 0.86225009 1.1244973e-38
-0.3358739 0.18697847 0.8547501 9.0348004e-39
-0.3358739 0.18697847 0.85725009 1.032408e-38
-0.3358739 0.18947847 0.8547501 1.7141903e-38
-0.3358739 0.18947847 0.85725009 1.6776661e-38
-0.3333739 0.18697847 0.8547501 1.0230825e-38
-0.3333739 0.18697847 0.85725009 1.1888555e-38
-0.3333739 0.18947847 0.8547501 1.7049708e-38
-0.3333739 0.18947847 0.85725009 1.6406153e-38
-0.3358739 0.18697847 0.85975009 9.7727242e-39
-0.3358739 0.18947847 0.86225009 1.6497645e-38
-0.3333739 0.18697847 0.85975009 1.170416e-38
-0.3333739 0.18697847 0.86225009 1.234953e-38
-0.3333739 0.18947847 0.85975009 1.6406153e-38
-0.3333739 0.18947847 0.86225009 1.6221058e-38
-0.33087391 0.18197848 0.8547501 1.0694696e-38
-0.33087391 0.18197848 0.85725009 1.0786163e-38
-0.33087391 0.18447848 0.8547501 1.1889255e-38
-0.33087391 0.18447848 0.85725009 1.1060957e-38
-0.32837391 0.18197848 0.8547501 9.0333963e-39
-0.32837391 0.18197848 0.85725009 9.679116e-39
-0.32837391 0.18447848 0.8547501 1.170669e-38
-0.33087391 0.18197848 0.85975009 1.2166949e-38
-0.33087391 0.18197848 0.86225009 9.5865701e-39
-0.33087391 0.18447848 0.86225009 1.1060604e-38
-0.32837391 0.18197848 0.85975009 9.6798349e-39
-0.32837391 0.18197848 0.86225009 1.1427567e-38
-0.33087391 0.18697847 0.85725009 1.1522974e-38
-0.33087391 0.18947847 0.85725009 1.8896864e-38
-0.33087391 0.18697847 0.86225009 1.4557559e-38
-0.33087391 0.18947847 0.85975009 1.7418132e-38
-0.33087391 0.18947847 0.86225009 1.7695799e-38
-0.32837391 0.18697847 0.86225009 1.7052579e-38
-0.32837391 0.18947847 0.85975009 1.7327739e-38
-0.32837391 0.18947847 0.86225009 1.6683099e-38
-0.3358739 0.19197847 0.8547501 1.7235191e-38
-0.3333739 0.19197847 0.8547501 1.6958605e-38
-0.3333739 0.19197847 0.85725009 1.6682017e-38
-0.3333739 0.19197847 0.85975009 1.6958961e-38
-0.33087391 0.19197847 0.85725009 1.6774212e-38
-0.33087391 0.19197847 0.85975009 1.6868207e-38
-0.32837391 0.19197847 0.85975009 1.6406869e-38
-0.32587391 0.18697847 0.86225009 1.6497995e-38
-0.32587391 0.18947847 0.86225009 1.677421e-38
-0.32337391 0.18697847 0.86225009 1.6958974e-38
-0.32337391 0.18947847 0.86225009 1.7051157e-38
-0.32087392 0.18947847 0.86225009 1.6683093e-38
-0.31837392 0.18947847 0.86225009 1.6500504e-38
-0.32587391 0.19197847 0.85975009 1.6499423e-38
-0.33087391 0.18447848 0.86475009 9.9542582e-39
-0.33087391 0.18447848 0.86725008 9.4936261e-39
-0.32837391 0.18197848 0.86475009 1.1704512e-38
-0.32837391 0.18197848 0.86725008 1.1522989e-38
-0.32837391 0.18447848 0.86475009 7.8373194e-39
-0.32837391 0.18447848 0.86725008 1.0416992e-38
-0.32837391 0.18447848 0.86975008 1.2997764e-38
-0.33087391 0.18697847 0.86475009 1.3824663e-38
-0.33087391 0.18697847 0.86725008 9.0340605e-39
-0.33087391 0.18947847 0.86475009 1.6769894e-38
-0.32837391 0.18697847 0.86475009 1.6962474e-38
-0.32837391 0.18697847 0.86725008 9.404285e-39
-0.32837391 0.18947847 0.86475009 1.7051507e-38
-0.32587391 0.18197848 0.86475009 1.1155305e-38
-0.32587391 0.18197848 0.86725008 1.1246402e-38
-0.32587391 0.18447848 0.86475009 1.2902702e-38
-0.32587391 0.18447848 0.86725008 1.1707731e-38
-0.32337391 0.18197848 0.86475009 1.0601068e-38
-0.32337391 0.18197848 0.86725008 1.0417037e-38
-0.32337391 0.18447848 0.86475009 1.5018184e-38
-0.32337391 0.18447848 0.86725008 1.3732114e-38
-0.32587391 0.18447848 0.86975008 1.0601421e-38
-0.32587391 0.18447848 0.87225008 1.1062404e-38
-0.32337391 0.18197848 0.86975008 9.953884e-39
-0.32337391 0.18447848 0.86975008 1.7329476e-38
-0.32587391 0.18697847 0.86475009 1.6313607e-38
-0.32587391 0.18947847 0.86475009 1.7234835e-38
-0.32337391 0.18697847 0.86475009 1.7510333e-38
-0.32337391 0.18697847 0.86725008 1.7784053e-38
-0.32337391 0.18947847 0.86475009 1.7327386e-38
-0.32337391 0.18697847 0.86975008 1.8065658e-38
-0.32087392 0.18197848 0.86475009 1.014009e-38
-0.32087392 0.18197848 0.86725008 9.6772985e-39
-0.31837392 0.18447848 0.86725008 1.9079107e-38
-0.32087392 0.18197848 0.86975008 9.5851029e-39
-0.32087392 0.18447848 0.86975008 1.7882648e-38
-0.31837392 0.18197848 0.86975008 1.3642378e-38
-0.31837392 0.18447848 0.86975008 1.695968e-38
-0.32087392 0.18697847 0.86475009 1.9354245e-38
-0.32087392 0.18697847 0.86725008 1.7421734e-38
-0.32087392 0.18947847 0.86475009 1.6867131e-38
-0.31837392 0.18697847 0.86475009 1.6958958e-38
-0.31837392 0.18697847 0.86725008 1.6960403e-38
-0.31837392 0.18947847 0.86475009 1.65909e-38
-0.32087392 0.18697847 0.86975008 1.7604681e-38
-0.31837392 0.18697847 0.86975008 1.7327383e-38
-0.31587392 0.18947847 0.86225009 1.7051157e-38
-0.31587392 0.18197848 0.86725008 1.5115372e-38
-0.31587392 0.18447848 0.86725008 1.8710323e-38
-0.31337392 0.18197848 0.86725008 1.7787626e-38
