# .PCD v0.7 - Point Cloud Data file format
VERSION 0.7
FIELDS x y z rgb
SIZE 4 4 4 4
TYPE F F F F
COUNT 1 1 1 1
WIDTH 1011
HEIGHT 1
VIEWPOINT 0 0 0 1 0 0 0
POINTS 1011
DATA ascii
-0.31981948 0.09861578 1.0002501 1.8150257e-38
-0.31981948 0.10111578 0.9977501 1.5294706e-38
-0.31981948 0.10111578 1.0002501 1.5481247e-38
-0.31731948 0.09861578 0.9977501 1.8152813e-38
-0.31731948 0.09861578 1.0002501 1.7694727e-38
-0.31731948 0.10111578 0.9977501 1.7045724e-38
-0.31731948 0.10361578 0.99275011 9.6751335e-39
-0.31731948 0.10611578 0.99275011 9.5883287e-39
-0.31981948 0.10361578 0.9977501 1.0409847e-38
-0.31981948 0.10361578 1.0002501 1.2622504e-38
-0.31981948 0.10611578 0.9977501 9.7695124e-39
-0.31981948 0.10611578 1.0002501 9.4025249e-39
-0.31731948 0.10361578 0.9977501 1.2620314e-38
-0.31731948 0.10611578 0.9977501 1.0777143e-38
-0.31731948 0.10611578 1.0002501 1.0870059e-38
-0.31481948 0.09861578 0.99275011 1.769543e-38
-0.31481948 0.09861578 0.99525011 1.8060617e-38
-0.31481948 0.10111578 0.99275011 1.5754964e-38
-0.31481948 0.10111578 0.99525011 1.787404e-38
-0.31231949 0.09861578 0.99275011 1.7051522e-38
-0.31231949 0.09861578 0.99525011 1.6866408e-38
-0.31231949 0.10111578 0.99275011 1.769363e-38
-0.31231949 0.10111578 0.99525011 1.7694371e-38
-0.31481948 0.09861578 0.9977501 1.6958605e-38
-0.31481948 0.10111578 0.9977501 1.8521578e-38
-0.31481948 0.10361578 0.99275011 1.2806128e-38
-0.31481948 0.10361578 0.99525011 1.5110319e-38
-0.31481948 0.10611578 0.99275011 1.1055214e-38
-0.31231949 0.10361578 0.99275011 1.6771651e-38
-0.31231949 0.10611578 0.99275011 1.5940076e-38
-0.30981949 0.096115775 0.98775011 1.65909e-38
-0.30731949 0.096115775 0.98775011 1.723267e-38
-0.30481949 0.096115775 0.98775011 1.6863889e-38
-0.30981949 0.093615778 0.99275011 1.5207966e-38
-0.30981949 0.093615778 0.99525011 1.7505985e-38
-0.30981949 0.096115775 0.99275011 1.7049357e-38
-0.30981949 0.096115775 0.99525011 1.6676231e-38
-0.30731949 0.096115775 0.99525011 1.6679496e-38
-0.30981949 0.093615778 0.9977501 1.7599614e-38
-0.30981949 0.096115775 0.9977501 1.6125934e-38
-0.30731949 0.10111578 0.98275012 1.6958958e-38
-0.30981949 0.09861578 0.98775011 1.7233397e-38
-0.30981949 0.10111578 0.98775011 1.7507443e-38
-0.30731949 0.09861578 0.98775011 1.7050453e-38
-0.30731949 0.10111578 0.98775011 1.7509629e-38
-0.30731949 0.10361578 0.98275012 1.7969866e-38
-0.30731949 0.10611578 0.98275012 1.7138641e-38
-0.30981949 0.10361578 0.98775011 1.7783269e-38
-0.30981949 0.10611578 0.98775011 1.3175244e-38
-0.30731949 0.10361578 0.98775011 1.7877689e-38
-0.30731949 0.10611578 0.98775011 1.7049317e-38
-0.30481949 0.09861578 0.98275012 1.7417781e-38
-0.30481949 0.10111578 0.98275012 1.7234106e-38
-0.3023195 0.09861578 0.98275012 1.7049001e-38
-0.3023195 0.10111578 0.98275012 1.6958608e-38
-0.30481949 0.09861578 0.98775011 1.7049001e-38
-0.30481949 0.10111578 0.98775011 1.7417434e-38
-0.3023195 0.09861578 0.98775011 1.686461e-38
-0.3023195 0.10111578 0.98775011 1.6037729e-38
-0.30481949 0.10361578 0.98275012 1.7416692e-38
-0.30481949 0.10611578 0.98275012 1.842938e-38
-0.3023195 0.10361578 0.98275012 1.6866411e-38
-0.30481949 0.10361578 0.98775011 1.6867128e-38
-0.30981949 0.09861578 0.99275011 1.704972e-38
-0.30981949 0.10111578 0.99275011 1.7601434e-38
-0.30731949 0.09861578 0.99275011 1.6589102e-38
-0.30731949 0.10111578 0.99275011 1.6958608e-38
-0.30981949 0.10361578 0.99275011 1.806239e-38
-0.31981948 0.088615775 1.0027502 1.7506364e-38
-0.31981948 0.09111578 1.0027502 1.7231598e-38
-0.31731948 0.088615775 1.0027502 1.8798901e-38
-0.31731948 0.09111578 1.0027502 1.7048285e-38
-0.31981948 0.088615775 1.0077502 1.9351356e-38
-0.31981948 0.088615775 1.0102501 1.8889299e-38
-0.31981948 0.09111578 1.0077502 1.6955011e-38
-0.31981948 0.09111578 1.0102501 1.6771699e-38
-0.31731948 0.09111578 1.0077502 1.8521222e-38
-0.31981948 0.093615778 1.0027502 1.7141556e-38
-0.31981948 0.096115775 1.0027502 1.7417784e-38
-0.31731948 0.093615778 1.0027502 1.6772415e-38
-0.31731948 0.096115775 1.0027502 1.6866408e-38
-0.31981948 0.093615778 1.0077502 1.6956806e-38
-0.31981948 0.093615778 1.0102501 1.6127418e-38
-0.31731948 0.093615778 1.0077502 1.7137938e-38
-0.31481948 0.09111578 1.0027502 1.8704888e-38
-0.31481948 0.09111578 1.0077502 1.9997412e-38
-0.31481948 0.093615778 1.0027502 1.8336125e-38
-0.31481948 0.096115775 1.0027502 1.6406506e-38
-0.31481948 0.093615778 1.0077502 1.8889655e-38
-0.31981948 0.10611578 1.0027502 9.9498847e-39
-0.31981948 0.10611578 1.0077502 1.0961884e-38
-0.2998195 0.09861578 0.98275012 1.6772415e-38
-0.2998195 0.10111578 0.98275012 1.6405434e-38
-0.2998195 0.10361578 0.98275012 1.6958608e-38
-0.34231949 0.10861578 0.97775012 1.2989485e-38
-0.34231949 0.10861578 0.98025012 1.58479e-38
-0.34231949 0.11111578 0.98025012 1.3173157e-38
-0.34231949 0.11361578 0.98025012 1.0131455e-38
-0.32231948 0.11111578 0.95775014 1.6494721e-38
-0.32481951 0.11611578 0.95275009 1.0502724e-38
-0.32231948 0.11611578 0.95275009 1.4466034e-38
-0.32231948 0.11611578 0.95525008 1.4649712e-38
-0.32481951 0.11611578 0.95775014 1.5936132e-38
-0.32231948 0.11611578 0.95775014 1.4835192e-38
-0.32231948 0.11861578 0.95275009 1.1977132e-38
-0.32231948 0.11861578 0.95525008 1.2253715e-38
-0.32481951 0.11861578 0.95775014 1.2713231e-38
-0.32231948 0.11861578 0.95775014 1.4924857e-38
-0.32231948 0.12111578 0.95775014 9.3034321e-39
-0.33981949 0.10861578 0.97775012 1.5848663e-38
-0.33981949 0.10861578 0.98025012 1.5666067e-38
-0.33981949 0.11111578 0.98025012 1.5017786e-38
-0.33731949 0.10861578 0.97775012 1.4467524e-38
-0.33731949 0.10861578 0.98025012 1.4098371e-38
-0.33731949 0.11111578 0.97775012 1.4378184e-38
-0.33731949 0.11111578 0.98025012 1.4561132e-38
-0.33981949 0.11361578 0.98025012 1.040838e-38
-0.33731949 0.11361578 0.97775012 1.206644e-38
-0.33731949 0.11361578 0.98025012 1.3819233e-38
-0.3348195 0.10861578 0.97525012 1.4191628e-38
-0.3348195 0.11111578 0.97525012 1.2901295e-38
-0.3323195 0.10861578 0.97275013 1.5942269e-38
-0.3323195 0.10861578 0.97525012 1.5942985e-38
-0.3323195 0.11111578 0.97275013 1.3361915e-38
-0.3323195 0.11111578 0.97525012 1.4189865e-38
-0.3348195 0.10861578 0.97775012 1.4284539e-38
-0.3348195 0.11111578 0.97775012 1.3544496e-38
-0.3348195 0.11361578 0.97525012 1.390963e-38
-0.3323195 0.11361578 0.97275013 1.4830864e-38
-0.3323195 0.11361578 0.97525012 1.4464602e-38
-0.3323195 0.11611578 0.97275013 1.3637748e-38
-0.3323195 0.11611578 0.97525012 1.4004713e-38
-0.3348195 0.11361578 0.97775012 1.381923e-38
-0.3348195 0.11361578 0.98025012 1.4097595e-38
-0.3273195 0.11111578 0.96275014 1.4743725e-38
-0.3298195 0.10861578 0.97025013 1.5851515e-38
-0.3298195 0.11111578 0.97025013 1.502064e-38
-0.3273195 0.10861578 0.97025013 1.7418841e-38
-0.3273195 0.11111578 0.96775013 1.6589055e-38
-0.3273195 0.11111578 0.97025013 1.649649e-38
-0.3273195 0.11361578 0.96275014 1.5019606e-38
-0.3273195 0.11611578 0.96275014 1.4830138e-38
-0.3298195 0.11361578 0.96775013 1.4464599e-38
-0.3298195 0.11361578 0.97025013 1.4651542e-38
-0.3298195 0.11611578 0.97025013 1.4647193e-38
-0.3273195 0.11361578 0.96775013 1.557276e-38
-0.3273195 0.11361578 0.97025013 1.4651542e-38
-0.3273195 0.11611578 0.96775013 1.4830864e-38
-0.3273195 0.11611578 0.97025013 1.5383314e-38
-0.32481951 0.11111578 0.96275014 1.5205051e-38
-0.32231948 0.11111578 0.96275014 1.7969847e-38
-0.32481951 0.10861578 0.97025013 1.7234106e-38
-0.32481951 0.11111578 0.96775013 1.7602163e-38
-0.32481951 0.11111578 0.97025013 1.7969869e-38
-0.32231948 0.10861578 0.96775013 1.6866411e-38
-0.32231948 0.10861578 0.97025013 1.7049723e-38
-0.32231948 0.11111578 0.96775013 1.7602528e-38
-0.32481951 0.11361578 0.96275014 1.4744426e-38
-0.32481951 0.11611578 0.96275014 1.5291116e-38
-0.32231948 0.11361578 0.96275014 1.511069e-38
-0.32231948 0.11611578 0.96275014 1.4831602e-38
-0.32481951 0.11361578 0.96775013 1.6311048e-38
-0.32481951 0.11361578 0.97025013 1.6402522e-38
-0.32481951 0.11611578 0.96775013 1.5292578e-38
-0.32481951 0.11611578 0.97025013 1.428347e-38
-0.32231948 0.11361578 0.96775013 1.778331e-38
-0.3298195 0.10861578 0.97275013 1.7600731e-38
-0.3298195 0.10861578 0.97525012 1.7417415e-38
-0.3298195 0.11111578 0.97275013 1.5020293e-38
-0.3298195 0.11111578 0.97525012 1.49306e-38
-0.3273195 0.10861578 0.97275013 1.72341e-38
-0.3273195 0.11111578 0.97275013 1.7232304e-38
-0.3298195 0.11361578 0.97275013 1.4559334e-38
-0.3298195 0.11361578 0.97525012 1.4376735e-38
-0.3298195 0.11611578 0.97275013 1.4834136e-38
-0.3298195 0.11611578 0.97525012 1.5014902e-38
-0.3273195 0.11361578 0.97275013 1.5112149e-38
-0.3273195 0.11611578 0.97275013 1.4465713e-38
-0.32481951 0.10861578 0.97275013 1.7141903e-38
-0.32481951 0.11111578 0.97275013 1.7418132e-38
-0.32231948 0.10861578 0.97275013 1.6497995e-38
-0.32481951 0.11611578 0.97275013 1.5940465e-38
-0.3298195 0.11861578 0.97025013 1.105267e-38
-0.3273195 0.11861578 0.97025013 1.4648658e-38
-0.32231948 0.11861578 0.96275014 1.5477678e-38
-0.32231948 0.12111578 0.96275014 8.9343035e-39
-0.32481951 0.11861578 0.97025013 1.4834136e-38
-0.3298195 0.11861578 0.97275013 1.105373e-38
-0.3273195 0.11861578 0.97275013 1.4742672e-38
-0.32481951 0.11861578 0.97275013 1.455828e-38
-0.34981948 0.10861578 0.98775011 1.5023922e-38
-0.34731948 0.10861578 0.98775011 1.4837383e-38
-0.34481949 0.10861578 0.98275012 1.6033723e-38
-0.34481949 0.11111578 0.98275012 1.1333185e-38
-0.34231949 0.10861578 0.98275012 1.5757855e-38
-0.34231949 0.11111578 0.98275012 1.3638074e-38
-0.34481949 0.10861578 0.98775011 1.5664956e-38
-0.34481949 0.11111578 0.98775011 1.2067901e-38
-0.34231949 0.11111578 0.98775011 1.3543031e-38
-0.34231949 0.11361578 0.98275012 9.6740573e-39
-0.34481949 0.11361578 0.98775011 1.2439573e-38
-0.34231949 0.11361578 0.98775011 9.8580955e-39
-0.34231949 0.11611578 0.98775011 9.3960411e-39
-0.34731948 0.11611578 0.99525011 9.6758552e-39
-0.34731948 0.11611578 0.9977501 8.8475533e-39
-0.34731948 0.11861578 0.99525011 1.1797072e-38
-0.34731948 0.11861578 0.9977501 1.2903421e-38
-0.34731948 0.11861578 1.0002501 1.1240343e-38
-0.34731948 0.12111578 0.9977501 1.4283488e-38
-0.34731948 0.12111578 1.0002501 1.2812316e-38
-0.34731948 0.12361578 1.0002501 1.3732464e-38
-0.34731948 0.12611578 1.0002501 1.3179646e-38
-0.34481949 0.11861578 0.99275011 1.1703805e-38
-0.34481949 0.11861578 0.99525011 1.0597844e-38
-0.34481949 0.12111578 0.99525011 1.3179309e-38
-0.34231949 0.11861578 0.99275011 8.3887303e-39
-0.34231949 0.11861578 0.99525011 7.9241705e-39
-0.34231949 0.12111578 0.99525011 1.1704179e-38
-0.34481949 0.11861578 0.9977501 1.143011e-38
-0.34481949 0.11861578 1.0002501 7.3727595e-39
-0.34481949 0.12111578 0.9977501 1.1060604e-38
-0.34481949 0.12111578 1.0002501 1.1798522e-38
-0.34231949 0.11861578 0.9977501 9.9488492e-39
-0.34231949 0.11861578 1.0002501 9.9495624e-39
-0.34231949 0.12111578 0.9977501 9.5847526e-39
-0.34231949 0.12111578 1.0002501 1.032015e-38
-0.34481949 0.12361578 0.9977501 1.3455167e-38
-0.34481949 0.12361578 1.0002501 1.3640267e-38
-0.34481949 0.12611578 0.9977501 1.318036e-38
-0.34481949 0.12611578 1.0002501 1.4009041e-38
-0.34231949 0.12361578 0.9977501 1.0970205e-38
-0.34231949 0.12361578 1.0002501 1.1338986e-38
-0.34231949 0.12611578 0.9977501 1.3640632e-38
-0.34231949 0.12611578 1.0002501 1.3089264e-38
-0.35481951 0.11611578 1.0102501 1.2624319e-38
-0.35231948 0.11611578 1.0102501 1.2438519e-38
-0.3573195 0.11611578 1.0127501 1.2900195e-38
-0.3573195 0.11611578 1.0152501 1.2256999e-38
-0.35481951 0.11611578 1.0127501 1.2344873e-38
-0.35481951 0.11611578 1.0152501 9.6744497e-39
-0.35231948 0.11611578 1.0152501 1.022471e-38
-0.35481951 0.11611578 1.0177501 9.0283572e-39
-0.35481951 0.11861578 1.0102501 1.4007253e-38
-0.35231948 0.11861578 1.0077502 1.3822858e-38
-0.35231948 0.11861578 1.0102501 1.3730315e-38
-0.35231948 0.12111578 1.0102501 1.3639911e-38
-0.3573195 0.11861578 1.0127501 1.336224e-38
-0.3573195 0.11861578 1.0152501 1.2994912e-38
-0.3573195 0.12111578 1.0127501 1.3824663e-38
-0.35481951 0.11861578 1.0127501 1.299275e-38
-0.35481951 0.11861578 1.0152501 1.0135774e-38
-0.35481951 0.12111578 1.0127501 1.3640267e-38
-0.35231948 0.11861578 1.0152501 9.670072e-39
-0.35231948 0.12111578 1.0127501 1.1980763e-38
-0.34981948 0.11611578 1.0102501 1.0408046e-38
-0.34981948 0.12111578 1.0027502 1.4471452e-38
-0.34731948 0.12111578 1.0027502 1.2628653e-38
-0.34981948 0.11861578 1.0077502 1.0687486e-38
-0.34981948 0.11861578 1.0102501 1.105627e-38
-0.34981948 0.12111578 1.0077502 1.1523378e-38
-0.34981948 0.12111578 1.0102501 1.1338267e-38
-0.34731948 0.11861578 1.0077502 8.6588236e-39
-0.34731948 0.11861578 1.0102501 9.4892905e-39
-0.34731948 0.12111578 1.0077502 8.2043349e-39
-0.34731948 0.12111578 1.0102501 8.3822045e-39
-0.34981948 0.12361578 1.0027502 1.3546271e-38
-0.34731948 0.12361578 1.0027502 1.318181e-38
-0.34981948 0.12361578 1.0077502 1.2813025e-38
-0.34731948 0.12361578 1.0077502 1.1153859e-38
-0.34481949 0.11861578 1.0027502 1.0042817e-38
-0.34481949 0.12111578 1.0027502 1.1153523e-38
-0.34481949 0.11861578 1.0077502 9.5829351e-39
-0.34481949 0.11861578 1.0102501 1.372922e-38
-0.34481949 0.12111578 1.0077502 8.842091e-39
-0.34231949 0.11861578 1.0077502 1.3452633e-38
-0.34481949 0.12361578 1.0027502 1.2444245e-38
-0.34231949 0.12361578 1.0027502 8.4812819e-39
-0.34481949 0.12361578 1.0077502 9.6772985e-39
-0.34981948 0.12111578 1.0127501 1.0875842e-38
-0.34731948 0.11861578 1.0152501 1.4740826e-38
-0.34731948 0.12111578 1.0127501 9.7669382e-39
-0.33981949 0.10861578 0.98275012 1.566607e-38
-0.33981949 0.11111578 0.98275012 1.4746965e-38
-0.33981949 0.11361578 0.98275012 9.3074552e-39
-0.33731949 0.11361578 0.98275012 1.4370955e-38
-0.33981949 0.11611578 0.98775011 8.3869128e-39
-0.33731949 0.11611578 0.98775011 1.3915031e-38
-0.3348195 0.11361578 0.98275012 1.4464602e-38
-0.33981949 0.11861578 0.99275011 8.198902e-39
-0.33981949 0.11861578 0.99525011 9.9498847e-39
-0.33981949 0.12111578 0.99525011 1.0688187e-38
-0.33731949 0.11861578 0.99275011 1.4921254e-38
-0.33981949 0.12111578 0.9977501 1.0962607e-38
-0.33981949 0.12361578 0.99525011 1.1058804e-38
-0.33981949 0.12611578 0.99525011 1.2902346e-38
-0.33731949 0.12611578 0.99275011 1.11528e-38
-0.33731949 0.12611578 0.99525011 1.1244997e-38
-0.33981949 0.12361578 0.9977501 8.2925242e-39
-0.33981949 0.12611578 0.9977501 1.04174e-38
-0.33981949 0.12611578 1.0002501 9.217398e-39
-0.33731949 0.12361578 0.9977501 1.1701616e-38
-0.33731949 0.12611578 0.9977501 7.7440826e-39
-0.3348195 0.12361578 0.99525011 7.9255746e-39
-0.3348195 0.12611578 0.99275011 8.2025398e-39
-0.3348195 0.12611578 0.99525011 7.7437267e-39
-0.3273195 0.10861578 1.0002501 1.6130661e-38
-0.32481951 0.10861578 1.0002501 1.3734294e-38
-0.32481951 0.11111578 0.9977501 1.6957902e-38
-0.32481951 0.11111578 1.0002501 1.576114e-38
-0.32231948 0.10861578 0.9977501 1.1892886e-38
-0.32231948 0.10861578 1.0002501 1.1984728e-38
-0.32231948 0.11111578 0.9977501 1.3551335e-38
-0.32231948 0.11111578 1.0002501 1.3459138e-38
-0.32231948 0.11361578 0.99525011 1.6867128e-38
-0.32481951 0.11361578 0.9977501 1.7143368e-38
-0.32481951 0.11361578 1.0002501 1.6313241e-38
-0.32231948 0.11361578 0.9977501 1.5116513e-38
-0.32231948 0.11361578 1.0002501 1.4658406e-38
-0.32231948 0.11611578 1.0002501 1.6590211e-38
-0.3348195 0.10861578 1.0102501 1.677638e-38
-0.3323195 0.10861578 1.0077502 1.6959324e-38
-0.3323195 0.10861578 1.0102501 1.613031e-38
-0.33731949 0.10861578 1.0127501 1.7050453e-38
-0.33731949 0.10861578 1.0152501 1.6958974e-38
-0.33731949 0.10861578 1.0177501 1.6866425e-38
-0.3348195 0.10861578 1.0127501 1.6223209e-38
-0.3348195 0.10861578 1.0152501 1.6221784e-38
-0.3323195 0.10861578 1.0127501 1.5392023e-38
-0.3323195 0.10861578 1.0152501 1.4931401e-38
-0.3323195 0.11111578 1.0127501 1.6498717e-38
-0.3348195 0.11111578 1.0177501 1.6406171e-38
-0.3323195 0.11111578 1.0177501 1.6771708e-38
-0.3273195 0.10861578 1.0027502 1.3826843e-38
-0.3273195 0.11111578 1.0027502 1.6959324e-38
-0.3298195 0.10861578 1.0077502 1.5392021e-38
-0.3298195 0.10861578 1.0102501 1.5667534e-38
-0.3298195 0.11111578 1.0077502 1.6221409e-38
-0.3298195 0.11111578 1.0102501 1.6956458e-38
-0.3273195 0.10861578 1.0077502 1.3642095e-38
-0.3273195 0.10861578 1.0102501 1.2351356e-38
-0.3273195 0.11111578 1.0077502 1.5025036e-38
-0.3273195 0.11111578 1.0102501 1.4286029e-38
-0.3273195 0.11361578 1.0027502 1.6775664e-38
-0.3273195 0.11611578 1.0027502 1.6866408e-38
-0.3298195 0.11361578 1.0102501 1.7327036e-38
-0.3273195 0.11361578 1.0077502 1.7325961e-38
-0.3273195 0.11361578 1.0102501 1.5576771e-38
-0.3273195 0.11611578 1.0102501 1.7327737e-38
-0.32481951 0.10861578 1.0027502 1.2443912e-38
-0.32481951 0.11111578 1.0027502 1.4194187e-38
-0.32231948 0.10861578 1.0027502 1.0138976e-38
-0.32231948 0.11111578 1.0027502 1.1890738e-38
-0.32481951 0.10861578 1.0077502 1.1337519e-38
-0.32481951 0.10861578 1.0102501 1.1431883e-38
-0.32481951 0.11111578 1.0077502 1.1799971e-38
-0.32231948 0.10861578 1.0077502 9.9546141e-39
-0.32231948 0.11111578 1.0077502 1.0417037e-38
-0.32481951 0.11361578 1.0027502 1.5945545e-38
-0.32481951 0.11611578 1.0027502 1.7419582e-38
-0.32231948 0.11361578 1.0027502 1.3458785e-38
-0.32481951 0.11361578 1.0077502 1.4383261e-38
-0.32481951 0.11361578 1.0102501 1.3090726e-38
-0.32481951 0.11611578 1.0102501 1.6498367e-38
-0.32231948 0.11361578 1.0077502 1.2908129e-38
-0.32231948 0.11361578 1.0102501 1.1707791e-38
-0.32231948 0.11611578 1.0102501 1.3458782e-38
-0.3298195 0.10861578 1.0127501 1.161558e-38
-0.3298195 0.11111578 1.0127501 1.5210872e-38
-0.3273195 0.10861578 1.0127501 1.0877661e-38
-0.33981949 0.12861578 0.99525011 1.3641338e-38
-0.33731949 0.12861578 0.99275011 1.2996713e-38
-0.33731949 0.12861578 0.99525011 1.2904167e-38
-0.3348195 0.12861578 0.99525011 9.3088677e-39
-0.31981948 0.11611578 0.95025009 1.5019603e-38
-0.31981948 0.11111578 0.95775014 1.7785478e-38
-0.31731948 0.11111578 0.95775014 1.7417418e-38
-0.31981948 0.11361578 0.95275009 1.5757872e-38
-0.31981948 0.11361578 0.95525008 1.6583319e-38
-0.31981948 0.11611578 0.95275009 1.4465363e-38
-0.31981948 0.11611578 0.95525008 1.5019603e-38
-0.31731948 0.11361578 0.95275009 1.7049695e-38
-0.31731948 0.11361578 0.95525008 1.741632e-38
-0.31731948 0.11611578 0.95275009 1.5204682e-38
-0.31731948 0.11611578 0.95525008 1.5849675e-38
-0.31981948 0.11361578 0.95775014 1.7969866e-38
-0.31981948 0.11611578 0.95775014 1.5481615e-38
-0.31731948 0.11361578 0.95775014 1.7877671e-38
-0.31731948 0.11611578 0.95775014 1.7325528e-38
-0.31481948 0.11111578 0.95525008 1.6867128e-38
-0.31231949 0.11111578 0.95275009 1.7049001e-38
-0.31231949 0.11111578 0.95525008 1.6958605e-38
-0.31481948 0.11111578 0.95775014 1.6866758e-38
-0.31231949 0.10861578 0.95775014 1.7051169e-38
-0.31231949 0.11111578 0.95775014 1.6958605e-38
-0.31481948 0.11361578 0.95525008 1.751033e-38
-0.31481948 0.11611578 0.95275009 1.7694008e-38
-0.31481948 0.11611578 0.95525008 1.7878024e-38
-0.31231949 0.11361578 0.95275009 1.7234103e-38
-0.31231949 0.11361578 0.95525008 1.7049708e-38
-0.31231949 0.11611578 0.95275009 1.7878024e-38
-0.31231949 0.11611578 0.95525008 1.7602531e-38
-0.31481948 0.11361578 0.95775014 1.7234103e-38
-0.31481948 0.11611578 0.95775014 1.732702e-38
-0.31231949 0.11361578 0.95775014 1.6774212e-38
-0.31981948 0.11861578 0.95025009 1.4650079e-38
-0.31731948 0.11861578 0.95025009 1.4743347e-38
-0.31731948 0.12611578 0.95025009 1.0139742e-38
-0.31481948 0.11861578 0.95025009 1.5111448e-38
-0.31231949 0.11861578 0.95025009 1.548305e-38
-0.31231949 0.12111578 0.95025009 1.492704e-38
-0.31481948 0.12361578 0.95025009 1.3728457e-38
-0.31481948 0.12611578 0.95025009 9.6729825e-39
-0.31231949 0.12361578 0.95025009 1.4745148e-38
-0.31231949 0.12611578 0.94775009 1.0958642e-38
-0.31231949 0.12611578 0.95025009 1.2440216e-38
-0.31981948 0.11861578 0.95275009 1.4926649e-38
-0.31981948 0.11861578 0.95525008 1.4833027e-38
-0.31981948 0.12111578 0.95275009 1.262248e-38
-0.31981948 0.12111578 0.95525008 1.2529576e-38
-0.31731948 0.11861578 0.95275009 1.5571688e-38
-0.31731948 0.11861578 0.95525008 1.5480565e-38
-0.31731948 0.12111578 0.95275009 1.5107819e-38
-0.31731948 0.12111578 0.95525008 1.5569871e-38
-0.31981948 0.11861578 0.95775014 1.4927394e-38
-0.31981948 0.12111578 0.95775014 1.5292568e-38
-0.31731948 0.11861578 0.95775014 1.5850786e-38
-0.31731948 0.12111578 0.95775014 1.5568794e-38
-0.31981948 0.12361578 0.95275009 8.9368622e-39
-0.31981948 0.12361578 0.95525008 1.0043913e-38
-0.31981948 0.12611578 0.95275009 9.9542736e-39
-0.31981948 0.12611578 0.95525008 7.7433763e-39
-0.31731948 0.12361578 0.95275009 1.1423585e-38
-0.31731948 0.12361578 0.95525008 1.188491e-38
-0.31731948 0.12611578 0.95275009 1.013431e-38
-0.31731948 0.12611578 0.95525008 9.5796729e-39
-0.31981948 0.12361578 0.95775014 1.1608686e-38
-0.31731948 0.12361578 0.95775014 1.5203955e-38
-0.31731948 0.12611578 0.95775014 1.3084532e-38
-0.31481948 0.11861578 0.95275009 1.5758558e-38
-0.31481948 0.11861578 0.95525008 1.5203979e-38
-0.31481948 0.12111578 0.95275009 1.4008678e-38
-0.31481948 0.12111578 0.95525008 1.5385126e-38
-0.31231949 0.11861578 0.95275009 1.797057e-38
-0.31231949 0.12111578 0.95275009 1.4651174e-38
-0.31481948 0.11861578 0.95775014 1.7048263e-38
-0.31481948 0.12361578 0.95275009 1.3451889e-38
-0.31481948 0.12361578 0.95525008 1.547875e-38
-0.31481948 0.12611578 0.95275009 9.4889402e-39
-0.31481948 0.12611578 0.95525008 1.3268927e-38
-0.30731949 0.11611578 0.94775009 1.7417062e-38
-0.30731949 0.11611578 0.95025009 1.6774563e-38
-0.30481949 0.11361578 0.95025009 1.723484e-38
-0.30481949 0.11611578 0.94775009 1.6773494e-38
-0.30481949 0.11611578 0.95025009 1.6865692e-38
-0.3023195 0.11361578 0.95025009 1.6868223e-38
-0.3023195 0.11611578 0.94775009 1.6406506e-38
-0.3023195 0.11611578 0.95025009 1.622356e-38
-0.30981949 0.10861578 0.95275009 1.695968e-38
-0.30981949 0.10861578 0.95525008 1.7051159e-38
-0.30981949 0.11111578 0.95275009 1.7327386e-38
-0.30981949 0.11111578 0.95525008 1.6591263e-38
-0.30731949 0.10861578 0.95275009 1.6222859e-38
-0.30731949 0.10861578 0.95525008 1.6037756e-38
-0.30731949 0.11111578 0.95275009 1.7418878e-38
-0.30731949 0.11111578 0.95525008 1.7236286e-38
-0.30981949 0.10861578 0.95775014 1.6497995e-38
-0.30981949 0.11111578 0.95775014 1.7327386e-38
-0.30731949 0.11111578 0.95775014 1.7327766e-38
-0.30981949 0.11361578 0.95275009 1.6866408e-38
-0.30981949 0.11361578 0.95525008 1.7051159e-38
-0.30981949 0.11611578 0.95275009 1.7141906e-38
-0.30981949 0.11611578 0.95525008 1.723375e-38
-0.30731949 0.11361578 0.95275009 1.6498714e-38
-0.30731949 0.11361578 0.95525008 1.6958974e-38
-0.30731949 0.11611578 0.95275009 1.6683099e-38
-0.30981949 0.11361578 0.95775014 1.6866408e-38
-0.30731949 0.11361578 0.95775014 1.7144074e-38
-0.30481949 0.10861578 0.95275009 1.493212e-38
-0.30481949 0.10861578 0.95525008 1.5207275e-38
-0.30481949 0.11111578 0.95275009 1.6312532e-38
-0.30481949 0.11111578 0.95525008 1.4931764e-38
-0.30481949 0.11361578 0.95275009 1.6593437e-38
-0.30481949 0.11361578 0.95525008 1.5946645e-38
-0.30481949 0.11611578 0.95275009 1.6406153e-38
-0.3023195 0.11361578 0.95275009 1.6040263e-38
-0.3023195 0.11361578 0.95525008 1.6221055e-38
-0.3023195 0.11611578 0.95275009 1.6960403e-38
-0.30981949 0.11861578 0.95025009 1.7233403e-38
-0.30981949 0.12111578 0.94775009 1.2621448e-38
-0.30981949 0.12111578 0.95025009 1.6679831e-38
-0.30731949 0.11861578 0.94775009 1.7969168e-38
-0.30731949 0.11861578 0.95025009 1.7694021e-38
-0.30731949 0.12111578 0.94775009 1.935386e-38
-0.30731949 0.12111578 0.95025009 1.8431548e-38
-0.30981949 0.12611578 0.94525009 1.2899419e-38
-0.30731949 0.12361578 0.94525009 1.2624295e-38
-0.30731949 0.12611578 0.94525009 1.5843949e-38
-0.30981949 0.12361578 0.94775009 1.3174948e-38
-0.30981949 0.12361578 0.95025009 1.2809039e-38
-0.30981949 0.12611578 0.94775009 1.3357526e-38
-0.30981949 0.12611578 0.95025009 1.4745107e-38
-0.30731949 0.12361578 0.94775009 1.2531728e-38
-0.30731949 0.12361578 0.95025009 1.9444273e-38
-0.30731949 0.12611578 0.94775009 1.815207e-38
-0.30481949 0.11861578 0.94525009 1.769509e-38
-0.30481949 0.12111578 0.94525009 1.8524492e-38
-0.3023195 0.11861578 0.94525009 1.7141556e-38
-0.3023195 0.12111578 0.9427501 1.7510333e-38
-0.3023195 0.12111578 0.94525009 1.7786925e-38
-0.30481949 0.11861578 0.94775009 1.7417784e-38
-0.30481949 0.11861578 0.95025009 1.7049723e-38
-0.30481949 0.12111578 0.94775009 1.8892914e-38
-0.30481949 0.12111578 0.95025009 1.8155352e-38
-0.3023195 0.11861578 0.94775009 1.769508e-38
-0.3023195 0.11861578 0.95025009 1.7786922e-38
-0.3023195 0.12111578 0.94775009 1.7878766e-38
-0.30481949 0.12361578 0.9427501 1.8060264e-38
-0.30481949 0.12361578 0.94525009 1.7975296e-38
-0.30481949 0.12611578 0.9427501 1.8702374e-38
-0.30481949 0.12611578 0.94525009 1.5400283e-38
-0.3023195 0.12361578 0.9427501 7.2809534e-39
-0.3023195 0.12361578 0.94525009 1.345771e-38
-0.3023195 0.12611578 0.9427501 9.3142922e-39
-0.3023195 0.12611578 0.94525009 9.5919581e-39
-0.30481949 0.12361578 0.94775009 1.8344432e-38
-0.30481949 0.12611578 0.94775009 1.5586099e-38
-0.30981949 0.11861578 0.95275009 1.7327383e-38
-0.30981949 0.12111578 0.95275009 1.6311048e-38
-0.31981948 0.10861578 0.96275014 1.6866764e-38
-0.31981948 0.11111578 0.96275014 1.7878042e-38
-0.31731948 0.10861578 0.96275014 1.7234472e-38
-0.31731948 0.11111578 0.96275014 1.7417065e-38
-0.31981948 0.10861578 0.96775013 1.6866411e-38
-0.31981948 0.10861578 0.97025013 1.6866408e-38
-0.31731948 0.10861578 0.96775013 1.6683096e-38
-0.31731948 0.10861578 0.97025013 1.7051159e-38
-0.31731948 0.11111578 0.96775013 1.7142273e-38
-0.31731948 0.11111578 0.97025013 1.6590544e-38
-0.31981948 0.11361578 0.96275014 1.7694008e-38
-0.31981948 0.11611578 0.96275014 1.7233007e-38
-0.31731948 0.11361578 0.96275014 1.751033e-38
-0.31731948 0.11611578 0.96275014 1.7327724e-38
-0.31481948 0.10861578 0.96275014 1.6683096e-38
-0.31481948 0.11111578 0.96275014 1.6866408e-38
-0.31231949 0.10861578 0.96275014 1.6312532e-38
-0.31231949 0.11111578 0.96275014 1.6866411e-38
-0.31481948 0.10861578 0.96775013 1.7511424e-38
-0.31481948 0.10861578 0.97025013 1.659127e-38
-0.31481948 0.11111578 0.96775013 1.6959314e-38
-0.31481948 0.11111578 0.97025013 1.6683096e-38
-0.31231949 0.10861578 0.96775013 1.6038459e-38
-0.31981948 0.10861578 0.97275013 1.6866062e-38
-0.31981948 0.11861578 0.96275014 1.4744076e-38
-0.31981948 0.12611578 0.96275014 9.1201198e-39
-0.31731948 0.12611578 0.96275014 1.3453314e-38
-0.30981949 0.10861578 0.96275014 1.539274e-38
-0.30981949 0.11111578 0.96275014 1.6222503e-38
-0.30731949 0.11111578 0.96275014 1.5117234e-38
-0.30731949 0.11111578 0.98025012 9.4925569e-39
-0.30731949 0.11361578 0.98025012 9.4950765e-39
-0.30481949 0.10861578 0.98025012 1.6032253e-38
-0.30481949 0.11111578 0.98025012 1.4371308e-38
-0.3023195 0.10861578 0.97775012 1.5664192e-38
-0.3023195 0.10861578 0.98025012 1.8429045e-38
-0.3023195 0.11111578 0.97775012 1.3727047e-38
-0.3023195 0.11111578 0.98025012 1.5939369e-38
-0.3023195 0.11361578 0.97525012 9.1244933e-39
-0.3023195 0.11611578 0.97275013 1.0327352e-38
-0.3023195 0.11611578 0.97525012 1.023516e-38
-0.30481949 0.11361578 0.98025012 9.3085146e-39
-0.30481949 0.11611578 0.98025012 1.0785815e-38
-0.3023195 0.11361578 0.97775012 9.6765979e-39
-0.3023195 0.11361578 0.98025012 1.0593089e-38
-0.3023195 0.11611578 0.97775012 9.1262954e-39
-0.3023195 0.11861578 0.97775012 1.0417756e-38
-0.31481948 0.12861578 0.95025009 7.6554841e-39
-0.31231949 0.12861578 0.94775009 9.7651782e-39
-0.31231949 0.12861578 0.95025009 1.0317941e-38
-0.31231949 0.13111578 0.94775009 9.5876364e-39
-0.31231949 0.13111578 0.95025009 8.3923429e-39
-0.31731948 0.12861578 0.95275009 1.0322323e-38
-0.31481948 0.12861578 0.95275009 9.4910898e-39
-0.31481948 0.13111578 0.95275009 9.3106796e-39
-0.31481948 0.13111578 0.95525008 9.127017e-39
-0.31231949 0.12861578 0.95275009 9.2163134e-39
-0.31231949 0.13111578 0.95275009 8.2043321e-39
-0.31231949 0.13111578 0.95525008 7.9284738e-39
-0.31481948 0.13111578 0.95775014 8.0206695e-39
-0.31481948 0.13361578 0.95775014 8.6649599e-39
-0.31231949 0.13361578 0.95775014 9.6743894e-39
-0.31231949 0.13611577 0.95775014 9.0344529e-39
-0.30981949 0.12861578 0.94525009 8.8485902e-39
-0.30731949 0.12861578 0.94525009 1.2067143e-38
-0.30981949 0.12861578 0.94775009 9.3041986e-39
-0.30981949 0.12861578 0.95025009 1.2341241e-38
-0.30981949 0.13111578 0.94775009 8.0206695e-39
-0.30981949 0.13111578 0.95025009 1.0775303e-38
-0.30731949 0.12861578 0.94775009 1.8426511e-38
-0.30731949 0.12861578 0.95025009 1.8243171e-38
-0.30731949 0.13111578 0.94775009 1.7778581e-38
-0.30731949 0.13111578 0.95025009 1.7686035e-38
-0.30731949 0.13361578 0.95025009 1.1517948e-38
-0.30481949 0.12861578 0.9427501 1.8427215e-38
-0.30481949 0.12861578 0.94525009 1.7973832e-38
-0.30481949 0.13111578 0.94525009 1.8523759e-38
-0.3023195 0.12861578 0.9427501 1.7789443e-38
-0.3023195 0.12861578 0.94525009 1.7882358e-38
-0.3023195 0.13111578 0.94525009 1.8800706e-38
-0.30481949 0.12861578 0.94775009 1.7882358e-38
-0.30481949 0.13111578 0.94775009 1.8247532e-38
-0.30481949 0.13111578 0.95025009 1.8248604e-38
-0.3023195 0.12861578 0.94775009 1.6595974e-38
-0.3023195 0.13111578 0.94775009 1.8065694e-38
-0.3023195 0.13111578 0.95025009 2.0002524e-38
-0.30481949 0.13361578 0.95025009 1.6956733e-38
-0.3023195 0.13361578 0.95025009 1.5854402e-38
-0.30981949 0.12861578 0.95275009 1.2250102e-38
-0.30981949 0.13111578 0.95275009 1.1140145e-38
-0.30981949 0.13111578 0.95525008 1.1235191e-38
-0.30731949 0.13111578 0.95275009 1.8062067e-38
-0.30981949 0.13361578 0.95275009 1.1516525e-38
-0.30981949 0.13361578 0.95525008 1.1979279e-38
-0.30981949 0.13611577 0.95525008 9.4947206e-39
-0.30731949 0.13361578 0.95275009 1.5482675e-38
-0.30731949 0.13361578 0.95525008 1.5756044e-38
-0.30731949 0.13611577 0.95525008 8.3882959e-39
-0.30981949 0.13361578 0.95775014 1.1518301e-38
-0.30981949 0.13611577 0.95775014 9.5876252e-39
-0.30731949 0.13611577 0.95775014 5.1611252e-39
-0.30481949 0.13361578 0.95275009 1.2997431e-38
-0.30481949 0.13611577 0.95525008 5.2540523e-39
-0.3023195 0.13361578 0.95275009 8.479847e-39
-0.3023195 0.13611577 0.95275009 5.345494e-39
-0.3023195 0.13611577 0.95525008 5.4388037e-39
-0.30481949 0.13611577 0.95775014 5.7128654e-39
-0.30981949 0.13861577 0.95775014 1.115245e-38
-0.30731949 0.13861577 0.95775014 4.4271881e-39
-0.30731949 0.14111578 0.95775014 9.7709767e-39
-0.30481949 0.13861577 0.95525008 6.5415317e-39
-0.3023195 0.13861577 0.95525008 7.2790967e-39
-0.30481949 0.13861577 0.95775014 5.3437312e-39
-0.30481949 0.14111578 0.95775014 1.179169e-38
-0.3023195 0.13861577 0.95775014 7.18659e-39
-0.3023195 0.14111578 0.95775014 1.1340098e-38
-0.3023195 0.14361578 0.95775014 1.8714268e-38
-0.31731948 0.13361578 0.96275014 9.1259422e-39
-0.31981948 0.13611577 0.97025013 1.2906313e-38
-0.31731948 0.13361578 0.96775013 9.3110552e-39
-0.31731948 0.13611577 0.96775013 1.1154955e-38
-0.31731948 0.13611577 0.97025013 1.1060602e-38
-0.31481948 0.13361578 0.96275014 9.3099762e-39
-0.31481948 0.13611577 0.96275014 1.1429381e-38
-0.31231949 0.13361578 0.96275014 9.7665907e-39
-0.31231949 0.13611577 0.96275014 9.403957e-39
-0.31481948 0.13361578 0.96775013 1.0133215e-38
-0.31481948 0.13611577 0.96775013 8.8518693e-39
-0.31481948 0.13611577 0.97025013 8.7585876e-39
-0.31981948 0.13611577 0.97275013 1.2813397e-38
-0.31981948 0.13611577 0.97525012 1.1799987e-38
-0.31731948 0.13611577 0.97275013 1.1245353e-38
-0.31981948 0.13861577 0.97025013 1.3089962e-38
-0.31731948 0.13861577 0.96775013 1.3641338e-38
-0.31731948 0.13861577 0.97025013 1.4103025e-38
-0.31731948 0.14111578 0.97025013 1.4558978e-38
-0.31231949 0.13861577 0.96275014 1.1338267e-38
-0.31231949 0.14111578 0.96275014 1.4010479e-38
-0.31481948 0.13861577 0.96775013 1.2075851e-38
-0.31481948 0.14111578 0.96775013 1.3641338e-38
-0.31481948 0.14111578 0.97025013 1.3549884e-38
-0.31231949 0.14111578 0.96775013 1.3825735e-38
-0.31231949 0.14361578 0.96275014 1.4743725e-38
-0.31981948 0.13861577 0.97525012 1.3181461e-38
-0.30981949 0.13861577 0.96275014 8.1146546e-39
-0.30981949 0.14111578 0.96275014 1.1614173e-38
-0.30731949 0.13861577 0.96275014 4.6115836e-39
-0.30731949 0.14111578 0.96275014 9.678065e-39
-0.30981949 0.14361578 0.96275014 1.3548086e-38
-0.30731949 0.14361578 0.96275014 1.0966608e-38
-0.30481949 0.14111578 0.96275014 8.2039817e-39
-0.3023195 0.13861577 0.96275014 6.6312512e-39
-0.3023195 0.14111578 0.96275014 4.238869e-39
-0.30481949 0.14361578 0.96275014 1.3082779e-38
-0.3023195 0.14361578 0.96275014 7.4660902e-39
-0.2998195 0.11611578 0.94525009 1.6681666e-38
-0.2973195 0.11611578 0.9427501 1.7050819e-38
-0.2973195 0.11611578 0.94525009 1.6960058e-38
-0.2998195 0.11361578 0.95025009 1.6038462e-38
-0.2998195 0.11611578 0.94775009 1.7236267e-38
-0.2998195 0.11611578 0.95025009 1.5947714e-38
-0.2973195 0.11361578 0.94775009 1.3643899e-38
-0.2973195 0.11611578 0.94775009 1.5762235e-38
-0.2973195 0.11611578 0.95025009 1.4471509e-38
-0.2948195 0.11611578 0.94525009 1.309001e-38
-0.29231951 0.11611578 0.94525009 1.3088572e-38
-0.2948195 0.11361578 0.95025009 1.1525548e-38
-0.2948195 0.11611578 0.94775009 1.447366e-38
-0.2948195 0.11611578 0.95025009 1.309071e-38
-0.29231951 0.11611578 0.94775009 1.2906334e-38
-0.29231951 0.11611578 0.95025009 1.0232989e-38
-0.2998195 0.11361578 0.95275009 1.5117232e-38
-0.2998195 0.11611578 0.95275009 1.5762601e-38
-0.2973195 0.11611578 0.95275009 1.3551688e-38
-0.2948195 0.11611578 0.95275009 1.1707773e-38
-0.2948195 0.11611578 0.95525008 1.0417387e-38
-0.29231951 0.11611578 0.95775014 1.0318746e-38
-0.2998195 0.11861578 0.94525009 1.778799e-38
-0.2998195 0.12111578 0.9427501 1.3455931e-38
-0.2998195 0.12111578 0.94525009 1.253288e-38
-0.2973195 0.11861578 0.9427501 1.8341192e-38
-0.2973195 0.11861578 0.94525009 1.8157867e-38
-0.2973195 0.12111578 0.9427501 1.511291e-38
-0.2973195 0.12111578 0.94525009 1.5480251e-38
-0.2998195 0.11861578 0.94775009 1.8247895e-38
-0.2998195 0.11861578 0.95025009 1.8159302e-38
-0.2998195 0.12111578 0.94775009 1.8156428e-38
-0.2973195 0.11861578 0.94775009 1.8251498e-38
-0.2973195 0.11861578 0.95025009 1.5945192e-38
-0.2973195 0.12111578 0.94775009 1.9168074e-38
-0.2998195 0.12361578 0.9427501 3.9745687e-39
-0.2998195 0.12361578 0.94525009 9.1255919e-39
-0.2998195 0.12611578 0.9427501 9.1320911e-39
-0.2998195 0.12611578 0.94525009 9.31756e-39
-0.2973195 0.12361578 0.9427501 1.9454787e-40
-0.2973195 0.12361578 0.94525009 1.2717937e-38
-0.2973195 0.12611578 0.9427501 9.5930693e-39
-0.2973195 0.12611578 0.94525009 1.381964e-38
-0.2998195 0.12611578 0.94775009 8.8591e-39
-0.2973195 0.12361578 0.94775009 1.7512468e-38
-0.2973195 0.12611578 0.94775009 1.7691857e-38
-0.2948195 0.11861578 0.94525009 1.7973484e-38
-0.2948195 0.12111578 0.94525009 1.8618868e-38
-0.29231951 0.11861578 0.94525009 1.5299811e-38
-0.29231951 0.12111578 0.94525009 1.5298698e-38
-0.2948195 0.11861578 0.94775009 1.7789453e-38
-0.2948195 0.11861578 0.95025009 1.5391652e-38
-0.2948195 0.12111578 0.94775009 1.8708157e-38
-0.2948195 0.12111578 0.95025009 1.5391307e-38
-0.29231951 0.11861578 0.94775009 1.5115414e-38
-0.29231951 0.11861578 0.95025009 1.1615593e-38
-0.29231951 0.12111578 0.94775009 1.5849732e-38
-0.29231951 0.12111578 0.95025009 1.4468976e-38
-0.2948195 0.12361578 0.94525009 1.7694376e-38
-0.2948195 0.12611578 0.94525009 1.7694744e-38
-0.29231951 0.12361578 0.94525009 1.4928139e-38
-0.29231951 0.12611578 0.94525009 1.6770989e-38
-0.2948195 0.12361578 0.94775009 1.7601459e-38
-0.2948195 0.12361578 0.95025009 1.4837388e-38
-0.2948195 0.12611578 0.94775009 1.7508913e-38
-0.2948195 0.12611578 0.95025009 1.520435e-38
-0.29231951 0.12361578 0.94775009 1.5204013e-38
-0.29231951 0.12361578 0.95025009 1.4837388e-38
-0.29231951 0.12611578 0.94775009 1.6770989e-38
-0.29231951 0.12611578 0.95025009 1.612884e-38
-0.2948195 0.11861578 0.95275009 1.5022512e-38
-0.2948195 0.12111578 0.95275009 1.5299828e-38
-0.29231951 0.11861578 0.95275009 1.3548827e-38
-0.29231951 0.11861578 0.95525008 1.2258088e-38
-0.29231951 0.12111578 0.95275009 1.3731411e-38
-0.29231951 0.12111578 0.95525008 1.4283135e-38
-0.2948195 0.11861578 0.95775014 1.1707776e-38
-0.2948195 0.12111578 0.95775014 1.5205815e-38
-0.29231951 0.11861578 0.95775014 1.0417037e-38
-0.29231951 0.12111578 0.95775014 1.2441741e-38
-0.2948195 0.12361578 0.95275009 1.5298714e-38
-0.2948195 0.12361578 0.95525008 1.4652991e-38
-0.29231951 0.12361578 0.95275009 1.5390562e-38
-0.29231951 0.12361578 0.95525008 1.5115051e-38
-0.29231951 0.12611578 0.95275009 1.7235188e-38
-0.29231951 0.12611578 0.95525008 1.6868558e-38
-0.29231951 0.12361578 0.95775014 1.4467543e-38
-0.29231951 0.12611578 0.95775014 1.5854778e-38
-0.28981948 0.11611578 0.95775014 9.304235e-39
-0.28731948 0.11361578 0.95775014 1.8430844e-38
-0.28731948 0.11611578 0.95775014 2.0267201e-38
-0.28231949 0.10861578 0.95775014 1.6587651e-38
-0.28231949 0.11111578 0.95775014 1.7326665e-38
-0.28231949 0.11361578 0.95525008 1.8707819e-38
-0.28231949 0.11611578 0.95525008 1.5941225e-38
-0.28481948 0.11611578 0.95775014 1.9719808e-38
-0.28231949 0.11361578 0.95775014 1.7973106e-38
-0.28231949 0.11611578 0.95775014 1.3728454e-38
-0.28981948 0.12111578 0.95025009 1.3639209e-38
-0.28981948 0.12361578 0.95025009 1.5390556e-38
-0.28981948 0.12611578 0.95025009 1.705151e-38
-0.28981948 0.11861578 0.95525008 9.4929073e-39
-0.28981948 0.12111578 0.95525008 1.0321241e-38
-0.28981948 0.11861578 0.95775014 8.3887331e-39
-0.28981948 0.12111578 0.95775014 1.0137209e-38
-0.28731948 0.11861578 0.95775014 2.0451903e-38
-0.28731948 0.12111578 0.95775014 1.0968746e-38
-0.28981948 0.12361578 0.95275009 1.5481698e-38
-0.28981948 0.12361578 0.95525008 1.2900944e-38
-0.28981948 0.12611578 0.95275009 1.5670756e-38
-0.28981948 0.12611578 0.95525008 1.4100913e-38
-0.28731948 0.12361578 0.95275009 1.4837048e-38
-0.28731948 0.12611578 0.95275009 1.3734648e-38
-0.28981948 0.12361578 0.95775014 1.2808381e-38
-0.28981948 0.12611578 0.95775014 1.3734645e-38
-0.28731948 0.12611578 0.95775014 1.1242866e-38
-0.28231949 0.11861578 0.95525008 1.438e-38
-0.28481948 0.11861578 0.95775014 1.9263139e-38
-0.28481948 0.12111578 0.95775014 1.6034815e-38
-0.28231949 0.11861578 0.95775014 1.2526692e-38
-0.28231949 0.12111578 0.95775014 1.5386259e-38
-0.2973195 0.11111578 0.97025013 1.5388681e-38
-0.2973195 0.11611578 0.96275014 1.0048627e-38
-0.2973195 0.11361578 0.97025013 1.0042153e-38
-0.2973195 0.11611578 0.97025013 9.1244989e-39
-0.29231951 0.10861578 0.96275014 1.7785478e-38
-0.29231951 0.11111578 0.96275014 1.7875856e-38
-0.2948195 0.10861578 0.97025013 1.8338649e-38
-0.2948195 0.11111578 0.96775013 1.69539e-38
-0.29231951 0.10861578 0.96775013 1.7141906e-38
-0.29231951 0.10861578 0.97025013 1.7233753e-38
-0.2948195 0.11361578 0.96275014 1.363593e-38
-0.2948195 0.11611578 0.96275014 9.3088916e-39
-0.29231951 0.11361578 0.96275014 1.5937186e-38
-0.29231951 0.11611578 0.96275014 1.2526706e-38
-0.2948195 0.11361578 0.96775013 1.3079122e-38
-0.2948195 0.11611578 0.96775013 1.0960442e-38
-0.2998195 0.10861578 0.97525012 1.7230837e-38
-0.2998195 0.11111578 0.97275013 1.335893e-38
-0.2998195 0.11111578 0.97525012 1.3726626e-38
-0.2973195 0.10861578 0.97275013 1.8337532e-38
-0.2973195 0.10861578 0.97525012 1.7786569e-38
-0.2973195 0.11111578 0.97275013 1.5848211e-38
-0.2973195 0.11111578 0.97525012 1.64003e-38
-0.2998195 0.10861578 0.97775012 1.8428658e-38
-0.2998195 0.10861578 0.98025012 1.7785462e-38
-0.2998195 0.11111578 0.97775012 1.7875465e-38
-0.2998195 0.11111578 0.98025012 1.7691449e-38
-0.2973195 0.10861578 0.97775012 1.750998e-38
-0.2973195 0.11111578 0.97775012 1.7418134e-38
-0.2998195 0.11361578 0.97275013 1.0686725e-38
-0.2998195 0.11361578 0.97525012 1.0776401e-38
-0.2998195 0.11611578 0.97275013 9.953884e-39
-0.2998195 0.11611578 0.97525012 9.3113831e-39
-0.2973195 0.11361578 0.97275013 1.3726301e-38
-0.2973195 0.11361578 0.97525012 1.3727387e-38
-0.2973195 0.11611578 0.97275013 9.4929073e-39
-0.2973195 0.11611578 0.97525012 8.8504049e-39
-0.2998195 0.11361578 0.98025012 1.5849309e-38
-0.2948195 0.10861578 0.97275013 1.7694374e-38
-0.2948195 0.11111578 0.97275013 1.7694358e-38
-0.2998195 0.11861578 0.96275014 1.4656254e-38
-0.2973195 0.11861578 0.96275014 1.3272603e-38
-0.2973195 0.12111578 0.96275014 1.5299805e-38
-0.2948195 0.11861578 0.96275014 1.0693264e-38
-0.2948195 0.12111578 0.96275014 1.4375694e-38
-0.29231951 0.11861578 0.96275014 9.678023e-39
-0.29231951 0.12111578 0.96275014 1.1801041e-38
-0.2948195 0.11861578 0.96775013 9.585456e-39
-0.2948195 0.12361578 0.96275014 1.382216e-38
-0.29231951 0.12361578 0.96275014 1.4285288e-38
-0.29231951 0.12611578 0.96275014 1.4836332e-38
-0.2998195 0.11861578 0.97525012 1.0601421e-38
-0.2973195 0.11861578 0.97525012 1.0411607e-38
-0.2948195 0.11861578 0.97275013 1.0137226e-38
-0.28981948 0.10861578 0.96275014 1.6866408e-38
-0.28981948 0.11111578 0.96275014 1.7875873e-38
-0.28731948 0.10861578 0.96275014 1.7232672e-38
-0.28731948 0.11111578 0.96275014 1.7783676e-38
-0.28981948 0.10861578 0.96775013 1.6774212e-38
-0.28731948 0.10861578 0.96775013 1.6405081e-38
-0.28981948 0.11361578 0.96275014 1.6492565e-38
-0.28981948 0.11611578 0.96275014 9.6719316e-39
-0.28731948 0.11361578 0.96275014 1.8428674e-38
-0.28731948 0.11611578 0.96275014 1.9440645e-38
-0.28481948 0.10861578 0.96275014 1.7048283e-38
-0.28481948 0.11111578 0.96275014 1.7419582e-38
-0.28231949 0.10861578 0.96275014 1.6679496e-38
-0.28231949 0.11111578 0.96275014 1.7418863e-38
-0.28481948 0.10861578 0.96775013 1.6036297e-38
-0.28481948 0.11361578 0.96275014 1.8892546e-38
-0.28481948 0.11611578 0.96275014 1.9169158e-38
-0.28231949 0.11361578 0.96275014 1.7789441e-38
-0.28231949 0.11611578 0.96275014 1.3636987e-38
-0.28981948 0.11861578 0.96275014 8.4794798e-39
-0.28981948 0.12111578 0.96275014 8.7585596e-39
-0.28731948 0.11861578 0.96275014 1.9626103e-38
-0.28731948 0.12111578 0.96275014 1.0326244e-38
-0.28981948 0.12361578 0.96275014 1.2809407e-38
-0.28981948 0.12611578 0.96275014 1.5294381e-38
-0.28731948 0.12361578 0.96275014 1.400831e-38
-0.28731948 0.12611578 0.96275014 1.5847555e-38
-0.28481948 0.11861578 0.96275014 1.8989782e-38
-0.28481948 0.12111578 0.96275014 1.6220337e-38
-0.28231949 0.11861578 0.96275014 1.2342301e-38
-0.28231949 0.12111578 0.96275014 1.6955714e-38
-0.28481948 0.12361578 0.96275014 1.668237e-38
-0.28481948 0.12611578 0.96275014 1.65873e-38
-0.28231949 0.12361578 0.96275014 1.5941562e-38
-0.28231949 0.12611578 0.96275014 1.1616281e-38
-0.28231949 0.12611578 0.96775013 1.1799579e-38
-0.2998195 0.12861578 0.9427501 1.659633e-38
-0.2998195 0.12861578 0.94525009 1.5582175e-38
-0.2998195 0.13111578 0.94525009 1.8065694e-38
-0.2973195 0.12861578 0.94525009 1.3640672e-38
-0.2998195 0.12861578 0.94775009 1.5858409e-38
-0.2998195 0.13111578 0.94775009 1.5945194e-38
-0.2998195 0.13111578 0.95025009 1.0974524e-38
-0.2973195 0.12861578 0.94775009 1.4006586e-38
-0.2973195 0.12861578 0.95025009 1.4098426e-38
-0.2973195 0.13111578 0.94775009 1.1342955e-38
-0.2973195 0.13111578 0.95025009 1.0974174e-38
-0.2998195 0.13361578 0.95025009 6.72923e-39
-0.2973195 0.13361578 0.95025009 7.0054582e-39
-0.2948195 0.12861578 0.94525009 1.5019661e-38
-0.29231951 0.12861578 0.94525009 1.4651237e-38
-0.2948195 0.12861578 0.94775009 1.4927098e-38
-0.2948195 0.12861578 0.95025009 1.4558673e-38
-0.2948195 0.13111578 0.94775009 1.2174162e-38
-0.2948195 0.13111578 0.95025009 1.1988319e-38
-0.29231951 0.12861578 0.94775009 1.4650512e-38
-0.29231951 0.12861578 0.95025009 1.6406509e-38
-0.29231951 0.13111578 0.94775009 1.1805378e-38
-0.2948195 0.13361578 0.95025009 1.3827154e-38
-0.2973195 0.13111578 0.95275009 1.2082319e-38
-0.2998195 0.13361578 0.95275009 6.4522451e-39
-0.2998195 0.13611577 0.95275009 7.0046846e-39
-0.2998195 0.13611577 0.95525008 6.6341351e-39
-0.2973195 0.13361578 0.95275009 1.1615523e-38
-0.2973195 0.13611577 0.95525008 1.1977105e-38
-0.2998195 0.13611577 0.95775014 7.0951202e-39
-0.2973195 0.13361578 0.95775014 1.4196642e-38
-0.2973195 0.13611577 0.95775014 9.9495316e-39
-0.2948195 0.12861578 0.95275009 1.5295885e-38
-0.2948195 0.13111578 0.95275009 1.2264182e-38
-0.2948195 0.13111578 0.95525008 6.269691e-39
-0.29231951 0.12861578 0.95275009 8.4745178e-39
-0.29231951 0.12861578 0.95525008 1.5486348e-38
-0.29231951 0.13111578 0.95275009 5.8112366e-39
-0.29231951 0.13111578 0.95525008 1.4012985e-45
-0.2948195 0.13111578 0.95775014 5.2584131e-39
-0.29231951 0.12861578 0.95775014 1.318579e-38
-0.29231951 0.13111578 0.95775014 7.0064923e-45
-0.2948195 0.13361578 0.95275009 1.5388348e-38
-0.2948195 0.13361578 0.95525008 1.4012249e-38
-0.2948195 0.13611577 0.95525008 1.1706369e-38
-0.29231951 0.13361578 0.95275009 8.9408882e-39
-0.2948195 0.13361578 0.95775014 9.1252752e-39
-0.29231951 0.13361578 0.95775014 5.7453237e-44
-0.2998195 0.13861577 0.95525008 6.1738646e-39
-0.2998195 0.13861577 0.95775014 5.9880468e-39
-0.2998195 0.14111578 0.95775014 7.5600767e-39
-0.2998195 0.14361578 0.95775014 1.4749856e-38
-0.28981948 0.12861578 0.95275009 1.3735729e-38
-0.28981948 0.12861578 0.95525008 1.3001401e-38
-0.28981948 0.13111578 0.95525008 0
-0.28731948 0.12861578 0.95275009 1.0972377e-38
-0.28981948 0.12861578 0.95775014 1.0604315e-38
-0.28981948 0.13111578 0.95775014 0
-0.2973195 0.13111578 0.96275014 8.6606859e-39
-0.2973195 0.13361578 0.96275014 9.1249193e-39
-0.2973195 0.13611577 0.96275014 1.1245759e-38
-0.2948195 0.13111578 0.96275014 4.2038954e-44
-0.29231951 0.12861578 0.96275014 1.1615227e-38
-0.29231951 0.13111578 0.96275014 0
-0.2948195 0.13111578 0.96775013 0
-0.29231951 0.12861578 0.96775013 1.4009086e-38
-0.29231951 0.13111578 0.96775013 0
-0.29231951 0.13111578 0.97025013 0
-0.2948195 0.13361578 0.96275014 5.1848043e-44
-0.2948195 0.13611577 0.96275014 2.7554853e-40
-0.29231951 0.13361578 0.96275014 2.2166832e-39
-0.29231951 0.13611577 0.96275014 0
-0.2948195 0.13361578 0.96775013 1.0902102e-42
-0.2948195 0.13361578 0.97025013 0
-0.2948195 0.13611577 0.96775013 0
-0.2948195 0.13611577 0.97025013 0
-0.29231951 0.13361578 0.96775013 2.2177524e-39
-0.29231951 0.13361578 0.97025013 3.5873241e-43
-0.29231951 0.13611577 0.96775013 2.3066732e-39
-0.29231951 0.13611577 0.97025013 3.0424208e-39
-0.2948195 0.13111578 0.97275013 1.1430478e-38
-0.29231951 0.13111578 0.97275013 2.3232506e-39
-0.2998195 0.13861577 0.96275014 9.1197289e-39
-0.2998195 0.14111578 0.96275014 8.7535107e-39
-0.2973195 0.13861577 0.96275014 1.2539738e-38
-0.2973195 0.14111578 0.96275014 1.7144437e-38
-0.2973195 0.14111578 0.96775013 1.6960055e-38
-0.2998195 0.14361578 0.96275014 9.8581123e-39
-0.2973195 0.14361578 0.96275014 1.6683099e-38
-0.2948195 0.13861577 0.96275014 1.2896668e-39
-0.2948195 0.14111578 0.96275014 1.3178953e-38
-0.29231951 0.13861577 0.96275014 9.0355192e-39
-0.29231951 0.14111578 0.96275014 9.0359326e-39
-0.2948195 0.13861577 0.96775013 2.1201492e-39
-0.2948195 0.13861577 0.97025013 2.5786092e-39
-0.2948195 0.14111578 0.96775013 1.0050085e-38
-0.29231951 0.13861577 0.96775013 8.942267e-39
-0.29231951 0.13861577 0.97025013 1.2810078e-38
-0.29231951 0.14111578 0.96775013 1.0875141e-38
-0.2948195 0.14361578 0.96275014 1.2073317e-38
-0.29231951 0.14361578 0.96275014 3.9727162e-39
-0.28981948 0.12861578 0.96275014 1.1515504e-38
-0.28981948 0.13111578 0.96275014 0
-0.28731948 0.12861578 0.96275014 1.2807647e-38
-0.28731948 0.13111578 0.96275014 9.3970192e-39
-0.28981948 0.12861578 0.96775013 2.138139e-39
-0.28981948 0.13111578 0.96775013 1.8833451e-40
-0.28981948 0.13111578 0.97025013 2.5111268e-42
-0.28731948 0.12861578 0.96775013 1.0964775e-38
-0.28731948 0.13111578 0.96775013 9.6725481e-39
-0.28731948 0.13111578 0.97025013 1.4099738e-38
-0.28981948 0.13361578 0.96275014 1.4740791e-39
-0.28981948 0.13611577 0.96275014 3.0424208e-39
-0.28981948 0.13361578 0.96775013 2.7647773e-39
-0.28981948 0.13361578 0.97025013 1.7498995e-39
-0.28981948 0.13611577 0.96775013 1.7542015e-39
-0.28981948 0.13611577 0.97025013 1.569813e-39
