# .PCD v0.7 - Point Cloud Data file format
VERSION 0.7
FIELDS x y z rgb
SIZE 4 4 4 4
TYPE F F F F
COUNT 1 1 1 1
WIDTH 1020
HEIGHT 1
VIEWPOINT 0 0 0 1 0 0 0
POINTS 1020
DATA ascii
0.13925216 0.16262154 0.8687501 6.2733204e-39
0.13925216 0.16262154 0.87125009 5.9055972e-39
0.13675216 0.16762155 0.86375004 8.3048346e-39
0.13675216 0.16762155 0.86625004 7.9367723e-39
0.13925216 0.16512154 0.86375004 7.0090581e-39
0.13925216 0.16512154 0.86625004 5.2620299e-39
0.13925216 0.16762155 0.86375004 7.6529786e-39
0.13925216 0.16762155 0.86625004 5.2616767e-39
0.13675216 0.16512154 0.8687501 8.3030367e-39
0.13675216 0.16512154 0.87125009 8.3927142e-39
0.13675216 0.16762155 0.8687501 6.8290011e-39
0.13675216 0.16762155 0.87125009 8.3026836e-39
0.13925216 0.16512154 0.8687501 5.3524262e-39
0.13925216 0.16512154 0.87125009 7.3807301e-39
0.13925216 0.16762155 0.8687501 4.6163073e-39
0.13925216 0.16762155 0.87125009 6.8290011e-39
0.14175215 0.16012155 0.86375004 1.0423533e-38
0.14175215 0.16012155 0.86625004 1.0881993e-38
0.14175215 0.16262154 0.86375004 1.115858e-38
0.14175215 0.16262154 0.86625004 6.9172282e-39
0.14425215 0.16012155 0.86375004 1.1709237e-38
0.14425215 0.16262154 0.86375004 1.1801789e-38
0.14175215 0.16012155 0.8687501 7.1044907e-39
0.14175215 0.16012155 0.87125009 7.5625976e-39
0.14175215 0.16262154 0.8687501 7.1019726e-39
0.14175215 0.16262154 0.87125009 6.9200981e-39
0.14175215 0.16512154 0.86375004 1.1250783e-38
0.14175215 0.16512154 0.86625004 7.007256e-39
0.14175215 0.16762155 0.86625004 6.9175813e-39
0.14425215 0.16512154 0.86375004 1.1709235e-38
0.14175215 0.16512154 0.8687501 6.7335502e-39
0.14175215 0.16512154 0.87125009 7.2852905e-39
0.14175215 0.16762155 0.8687501 6.6410015e-39
0.12675215 0.15012155 0.87375009 1.1986549e-38
0.12925215 0.15012155 0.87375009 1.1985464e-38
0.12675215 0.15012155 0.87875009 1.1802152e-38
0.12925215 0.15012155 0.87875009 1.170924e-38
0.12925215 0.15262155 0.87875009 1.2262057e-38
0.13175215 0.15012155 0.87375009 9.8653276e-39
0.13425215 0.15262155 0.87375009 9.8656779e-39
0.13175215 0.15012155 0.87875009 9.6809349e-39
0.13175215 0.15012155 0.88125008 9.4050683e-39
0.13175215 0.15262155 0.87875009 9.773848e-39
0.13425215 0.15012155 0.87875009 9.2210119e-39
0.13425215 0.15012155 0.88125008 9.2199553e-39
0.13425215 0.15262155 0.87875009 9.4050459e-39
0.13425215 0.15262155 0.88125008 1.0231584e-38
0.13425215 0.15512155 0.87375009 1.0603609e-38
0.13425215 0.15762155 0.87375009 9.6838006e-39
0.13425215 0.15512155 0.87875009 1.0600362e-38
0.13175215 0.15012155 0.88375008 9.6816552e-39
0.13175215 0.15012155 0.88625008 9.8660492e-39
0.13425215 0.15012155 0.88375008 9.7734823e-39
0.13425215 0.15262155 0.88375008 1.0231939e-38
0.13425215 0.15262155 0.88625008 9.8638758e-39
0.13425215 0.15012155 0.88875008 9.4994121e-39
0.13425215 0.15012155 0.89125007 1.0232658e-38
0.13425215 0.15262155 0.88875008 1.0048274e-38
0.13425215 0.15262155 0.89125007 9.9560742e-39
0.13425215 0.15512155 0.88375008 9.6812824e-39
0.13425215 0.15512155 0.89125007 9.6812852e-39
0.13425215 0.16012155 0.87375009 9.4983373e-39
0.13425215 0.16262154 0.87375009 9.4986932e-39
0.13425215 0.16512154 0.87375009 9.9603916e-39
0.13675216 0.15512155 0.87375009 9.5908889e-39
0.13675216 0.15762155 0.87375009 8.207967e-39
0.13925216 0.15762155 0.87375009 7.3767826e-39
0.13675216 0.15512155 0.87875009 1.0603609e-38
0.13675216 0.15512155 0.88125008 1.0786205e-38
0.13675216 0.15762155 0.87875009 8.2083174e-39
0.13925216 0.15762155 0.87875009 7.1012719e-39
0.13925216 0.15762155 0.88125008 7.7469763e-39
0.14425215 0.15262155 0.87375009 1.1618842e-38
0.14425215 0.15262155 0.87875009 1.1804306e-38
0.14425215 0.15262155 0.88125008 1.1895775e-38
0.14175215 0.15512155 0.87375009 8.485263e-39
0.14175215 0.15762155 0.87375009 8.3923485e-39
0.14425215 0.15512155 0.87375009 1.1894347e-38
0.14175215 0.15512155 0.87875009 8.02358e-39
0.14175215 0.15762155 0.87875009 7.3785665e-39
0.14175215 0.15762155 0.88125008 6.9175785e-39
0.14425215 0.15512155 0.87875009 1.2078018e-38
0.14425215 0.15512155 0.88125008 1.153058e-38
0.14425215 0.15762155 0.88125008 8.1154015e-39
0.13675216 0.15262155 0.88625008 1.0326655e-38
0.13675216 0.15012155 0.89125007 1.0326299e-38
0.13675216 0.15262155 0.88875008 1.0969505e-38
0.13675216 0.15262155 0.89125007 1.0417052e-38
0.13925216 0.15262155 0.89125007 1.0418854e-38
0.13675216 0.15512155 0.88375008 1.0509248e-38
0.13675216 0.15512155 0.88625008 1.0511769e-38
0.13925216 0.15512155 0.88625008 8.8500966e-39
0.13925216 0.15762155 0.88375008 8.5767552e-39
0.13925216 0.15762155 0.88625008 8.8533336e-39
0.13675216 0.15512155 0.88875008 1.0142633e-38
0.13675216 0.15512155 0.89125007 9.8656751e-39
0.13675216 0.15762155 0.88875008 9.9593112e-39
0.13675216 0.15762155 0.89125007 1.0050065e-38
0.13925216 0.15512155 0.89125007 9.9593112e-39
0.13925216 0.15762155 0.88875008 7.8420558e-39
0.13925216 0.15762155 0.89125007 8.2079642e-39
0.14425215 0.15012155 0.88625008 1.1619558e-38
0.14425215 0.15262155 0.88375008 1.161919e-38
0.14425215 0.15262155 0.88625008 1.1619912e-38
0.14425215 0.15012155 0.89125007 9.5908889e-39
0.14425215 0.15262155 0.88875008 8.6696528e-39
0.14425215 0.15262155 0.89125007 9.1306324e-39
0.14175215 0.15512155 0.88625008 8.1154043e-39
0.14175215 0.15762155 0.88375008 7.1016195e-39
0.14175215 0.15762155 0.88625008 7.2867198e-39
0.14425215 0.15512155 0.88375008 1.1619556e-38
0.14425215 0.15512155 0.88625008 8.576374e-39
0.14425215 0.15762155 0.88375008 8.0246394e-39
0.14425215 0.15762155 0.88625008 7.747342e-39
0.14175215 0.15512155 0.88875008 7.4693328e-39
0.14175215 0.15512155 0.89125007 7.654796e-39
0.14175215 0.15762155 0.88875008 7.1934676e-39
0.14175215 0.15762155 0.89125007 7.2852905e-39
0.14425215 0.15512155 0.88875008 8.2083174e-39
0.14425215 0.15762155 0.88875008 8.1154015e-39
0.13675216 0.16012155 0.87375009 8.1154015e-39
0.13675216 0.16262154 0.87375009 8.2083174e-39
0.13925216 0.16012155 0.87375009 7.5618816e-39
0.13925216 0.16262154 0.87375009 6.5509694e-39
0.13675216 0.16012155 0.87875009 8.1153987e-39
0.13675216 0.16262154 0.87875009 8.4852602e-39
0.13925216 0.16012155 0.87875009 7.7459197e-39
0.13925216 0.16262154 0.87875009 7.2856674e-39
0.13675216 0.16512154 0.87375009 8.2083202e-39
0.13925216 0.16512154 0.87375009 7.0133895e-39
0.14175215 0.16012155 0.87375009 8.5760237e-39
0.14175215 0.16262154 0.87375009 7.3789196e-39
0.14175215 0.16012155 0.87875009 7.0083546e-39
0.14175215 0.16012155 0.88125008 7.5625976e-39
0.14175215 0.16262154 0.87875009 5.9974453e-39
0.14425215 0.16012155 0.87875009 1.161884e-38
0.14425215 0.16012155 0.88125008 7.9317333e-39
0.14425215 0.16262154 0.87875009 1.171211e-38
0.14175215 0.16512154 0.87875009 8.2075985e-39
0.13675216 0.16012155 0.88625008 9.7752927e-39
0.13925216 0.16012155 0.88375008 7.7459197e-39
0.13925216 0.16012155 0.88625008 7.9317389e-39
0.14175215 0.16012155 0.88375008 7.3781895e-39
0.14175215 0.16012155 0.88625008 7.3771358e-39
0.14425215 0.16012155 0.88375008 8.3901905e-39
0.14425215 0.16012155 0.88625008 7.8398936e-39
0.14175215 0.16012155 0.88875008 8.0224996e-39
0.14425215 0.16012155 0.88875008 8.300513e-39
0.11925215 0.13262154 0.90875006 1.7784753e-38
0.11925215 0.13512155 0.90625006 1.7598916e-38
0.11925215 0.13512155 0.90875006 1.7140108e-38
0.11925215 0.13762155 0.90875006 1.704756e-38
0.12175215 0.13262154 0.90875006 1.529908e-38
0.12425216 0.13262154 0.90875006 1.2072233e-38
0.12175215 0.13512155 0.90625006 1.5022123e-38
0.12425216 0.13512155 0.90625006 1.0971668e-38
0.12425216 0.13762155 0.90375006 1.1432649e-38
0.12425216 0.13762155 0.90625006 1.1340448e-38
0.12175215 0.13512155 0.90875006 1.4838092e-38
0.12175215 0.13762155 0.90875006 1.5114318e-38
0.12425216 0.13512155 0.90875006 1.069616e-38
0.12425216 0.13762155 0.90875006 1.1799984e-38
0.12425216 0.14262155 0.89375007 1.1891832e-38
0.12425216 0.14262155 0.89625007 1.1982946e-38
0.12425216 0.14012155 0.89875007 1.161704e-38
0.12425216 0.14012155 0.90125006 1.115642e-38
0.12425216 0.14262155 0.89875007 1.1248978e-38
0.12425216 0.14262155 0.90125006 1.1156064e-38
0.12425216 0.14512154 0.89375007 1.1985464e-38
0.12425216 0.14512154 0.89625007 1.2445359e-38
0.12425216 0.14512154 0.89875007 1.170959e-38
0.12175215 0.14012155 0.90375006 1.2439207e-38
0.12175215 0.14262155 0.90375006 1.2441738e-38
0.12425216 0.14012155 0.90375006 1.1617038e-38
0.12425216 0.14012155 0.90625006 1.2256977e-38
0.12425216 0.14262155 0.90375006 1.1524489e-38
0.12425216 0.14262155 0.90625006 1.2626838e-38
0.12175215 0.14012155 0.90875006 1.4284542e-38
0.12425216 0.14012155 0.90875006 1.2441728e-38
0.11925215 0.13012154 0.91875005 1.8615586e-38
0.11925215 0.13262154 0.91875005 1.7968421e-38
0.11925215 0.13512155 0.91375005 1.8706708e-38
0.11925215 0.13512155 0.91875005 1.7968419e-38
0.12175215 0.13012154 0.91375005 1.5299433e-38
0.12175215 0.13262154 0.91375005 1.5115046e-38
0.12425216 0.13012154 0.91375005 1.2164781e-38
0.12425216 0.13262154 0.91375005 1.1519415e-38
0.12175215 0.13012154 0.91875005 1.732198e-38
0.12175215 0.13262154 0.91875005 1.74149e-38
0.12425216 0.13012154 0.91875005 1.2349177e-38
0.12425216 0.13262154 0.91875005 1.2349526e-38
0.12175215 0.13512155 0.91375005 1.750672e-38
0.12175215 0.13762155 0.91375005 1.7231207e-38
0.12425216 0.13512155 0.91375005 1.2071864e-38
0.12425216 0.13762155 0.91375005 1.2164416e-38
0.12175215 0.13512155 0.91875005 1.8153882e-38
0.12425216 0.13512155 0.91875005 1.2072583e-38
0.12425216 0.13762155 0.91875005 1.4746246e-38
0.12175215 0.13012154 0.92375004 1.74149e-38
0.12175215 0.13262154 0.92375004 1.8060617e-38
0.12425216 0.13012154 0.92375004 1.225698e-38
0.12425216 0.13262154 0.92375004 1.2902349e-38
0.12175215 0.13012154 0.92875004 1.7140456e-38
0.12175215 0.13512155 0.92375004 1.824608e-38
0.12425216 0.13762155 0.92375004 1.5576007e-38
0.12425216 0.14012155 0.91375005 1.2533178e-38
0.12925215 0.13762155 0.90125006 1.2170564e-38
0.13175215 0.13762155 0.90125006 1.1340804e-38
0.12925215 0.13262154 0.90875006 1.2813763e-38
0.12675215 0.13762155 0.90375006 1.2078369e-38
0.12675215 0.13762155 0.90625006 1.2445353e-38
0.12925215 0.13512155 0.90625006 1.2353158e-38
0.12925215 0.13762155 0.90375006 1.2170564e-38
0.12925215 0.13762155 0.90625006 1.2537549e-38
0.12675215 0.13512155 0.90875006 1.1802508e-38
0.12675215 0.13762155 0.90875006 1.2170567e-38
0.12925215 0.13512155 0.90875006 1.2260962e-38
0.12925215 0.13762155 0.90875006 1.2905978e-38
0.13175215 0.13262154 0.90875006 1.2629019e-38
0.13175215 0.13512155 0.90625006 1.1707788e-38
0.13175215 0.13762155 0.90375006 1.1339366e-38
0.13175215 0.13762155 0.90625006 1.1615593e-38
0.13425215 0.13762155 0.90375006 1.1340451e-38
0.13425215 0.13762155 0.90625006 1.0879475e-38
0.13175215 0.13512155 0.90875006 1.1432999e-38
0.13175215 0.13762155 0.90875006 1.2445356e-38
0.13425215 0.13512155 0.90875006 1.1062071e-38
0.13425215 0.13762155 0.90875006 1.106457e-38
0.12675215 0.14262155 0.89375007 1.1801436e-38
0.12675215 0.14262155 0.89625007 1.1617761e-38
0.12925215 0.14262155 0.89375007 1.1802508e-38
0.12925215 0.14262155 0.89625007 1.1894703e-38
0.12675215 0.14012155 0.89875007 1.1985817e-38
0.12675215 0.14012155 0.90125006 1.1802505e-38
0.12675215 0.14262155 0.89875007 1.1341895e-38
0.12675215 0.14262155 0.90125006 1.1985464e-38
0.12925215 0.14012155 0.89875007 1.1986896e-38
0.12925215 0.14012155 0.90125006 1.1894701e-38
0.12925215 0.14262155 0.89875007 1.1528439e-38
0.12925215 0.14262155 0.90125006 1.2263127e-38
0.12675215 0.14512154 0.89375007 1.2078744e-38
0.12925215 0.14512154 0.89375007 1.1801799e-38
0.13175215 0.14262155 0.89375007 1.1433725e-38
0.13175215 0.14262155 0.89625007 1.1156066e-38
0.13175215 0.14012155 0.89875007 1.161811e-38
0.13175215 0.14012155 0.90125006 1.1341527e-38
0.13175215 0.14262155 0.89875007 1.1618114e-38
0.13175215 0.14262155 0.90125006 1.1710309e-38
0.13425215 0.14012155 0.90125006 1.1063871e-38
0.13425215 0.14262155 0.89875007 1.1340451e-38
0.13425215 0.14262155 0.90125006 1.1617038e-38
0.13175215 0.14512154 0.89375007 1.1615242e-38
0.13175215 0.14512154 0.89625007 1.0972041e-38
0.13175215 0.14762154 0.89375007 1.1063868e-38
0.13175215 0.14762154 0.89625007 1.115642e-38
0.13425215 0.14512154 0.89625007 9.9557211e-39
0.13425215 0.14762154 0.89375007 9.7731291e-39
0.13425215 0.14762154 0.89625007 9.5887365e-39
0.13175215 0.14512154 0.89875007 1.1801786e-38
0.13425215 0.14512154 0.89875007 9.5887365e-39
0.13425215 0.14512154 0.90125006 9.4972695e-39
0.13425215 0.14762154 0.89875007 9.5887365e-39
0.13425215 0.14762154 0.90125006 9.6809293e-39
0.12675215 0.14012155 0.90375006 1.244464e-38
0.12675215 0.14012155 0.90625006 1.198582e-38
0.12925215 0.14012155 0.90375006 1.2905981e-38
0.12925215 0.14012155 0.90625006 1.3275467e-38
0.13175215 0.14012155 0.90375006 1.198582e-38
0.13175215 0.14012155 0.90625006 1.1801783e-38
0.13425215 0.14012155 0.90375006 1.0879472e-38
0.13425215 0.14012155 0.90625006 1.1063868e-38
0.13425215 0.14262155 0.90375006 1.1063871e-38
0.13425215 0.14262155 0.90625006 1.1063868e-38
0.13425215 0.14012155 0.90875006 1.1340095e-38
0.13425215 0.14512154 0.90375006 9.4961849e-39
0.13425215 0.14762154 0.90375006 1.0049712e-38
0.13675216 0.13762155 0.90625006 1.0049712e-38
0.13675216 0.13512155 0.90875006 1.0877321e-38
0.13675216 0.13762155 0.90875006 1.0049712e-38
0.13925216 0.13512155 0.90875006 1.0787274e-38
0.13925216 0.13762155 0.90875006 1.0234459e-38
0.13675216 0.14762154 0.89375007 9.6809293e-39
0.13675216 0.14762154 0.89625007 9.5887337e-39
0.13675216 0.14512154 0.89875007 9.6809321e-39
0.13675216 0.14512154 0.90125006 9.6805818e-39
0.13675216 0.14762154 0.89875007 9.6809349e-39
0.13675216 0.14762154 0.90125006 9.5890896e-39
0.13925216 0.14762154 0.90125006 1.0049712e-38
0.14425215 0.14512154 0.89625007 1.0696529e-38
0.14425215 0.14762154 0.89375007 1.0421368e-38
0.14425215 0.14762154 0.89625007 1.069616e-38
0.14425215 0.14512154 0.90125006 8.7600268e-39
0.14425215 0.14762154 0.89875007 8.298348e-39
0.14425215 0.14762154 0.90125006 8.2079516e-39
0.13675216 0.14012155 0.90625006 1.0049356e-38
0.13675216 0.14262155 0.90625006 9.9557239e-39
0.13925216 0.14262155 0.90625006 1.0416699e-38
0.13675216 0.14012155 0.90875006 9.7731319e-39
0.13925216 0.14012155 0.90875006 1.0141554e-38
0.13925216 0.14262155 0.90875006 9.7727788e-39
0.13675216 0.14512154 0.90375006 9.9553736e-39
0.13675216 0.14512154 0.90625006 9.6787811e-39
0.13675216 0.14762154 0.90375006 9.2199553e-39
0.13675216 0.14762154 0.90625006 9.4958318e-39
0.13925216 0.14512154 0.90625006 1.0047921e-38
0.13925216 0.14762154 0.90375006 1.0141905e-38
0.13925216 0.14762154 0.90625006 1.0141554e-38
0.13675216 0.14512154 0.90875006 9.6809349e-39
0.13925216 0.14512154 0.90875006 1.0047924e-38
0.13925216 0.14762154 0.90875006 9.6805818e-39
0.14425215 0.14262155 0.90375006 8.9487396e-39
0.14425215 0.14262155 0.90625006 9.8692512e-39
0.14175215 0.14262155 0.90875006 7.1923704e-39
0.14425215 0.14012155 0.90875006 5.8122904e-39
0.14425215 0.14262155 0.90875006 6.1799967e-39
0.14175215 0.14762154 0.90625006 1.0234106e-38
0.14425215 0.14512154 0.90375006 7.9353234e-39
0.14425215 0.14512154 0.90625006 8.8540399e-39
0.14425215 0.14762154 0.90375006 8.3008479e-39
0.14425215 0.14762154 0.90625006 6.1796464e-39
0.14175215 0.14512154 0.90875006 7.2852877e-39
0.14175215 0.14762154 0.90875006 7.5600767e-39
0.14425215 0.14512154 0.90875006 6.2725623e-39
0.14425215 0.14762154 0.90875006 6.272544e-39
0.12675215 0.13262154 0.91375005 1.226276e-38
0.12925215 0.13262154 0.91375005 1.2443556e-38
0.12675215 0.13012154 0.91875005 1.1802136e-38
0.12675215 0.13262154 0.91875005 1.2169114e-38
0.12925215 0.13012154 0.91875005 1.2260609e-38
0.12925215 0.13262154 0.91875005 1.2260246e-38
0.12675215 0.13512155 0.91375005 1.1802139e-38
0.12675215 0.13762155 0.91375005 1.1524842e-38
0.12925215 0.13512155 0.91375005 1.290526e-38
0.12675215 0.13512155 0.91875005 1.1709235e-38
0.13175215 0.13262154 0.91375005 1.2996728e-38
0.13425215 0.13262154 0.91375005 1.1799618e-38
0.13175215 0.13012154 0.91875005 1.2354256e-38
0.13175215 0.13262154 0.91875005 1.2352442e-38
0.13425215 0.13012154 0.91875005 1.1982946e-38
0.13425215 0.13262154 0.91875005 1.1890382e-38
0.13175215 0.13512155 0.91375005 1.3365515e-38
0.13425215 0.13512155 0.91375005 1.1614521e-38
0.12675215 0.13012154 0.92375004 1.1707788e-38
0.12675215 0.13262154 0.92375004 1.1524492e-38
0.12925215 0.13012154 0.92375004 1.2352805e-38
0.13175215 0.13012154 0.92375004 1.2537555e-38
0.13425215 0.13012154 0.92375004 1.0971671e-38
0.13425215 0.13262154 0.92375004 1.1340095e-38
0.13675216 0.13262154 0.91375005 1.0876956e-38
0.13675216 0.13012154 0.91875005 2.0088573e-38
0.13675216 0.13262154 0.91875005 1.0600362e-38
0.13925216 0.13262154 0.91875005 1.1428665e-38
0.13675216 0.13512155 0.91375005 1.0139036e-38
0.13675216 0.13762155 0.91375005 1.1522678e-38
0.13925216 0.13512155 0.91375005 1.0324504e-38
0.13925216 0.13762155 0.91375005 1.0234459e-38
0.13675216 0.13512155 0.91875005 1.0323782e-38
0.13925216 0.13512155 0.91875005 1.0139392e-38
0.14175215 0.13262154 0.91875005 1.1891441e-38
0.14425215 0.13762155 0.91375005 7.4664167e-39
0.14175215 0.13512155 0.91875005 1.0970223e-38
0.14175215 0.13762155 0.91875005 1.0879826e-38
0.14425215 0.13762155 0.91875005 8.4812973e-39
0.13675216 0.13012154 0.92375004 1.5017088e-38
0.13675216 0.13262154 0.92375004 1.4006876e-38
0.13925216 0.13012154 0.92375004 1.9074768e-38
0.13925216 0.13262154 0.92375004 1.1059179e-38
0.13925216 0.13512155 0.92375004 1.0600365e-38
0.14175215 0.13012154 0.92375004 1.8705986e-38
0.14175215 0.13262154 0.92375004 1.1427962e-38
0.14425215 0.13262154 0.92375004 1.1979321e-38
0.14425215 0.13262154 0.92875004 1.5019253e-38
0.14175215 0.13512155 0.92375004 1.0046838e-38
0.14175215 0.13762155 0.92375004 1.0326655e-38
0.14425215 0.13512155 0.92375004 9.4014739e-39
0.14425215 0.13762155 0.92375004 9.3139418e-39
0.14425215 0.13512155 0.92875004 9.4025515e-39
0.14425215 0.13762155 0.92875004 9.4986932e-39
0.13925216 0.14012155 0.91375005 1.0508898e-38
0.13925216 0.14262155 0.91375005 1.0510694e-38
0.14175215 0.14012155 0.91375005 9.6834376e-39
0.14175215 0.14262155 0.91375005 9.4979842e-39
0.14425215 0.14012155 0.91375005 6.6391868e-39
0.14425215 0.14262155 0.91375005 6.6399182e-39
0.14175215 0.14012155 0.91875005 9.4986932e-39
0.14175215 0.14262155 0.91875005 9.7734851e-39
0.14425215 0.14012155 0.91875005 6.3640418e-39
0.14425215 0.14262155 0.91875005 6.9150604e-39
0.14175215 0.14512154 0.91375005 9.3146719e-39
0.14175215 0.14762154 0.91375005 9.1306268e-39
0.14425215 0.14512154 0.91375005 6.7331943e-39
0.14425215 0.14762154 0.91375005 6.2725623e-39
0.14175215 0.14012155 0.92375004 1.1062066e-38
0.14425215 0.14012155 0.92375004 7.1920046e-39
0.14425215 0.14012155 0.92875004 9.4983373e-39
0.13425215 0.15012155 0.89375007 9.4972667e-39
0.13425215 0.15012155 0.90375006 1.0325948e-38
0.13675216 0.15012155 0.89375007 9.0384311e-39
0.13675216 0.15012155 0.89625007 9.6809349e-39
0.13675216 0.15262155 0.89375007 1.0142608e-38
0.13675216 0.15262155 0.89625007 9.5890868e-39
0.13925216 0.15262155 0.89375007 1.0328822e-38
0.13925216 0.15262155 0.89625007 9.6834474e-39
0.13675216 0.15012155 0.89875007 9.496538e-39
0.13675216 0.15012155 0.90125006 9.496538e-39
0.13675216 0.15262155 0.89875007 1.0326652e-38
0.13925216 0.15012155 0.89875007 1.0510694e-38
0.13925216 0.15012155 0.90125006 1.0049712e-38
0.13925216 0.15262155 0.89875007 9.6827286e-39
0.13925216 0.15262155 0.90125006 1.0049709e-38
0.13675216 0.15512155 0.89375007 9.7734851e-39
0.13675216 0.15512155 0.89625007 9.7734795e-39
0.13675216 0.15762155 0.89375007 1.0049356e-38
0.13675216 0.15762155 0.89625007 1.0511044e-38
0.13925216 0.15512155 0.89375007 9.8660436e-39
0.13925216 0.15512155 0.89625007 9.6834502e-39
0.13925216 0.15762155 0.89375007 8.023203e-39
0.13925216 0.15762155 0.89625007 9.5912546e-39
0.13925216 0.15512155 0.89875007 1.005044e-38
0.13925216 0.15512155 0.90125006 1.0142639e-38
0.13925216 0.15762155 0.89875007 1.0419215e-38
0.14175215 0.15262155 0.89625007 6.3665726e-39
0.14425215 0.15012155 0.89375007 9.4990394e-39
0.14425215 0.15012155 0.89625007 1.0051507e-38
0.14425215 0.15262155 0.89375007 8.1150511e-39
0.14425215 0.15262155 0.89625007 7.747342e-39
0.14175215 0.15012155 0.89875007 6.6402714e-39
0.14175215 0.15012155 0.90125006 8.1136064e-39
0.14175215 0.15262155 0.89875007 6.5487988e-39
0.14175215 0.15262155 0.90125006 7.8377398e-39
0.14425215 0.15012155 0.89875007 8.2997941e-39
0.14425215 0.15012155 0.90125006 8.2079348e-39
0.14425215 0.15262155 0.89875007 7.7480427e-39
0.14175215 0.15512155 0.89375007 7.0094266e-39
0.14175215 0.15512155 0.89625007 8.1146854e-39
0.14175215 0.15762155 0.89375007 7.1016097e-39
0.14175215 0.15762155 0.89625007 7.3789196e-39
0.14425215 0.15512155 0.89375007 7.5633011e-39
0.14425215 0.15512155 0.89625007 7.839888e-39
0.14425215 0.15762155 0.89375007 7.7469791e-39
0.14175215 0.15512155 0.89875007 8.2061523e-39
0.14175215 0.15512155 0.90125006 7.5622291e-39
0.13675216 0.15012155 0.90375006 9.221749e-39
0.13925216 0.15012155 0.90375006 1.023375e-38
0.13925216 0.15012155 0.90625006 9.8653276e-39
0.13925216 0.15262155 0.90375006 9.773848e-39
0.13925216 0.15262155 0.90625006 9.5912518e-39
0.13925216 0.15012155 0.90875006 1.069329e-38
0.14175215 0.15012155 0.90375006 7.5622291e-39
0.14175215 0.15012155 0.90625006 7.7448267e-39
0.14175215 0.15262155 0.90625006 9.8653248e-39
0.14425215 0.15012155 0.90375006 5.8104897e-39
0.14425215 0.15012155 0.90625006 6.7335208e-39
0.14175215 0.15012155 0.90875006 9.8653276e-39
0.14425215 0.15012155 0.90875006 6.640972e-39
0.13925216 0.16012155 0.89375007 9.867494e-39
0.13925216 0.16012155 0.89625007 1.0788359e-38
0.14675215 0.16262154 0.84875005 1.373393e-38
0.14675215 0.16262154 0.85125005 1.2996009e-38
0.14925215 0.16012155 0.85125005 1.1521577e-38
0.14925215 0.16262154 0.84875005 1.4283836e-38
0.14925215 0.16262154 0.85125005 1.4837713e-38
0.14675215 0.16512154 0.84625006 1.4190176e-38
0.14675215 0.16762155 0.84625006 7.2809408e-39
0.14925215 0.16512154 0.84625006 1.3453703e-38
0.14925215 0.16762155 0.84625006 1.2435942e-38
0.14675215 0.16512154 0.84875005 1.0963368e-38
0.14675215 0.16512154 0.85125005 1.3636316e-38
0.14675215 0.16762155 0.84875005 8.1974853e-39
0.14675215 0.16762155 0.85125005 8.7506591e-39
0.14925215 0.16512154 0.84875005 1.280974e-38
0.14925215 0.16512154 0.85125005 1.2439944e-38
0.14925215 0.16762155 0.84875005 1.1977105e-38
0.14925215 0.16762155 0.85125005 1.3080932e-38
0.15175216 0.16012155 0.84625006 1.6310692e-38
0.15175216 0.16262154 0.84625006 1.5665679e-38
0.15425216 0.16012155 0.84625006 1.7601431e-38
0.15425216 0.16262154 0.84625006 1.7968775e-38
0.15175216 0.16012155 0.85125005 1.723336e-38
0.15175216 0.16262154 0.84875005 1.5389811e-38
0.15175216 0.16262154 0.85125005 1.4468931e-38
0.15425216 0.16262154 0.84875005 1.7879093e-38
0.15425216 0.16262154 0.85125005 1.8708135e-38
0.15175216 0.16512154 0.84625006 1.5389816e-38
0.15175216 0.16762155 0.84625006 1.5759319e-38
0.15425216 0.16512154 0.84625006 1.7969128e-38
0.15425216 0.16762155 0.84375006 1.8707412e-38
0.15425216 0.16762155 0.84625006 1.7784379e-38
0.15175216 0.16512154 0.84875005 1.5389814e-38
0.15175216 0.16512154 0.85125005 1.5020307e-38
0.15175216 0.16762155 0.84875005 1.5389816e-38
0.15425216 0.16512154 0.84875005 1.760251e-38
0.15425216 0.16512154 0.85125005 1.8708135e-38
0.15425216 0.16762155 0.84875005 1.7970235e-38
0.15675215 0.16262154 0.84875005 1.8429748e-38
0.15675215 0.16512154 0.84625006 1.7600345e-38
0.15675215 0.16762155 0.84375006 1.8707412e-38
0.15675215 0.16762155 0.84625006 1.7507794e-38
0.15675215 0.16512154 0.84875005 1.8152087e-38
0.14925215 0.12762155 0.91375005 1.1802508e-38
0.15175216 0.12762155 0.91375005 1.1801436e-38
0.15175216 0.12762155 0.91875005 1.2168767e-38
0.15425216 0.12762155 0.91875005 1.1984734e-38
0.15175216 0.12762155 0.92375004 1.226241e-38
0.15425216 0.12762155 0.92375004 1.1709235e-38
0.15675215 0.12762155 0.91875005 1.0142261e-38
0.15925215 0.12762155 0.91875005 1.1334299e-38
0.15675215 0.12762155 0.92375004 1.0141907e-38
0.15925215 0.12762155 0.92375004 1.1610907e-38
0.15175216 0.14512154 0.86125004 1.3269691e-38
0.15175216 0.14762154 0.85875005 1.2808353e-38
0.15175216 0.14762154 0.86125004 1.2809079e-38
0.15425216 0.14512154 0.85875005 1.6588354e-38
0.15425216 0.14512154 0.86125004 1.6956065e-38
0.15425216 0.14762154 0.85875005 1.5666417e-38
0.15425216 0.14762154 0.86125004 1.6217776e-38
0.15175216 0.14262155 0.86375004 1.3638113e-38
0.15175216 0.14512154 0.86375004 1.2994549e-38
0.15425216 0.14762154 0.86375004 1.677095e-38
0.15175216 0.14762154 0.87125009 1.0694728e-38
0.15675215 0.14762154 0.85875005 1.6953894e-38
0.14925215 0.14762154 0.88125008 1.1524492e-38
0.15175216 0.14762154 0.87375009 1.0693643e-38
0.15175216 0.14762154 0.88125008 1.1616687e-38
0.15425216 0.14762154 0.87875009 1.3084945e-38
0.14675215 0.14762154 0.88625008 1.1894347e-38
0.14925215 0.14762154 0.88375008 1.1524845e-38
0.14925215 0.14762154 0.88625008 1.1617763e-38
0.14675215 0.14512154 0.88875008 1.1617758e-38
0.14675215 0.14512154 0.89125007 1.1985464e-38
0.14675215 0.14762154 0.88875008 1.1801433e-38
0.14675215 0.14762154 0.89125007 1.1894701e-38
0.14925215 0.14512154 0.88875008 1.1617761e-38
0.14925215 0.14512154 0.89125007 1.1709237e-38
0.14925215 0.14762154 0.88875008 1.1616687e-38
0.14925215 0.14762154 0.89125007 1.1526288e-38
0.15175216 0.14262155 0.89125007 1.1709235e-38
0.15425216 0.14262155 0.89125007 1.1706716e-38
0.15175216 0.14762154 0.88375008 1.1341532e-38
0.15175216 0.14762154 0.88625008 1.1617038e-38
0.15425216 0.14762154 0.88375008 1.0788359e-38
0.15425216 0.14762154 0.88625008 9.6816496e-39
0.15175216 0.14512154 0.88875008 1.1433728e-38
0.15175216 0.14512154 0.89125007 1.1617043e-38
0.15175216 0.14762154 0.88875008 1.1616687e-38
0.15175216 0.14762154 0.89125007 1.1434095e-38
0.15425216 0.14512154 0.88875008 1.078728e-38
0.15425216 0.14512154 0.89125007 1.0877677e-38
0.15425216 0.14762154 0.88875008 1.0695081e-38
0.15425216 0.14762154 0.89125007 1.078728e-38
0.15675215 0.14262155 0.89125007 1.400581e-38
0.15675215 0.14762154 0.88375008 1.3177505e-38
0.15675215 0.14762154 0.88625008 1.2902346e-38
0.15675215 0.14512154 0.88875008 1.345265e-38
0.15675215 0.14512154 0.89125007 1.3913258e-38
0.15675215 0.14762154 0.88875008 1.2349898e-38
0.15675215 0.14762154 0.89125007 1.2716886e-38
0.15925215 0.14512154 0.89125007 1.6311073e-38
0.14925215 0.15762155 0.85625005 1.0696157e-38
0.14675215 0.15762155 0.85875005 1.1987265e-38
0.14675215 0.15762155 0.86125004 1.134153e-38
0.14925215 0.15762155 0.85875005 1.0328451e-38
0.14925215 0.15762155 0.86125004 1.0696157e-38
0.15175216 0.15012155 0.85875005 1.179456e-38
0.15175216 0.15012155 0.86125004 1.2071166e-38
0.15175216 0.15262155 0.86125004 1.1701286e-38
0.15425216 0.15012155 0.85875005 1.5572044e-38
0.15425216 0.15012155 0.86125004 1.5110002e-38
0.15425216 0.15262155 0.85875005 1.6126657e-38
0.15425216 0.15262155 0.86125004 1.548166e-38
0.15175216 0.15762155 0.85625005 1.438e-38
0.15175216 0.15762155 0.85875005 1.4748076e-38
0.15175216 0.15762155 0.86125004 1.1060251e-38
0.15425216 0.15762155 0.85875005 1.4932824e-38
0.15425216 0.15762155 0.86125004 1.4932468e-38
0.14675215 0.15262155 0.8687501 1.1065669e-38
0.14675215 0.15262155 0.87125009 1.1341895e-38
0.14925215 0.15262155 0.8687501 1.0973473e-38
0.14925215 0.15262155 0.87125009 1.1524842e-38
0.14675215 0.15512155 0.86375004 1.1433728e-38
0.14675215 0.15512155 0.86625004 1.1341177e-38
0.14675215 0.15762155 0.86375004 1.1433372e-38
0.14675215 0.15762155 0.86625004 1.1986902e-38
0.14925215 0.15512155 0.86375004 1.1618114e-38
0.14925215 0.15512155 0.86625004 1.1525198e-38
0.14925215 0.15762155 0.86375004 1.1617758e-38
0.14925215 0.15762155 0.86625004 1.1894347e-38
0.14675215 0.15512155 0.8687501 1.161741e-38
0.14675215 0.15512155 0.87125009 1.1802152e-38
0.14925215 0.15512155 0.8687501 1.1801433e-38
0.14925215 0.15512155 0.87125009 1.1802152e-38
0.15175216 0.15012155 0.86375004 1.1425444e-38
0.15175216 0.15262155 0.86375004 1.1334299e-38
0.15425216 0.15012155 0.86375004 1.4466061e-38
0.15425216 0.15012155 0.86625004 1.4837383e-38
0.15425216 0.15262155 0.86375004 1.5022123e-38
0.15425216 0.15262155 0.86625004 1.5480234e-38
0.15175216 0.15012155 0.87125009 1.0325948e-38
0.15175216 0.15262155 0.8687501 1.0049712e-38
0.15175216 0.15262155 0.87125009 9.7734851e-39
0.15425216 0.15012155 0.87125009 1.5113968e-38
0.15425216 0.15262155 0.8687501 1.5295843e-38
0.15425216 0.15262155 0.87125009 1.4374978e-38
0.15175216 0.15512155 0.86375004 1.0322318e-38
0.15175216 0.15512155 0.86625004 1.1149206e-38
0.15175216 0.15762155 0.86375004 1.1425794e-38
0.15425216 0.15512155 0.86375004 1.6407225e-38
0.15425216 0.15512155 0.86625004 1.5485273e-38
0.15425216 0.15762155 0.86375004 1.5302682e-38
0.15425216 0.15762155 0.86625004 1.5116866e-38
0.15175216 0.15512155 0.8687501 1.0235555e-38
0.15175216 0.15512155 0.87125009 1.0327022e-38
0.15425216 0.15512155 0.8687501 1.5210115e-38
0.15425216 0.15512155 0.87125009 1.6776012e-38
0.15425216 0.15762155 0.87125009 1.6407578e-38
0.14675215 0.16012155 0.85375005 1.1524842e-38
0.14675215 0.16012155 0.85625005 1.1524845e-38
0.14675215 0.16262154 0.85375005 1.1340448e-38
0.14675215 0.16262154 0.85625005 1.1709235e-38
0.14925215 0.16012155 0.85375005 1.0967687e-38
0.14925215 0.16012155 0.85625005 1.0603962e-38
0.14925215 0.16262154 0.85375005 1.0415222e-38
0.14675215 0.16012155 0.85875005 1.1433725e-38
0.14675215 0.16012155 0.86125004 1.1617763e-38
0.14675215 0.16262154 0.85875005 1.1801786e-38
0.14675215 0.16262154 0.86125004 1.1799634e-38
0.14925215 0.16012155 0.85875005 1.189435e-38
0.14675215 0.16512154 0.85375005 1.2444988e-38
0.14675215 0.16512154 0.85625005 1.2998164e-38
0.14675215 0.16762155 0.85375005 1.0225803e-38
0.15175216 0.16012155 0.85375005 1.3456969e-38
0.15175216 0.16012155 0.85625005 1.428673e-38
0.15175216 0.16262154 0.85375005 1.3733924e-38
0.15425216 0.16012155 0.85375005 1.6496161e-38
0.15425216 0.16012155 0.85625005 1.6589084e-38
0.15425216 0.16262154 0.85375005 1.7507068e-38
0.15175216 0.16012155 0.85875005 1.1426144e-38
0.15425216 0.16012155 0.85875005 1.5025016e-38
0.15675215 0.15012155 0.86625004 1.5019233e-38
0.15675215 0.15262155 0.86625004 1.5021033e-38
0.15675215 0.15012155 0.87125009 1.5572407e-38
0.15675215 0.15262155 0.8687501 1.6310692e-38
0.15675215 0.15262155 0.87125009 1.4925593e-38
0.15675215 0.15512155 0.86625004 1.7325206e-38
0.15675215 0.15762155 0.86625004 1.7325566e-38
0.14675215 0.15012155 0.87375009 1.235461e-38
0.14675215 0.15262155 0.87375009 1.12497e-38
0.14925215 0.15012155 0.87375009 1.1341179e-38
0.14925215 0.15262155 0.87375009 1.12497e-38
0.14675215 0.15012155 0.87875009 1.2540789e-38
0.14675215 0.15012155 0.88125008 1.1617761e-38
0.14675215 0.15262155 0.87875009 1.1342248e-38
0.14675215 0.15262155 0.88125008 1.1711035e-38
0.14925215 0.15012155 0.87875009 1.1524494e-38
0.14925215 0.15012155 0.88125008 1.1433728e-38
0.14925215 0.15262155 0.87875009 1.1708887e-38
0.14925215 0.15262155 0.88125008 1.1801436e-38
0.15175216 0.15012155 0.87375009 1.051105e-38
0.15175216 0.15262155 0.87375009 1.1432646e-38
0.15425216 0.15012155 0.87375009 1.2256627e-38
0.15425216 0.15262155 0.87375009 1.4745906e-38
0.15175216 0.15012155 0.87875009 1.134153e-38
0.15175216 0.15012155 0.88125008 1.1341532e-38
0.15175216 0.15262155 0.87875009 1.1799634e-38
0.15425216 0.15012155 0.87875009 1.1521582e-38
0.15425216 0.15012155 0.88125008 1.2164078e-38
0.15425216 0.15262155 0.87875009 1.2345955e-38
0.15425216 0.15512155 0.87375009 1.6684538e-38
0.15425216 0.15762155 0.87375009 1.6222844e-38
0.14675215 0.15012155 0.88375008 1.1895066e-38
0.14675215 0.15012155 0.88625008 1.2078018e-38
0.14675215 0.15262155 0.88375008 1.1895422e-38
0.14675215 0.15262155 0.88625008 1.1894347e-38
0.14925215 0.15012155 0.88375008 1.1709956e-38
0.14925215 0.15012155 0.88625008 1.1709603e-38
0.14925215 0.15262155 0.88375008 1.1985114e-38
0.14925215 0.15262155 0.88625008 1.1709603e-38
0.14675215 0.15012155 0.88875008 1.1711391e-38
0.14675215 0.15012155 0.89125007 1.1619193e-38
0.14675215 0.15262155 0.88875008 1.2080534e-38
0.14675215 0.15762155 0.88875008 1.171211e-38
0.15175216 0.15012155 0.88375008 1.1524842e-38
0.15425216 0.15012155 0.88375008 9.8663996e-39
0.15425216 0.15012155 0.88625008 1.0051512e-38
0.15425216 0.15012155 0.89125007 9.8660436e-39
0.15675215 0.15012155 0.87375009 1.5483474e-38
0.15675215 0.15262155 0.87375009 1.4192034e-38
0.15675215 0.15012155 0.87875009 1.456404e-38
0.15675215 0.15012155 0.88125008 1.4933174e-38
0.15675215 0.15262155 0.87875009 1.5388411e-38
0.15675215 0.15512155 0.87375009 1.5850814e-38
0.15675215 0.15012155 0.88375008 1.2349898e-38
0.15675215 0.15012155 0.88625008 1.2441022e-38
0.15675215 0.15262155 0.88625008 1.4745187e-38
0.15675215 0.15012155 0.88875008 1.2257347e-38
0.15675215 0.15012155 0.89125007 1.2349545e-38
0.15925215 0.15012155 0.88875008 1.5391278e-38
0.15925215 0.15012155 0.89125007 1.6405787e-38
0.15925215 0.15262155 0.88875008 1.6678048e-38
0.15175216 0.13762155 0.90125006 1.1617393e-38
0.15425216 0.13512155 0.89875007 1.087586e-38
0.15425216 0.13512155 0.90125006 1.0971671e-38
0.15425216 0.13762155 0.89875007 1.1520508e-38
0.15425216 0.13762155 0.90125006 1.1064221e-38
0.14675215 0.13262154 0.90875006 1.1709956e-38
0.14925215 0.13262154 0.90875006 1.226313e-38
0.14675215 0.13762155 0.90625006 1.1617763e-38
0.14925215 0.13512155 0.90625006 1.1708884e-38
0.14925215 0.13762155 0.90375006 1.2168411e-38
0.14925215 0.13762155 0.90625006 1.1984029e-38
0.14675215 0.13512155 0.90875006 1.1799634e-38
0.14675215 0.13762155 0.90875006 1.1340095e-38
0.14925215 0.13512155 0.90875006 1.1984026e-38
0.14925215 0.13762155 0.90875006 1.1709953e-38
0.15175216 0.13012154 0.90875006 1.2170567e-38
0.15175216 0.13262154 0.90875006 1.1799637e-38
0.15425216 0.13262154 0.90875006 1.1801436e-38
0.15175216 0.13512155 0.90375006 1.1433725e-38
0.15175216 0.13512155 0.90625006 1.1616687e-38
0.15175216 0.13762155 0.90375006 1.1709235e-38
0.15175216 0.13762155 0.90625006 1.1617758e-38
0.15425216 0.13512155 0.90375006 1.0972388e-38
0.15425216 0.13512155 0.90625006 1.0787274e-38
0.15425216 0.13762155 0.90375006 1.0971671e-38
0.15425216 0.13762155 0.90625006 1.0695081e-38
0.15175216 0.13512155 0.90875006 1.1524842e-38
0.15175216 0.13762155 0.90875006 1.1617038e-38
0.15425216 0.13512155 0.90875006 1.0879472e-38
0.15425216 0.13762155 0.90875006 1.1987621e-38
0.14675215 0.14262155 0.89625007 1.1710682e-38
0.14925215 0.14262155 0.89625007 1.1341527e-38
0.14675215 0.14262155 0.90125006 1.1802155e-38
0.14925215 0.14012155 0.89875007 1.2260962e-38
0.14925215 0.14012155 0.90125006 1.2352442e-38
0.14925215 0.14262155 0.89875007 1.1434081e-38
0.14925215 0.14262155 0.90125006 1.1617758e-38
0.14675215 0.14512154 0.89375007 1.1895072e-38
0.14675215 0.14512154 0.89625007 1.1709956e-38
0.14675215 0.14762154 0.89375007 1.1895072e-38
0.14675215 0.14762154 0.89625007 1.1894701e-38
0.14925215 0.14512154 0.89375007 1.1618114e-38
0.14925215 0.14512154 0.89625007 1.1709235e-38
0.14925215 0.14762154 0.89375007 1.1986902e-38
0.14925215 0.14762154 0.89625007 1.1617758e-38
0.14675215 0.14512154 0.89875007 1.1802155e-38
0.14675215 0.14512154 0.90125006 1.0419217e-38
0.14675215 0.14762154 0.89875007 1.0696157e-38
0.14675215 0.14762154 0.90125006 1.0972744e-38
0.14925215 0.14512154 0.89875007 1.1617038e-38
0.14925215 0.14512154 0.90125006 1.1986896e-38
0.15175216 0.14262155 0.89375007 1.1064584e-38
0.15175216 0.14262155 0.89625007 1.170959e-38
0.15425216 0.14012155 0.89625007 1.1520861e-38
0.15425216 0.14262155 0.89375007 1.1706719e-38
0.15425216 0.14262155 0.89625007 1.1525198e-38
0.15175216 0.14012155 0.89875007 1.1617391e-38
0.15175216 0.14012155 0.90125006 1.1618114e-38
0.15175216 0.14262155 0.89875007 1.1434081e-38
0.15175216 0.14262155 0.90125006 1.1433725e-38
0.15425216 0.14012155 0.89875007 1.1244273e-38
0.15425216 0.14012155 0.90125006 1.1340451e-38
0.15425216 0.14262155 0.89875007 1.1243563e-38
0.15425216 0.14262155 0.90125006 1.1432646e-38
0.15175216 0.14512154 0.89375007 1.198582e-38
0.15175216 0.14512154 0.89625007 1.1987621e-38
0.15175216 0.14762154 0.89375007 1.1617761e-38
0.15425216 0.14512154 0.89375007 1.2075495e-38
0.15425216 0.14512154 0.89625007 1.1986546e-38
0.15175216 0.14512154 0.89875007 1.2354256e-38
0.15425216 0.14512154 0.89875007 1.1617038e-38
0.14675215 0.14012155 0.90625006 1.2167341e-38
0.14675215 0.14262155 0.90375006 1.106459e-38
0.14675215 0.14262155 0.90625006 1.1157138e-38
0.14925215 0.14012155 0.90375006 1.1618837e-38
0.14925215 0.14012155 0.90625006 1.1709956e-38
0.14925215 0.14262155 0.90375006 1.1709953e-38
0.14925215 0.14262155 0.90625006 1.2170214e-38
0.14675215 0.14012155 0.90875006 1.1248978e-38
0.14675215 0.14262155 0.90875006 9.683432e-39
0.14925215 0.14012155 0.90875006 1.2078744e-38
0.14675215 0.14512154 0.90375006 1.0880921e-38
0.14675215 0.14512154 0.90625006 1.1709237e-38
0.14675215 0.14762154 0.90375006 1.0972394e-38
0.14925215 0.14512154 0.90375006 1.226241e-38
0.14675215 0.14512154 0.90875006 9.4993897e-39
0.14675215 0.14762154 0.90875006 8.8511686e-39
0.15175216 0.14012155 0.90375006 1.1434446e-38
0.15175216 0.14012155 0.90625006 1.1434078e-38
0.15175216 0.14262155 0.90375006 1.1801786e-38
0.15425216 0.14012155 0.90625006 1.226313e-38
0.15675215 0.13262154 0.90125006 1.4655159e-38
0.15925215 0.13262154 0.90125006 1.7693627e-38
0.15675215 0.13512155 0.89375007 1.612738e-38
0.15675215 0.13762155 0.89375007 1.5665326e-38
0.15675215 0.13762155 0.89625007 1.7507421e-38
0.15675215 0.13512155 0.90125006 1.4468978e-38
0.15675215 0.13762155 0.89875007 1.3917593e-38
0.15675215 0.13762155 0.90125006 1.4009792e-38
0.15925215 0.13512155 0.89875007 1.704826e-38
0.15925215 0.13512155 0.90125006 1.7600345e-38
0.15925215 0.13762155 0.89875007 1.6402877e-38
0.15925215 0.13762155 0.90125006 1.6678755e-38
0.15675215 0.13262154 0.90375006 1.0967334e-38
0.15675215 0.13262154 0.90875006 1.1241756e-38
0.15925215 0.13262154 0.90875006 1.5390559e-38
0.15675215 0.13512155 0.90375006 1.4193831e-38
0.15675215 0.13512155 0.90625006 1.1333951e-38
0.15675215 0.13762155 0.90375006 1.4562965e-38
0.15675215 0.13762155 0.90625006 1.0967337e-38
0.15925215 0.13512155 0.90375006 1.8245715e-38
0.15925215 0.13512155 0.90625006 1.5298363e-38
0.15925215 0.13762155 0.90375006 1.6586932e-38
0.15925215 0.13762155 0.90625006 1.6771326e-38
0.15675215 0.13512155 0.90875006 1.11492e-38
0.15925215 0.13512155 0.90875006 1.7785106e-38
0.15925215 0.13762155 0.90875006 1.7415601e-38
0.15675215 0.14012155 0.89375007 1.4925981e-38
0.15675215 0.14012155 0.89625007 1.492884e-38
0.15675215 0.14262155 0.89375007 1.4649382e-38
0.15675215 0.14262155 0.89625007 1.1430125e-38
0.15925215 0.14262155 0.89375007 1.723337e-38
0.15675215 0.14012155 0.89875007 1.364101e-38
0.15675215 0.14012155 0.90125006 1.3642082e-38
0.15675215 0.14262155 0.89875007 1.2628303e-38
0.15925215 0.14012155 0.89875007 1.5482011e-38
0.15925215 0.14012155 0.90125006 1.6035183e-38
0.15675215 0.14512154 0.89375007 1.3638113e-38
0.15675215 0.14762154 0.89375007 1.2626838e-38
0.15925215 0.14762154 0.89375007 1.6036998e-38
0.15925215 0.14762154 0.89625007 1.6864607e-38
0.15925215 0.14762154 0.89875007 1.5669294e-38
0.15925215 0.14012155 0.90375006 1.5756818e-38
0.14675215 0.13262154 0.91375005 1.13401e-38
0.14925215 0.13012154 0.91375005 1.1801433e-38
0.14925215 0.13262154 0.91375005 1.1709237e-38
0.14675215 0.13262154 0.91875005 1.2259851e-38
0.14925215 0.13012154 0.91875005 1.1801433e-38
0.14925215 0.13262154 0.91875005 1.179999e-38
0.14675215 0.13512155 0.91375005 1.1524448e-38
0.14675215 0.13762155 0.91375005 1.1339712e-38
0.14925215 0.13512155 0.91375005 1.1984026e-38
0.14925215 0.13762155 0.91375005 1.1984382e-38
0.14675215 0.13512155 0.91875005 1.1524448e-38
0.14675215 0.13762155 0.91875005 1.1340451e-38
0.14925215 0.13512155 0.91875005 1.1982946e-38
0.15175216 0.13012154 0.91375005 1.2260609e-38
0.15175216 0.13262154 0.91375005 1.1799637e-38
0.15425216 0.13012154 0.91375005 1.1709237e-38
0.15425216 0.13262154 0.91375005 1.170959e-38
0.15175216 0.13012154 0.91875005 1.2352439e-38
0.15175216 0.13262154 0.91875005 1.1617038e-38
0.15425216 0.13012154 0.91875005 1.2168046e-38
0.15425216 0.13262154 0.91875005 1.1984382e-38
0.15175216 0.13512155 0.91375005 1.2170214e-38
0.14675215 0.13262154 0.92375004 1.1981819e-38
0.14675215 0.13262154 0.92875004 1.4468949e-38
0.14925215 0.13262154 0.92875004 1.2716844e-38
0.14675215 0.13512155 0.92375004 8.5738461e-39
0.14675215 0.13762155 0.92375004 7.6533289e-39
0.14925215 0.13512155 0.92375004 1.2445006e-38
0.14925215 0.13762155 0.92375004 1.1157123e-38
0.14675215 0.13512155 0.92875004 8.3876737e-39
0.14675215 0.13762155 0.92875004 7.744786e-39
0.14925215 0.13512155 0.92875004 1.1706716e-38
0.14925215 0.13762155 0.92875004 1.1524454e-38
0.15175216 0.13012154 0.92375004 1.1709237e-38
0.15175216 0.13262154 0.92375004 1.1984382e-38
0.15425216 0.13012154 0.92375004 1.1799987e-38
0.15425216 0.13262154 0.92375004 1.2445006e-38
0.15175216 0.13012154 0.92875004 1.2352439e-38
0.15175216 0.13262154 0.92875004 1.2260246e-38
0.15425216 0.13012154 0.92875004 1.198438e-38
0.15425216 0.13262154 0.92875004 1.1984734e-38
0.15175216 0.13512155 0.92875004 1.2445003e-38
0.14675215 0.14012155 0.91375005 1.0879826e-38
0.14675215 0.14012155 0.91875005 7.2831044e-39
0.14675215 0.14012155 0.92375004 6.9143163e-39
0.14925215 0.14012155 0.92375004 1.1524098e-38
0.14675215 0.14012155 0.92875004 7.4682342e-39
0.14925215 0.14012155 0.92875004 1.1156064e-38
0.15675215 0.13012154 0.91375005 1.0510694e-38
0.15675215 0.13262154 0.91375005 1.1336118e-38
0.15925215 0.13012154 0.91375005 1.1427213e-38
0.15925215 0.13262154 0.91375005 1.5481325e-38
0.15675215 0.13012154 0.91875005 1.041705e-38
0.15675215 0.13262154 0.91875005 1.0877675e-38
0.15925215 0.13012154 0.91875005 1.1243919e-38
0.15925215 0.13262154 0.91875005 1.0965169e-38
0.15675215 0.13012154 0.92375004 1.2352807e-38
0.15675215 0.13262154 0.92375004 1.1062066e-38
0.15925215 0.13012154 0.92375004 1.1426513e-38
0.15925215 0.13262154 0.92375004 1.1333598e-38
0.15675215 0.13012154 0.92875004 1.198582e-38
0.15925215 0.13012154 0.92875004 1.1887848e-38
0.15925215 0.13262154 0.92875004 1.2254829e-38
0.16175215 0.13012154 0.92375004 1.6683813e-38
0.16175215 0.13262154 0.92375004 1.6588028e-38
0.14675215 0.15012155 0.89875007 1.0422072e-38
0.14675215 0.15012155 0.90125006 1.1064221e-38
0.14675215 0.15262155 0.89875007 1.0236253e-38
0.15675215 0.15262155 0.89625007 1.1705974e-38
0.15925215 0.15012155 0.89375007 1.5207963e-38
0.15925215 0.15012155 0.89625007 1.5209762e-38
0.15925215 0.15262155 0.89375007 1.5209765e-38
0.15925215 0.15262155 0.89625007 1.6221389e-38
0.16175215 0.15262155 0.89375007 1.6034461e-38
0.11425215 0.17012155 0.84875005 1.4929205e-38
0.11425215 0.17012155 0.85125005 1.308494e-38
0.11675216 0.17012155 0.84875005 1.1522306e-38
0.11675216 0.17012155 0.85125005 1.0782605e-38
0.11925215 0.17012155 0.84875005 1.3729943e-38
0.11925215 0.17012155 0.85125005 1.3730662e-38
0.12425216 0.17012155 0.84625006 1.0137576e-38
0.12425216 0.17262155 0.84625006 1.6034467e-38
0.12175215 0.17012155 0.84875005 1.3173133e-38
0.12175215 0.17012155 0.85125005 1.124138e-38
0.12175215 0.17262155 0.84875005 9.0257564e-39
0.12425216 0.17012155 0.84875005 1.4093995e-38
0.12425216 0.17012155 0.85125005 1.3633018e-38
0.12425216 0.17262155 0.84875005 1.5479097e-38
0.12425216 0.17262155 0.85125005 1.6491827e-38
0.12675215 0.17012155 0.84625006 9.860629e-39
0.12675215 0.17262155 0.84625006 1.4005804e-38
0.12925215 0.17012155 0.84625006 9.6794846e-39
0.12925215 0.17262155 0.84625006 1.3089261e-38
0.12675215 0.17012155 0.84875005 9.8584682e-39
0.12675215 0.17012155 0.85125005 1.0044674e-38
0.12675215 0.17262155 0.84875005 1.3084924e-38
0.12675215 0.17262155 0.85125005 1.3821063e-38
0.12925215 0.17012155 0.84875005 9.2185064e-39
0.12925215 0.17012155 0.85125005 9.4968912e-39
0.12925215 0.17262155 0.84875005 1.2534643e-38
0.12925215 0.17262155 0.85125005 1.2628287e-38
0.13175215 0.17012155 0.85125005 1.0324854e-38
0.13925216 0.17012155 0.84375006 1.3729946e-38
0.13925216 0.17012155 0.84625006 1.0230491e-38
0.13925216 0.17262155 0.84375006 1.409802e-38
0.13925216 0.17262155 0.84625006 1.5296151e-38
0.13925216 0.17012155 0.84875005 7.3828433e-39
0.13925216 0.17012155 0.85125005 7.657998e-39
0.13925216 0.17262155 0.84875005 1.4195609e-38
0.13925216 0.17512155 0.84375006 1.1980254e-38
0.13925216 0.17512155 0.84625006 1.2256528e-38
0.14175215 0.17012155 0.84375006 1.1609447e-38
0.14175215 0.17012155 0.84625006 1.1423997e-38
0.14175215 0.17262155 0.84375006 1.0133606e-38
0.14175215 0.17262155 0.84625006 1.170381e-38
0.14425215 0.17012155 0.84375006 1.418947e-38
0.14425215 0.17012155 0.84625006 1.0221079e-38
0.14425215 0.17262155 0.84375006 1.5109178e-38
0.14425215 0.17262155 0.84625006 1.4833317e-38
0.14175215 0.17012155 0.84875005 1.1055216e-38
0.14175215 0.17012155 0.85125005 1.2990946e-38
0.14175215 0.17262155 0.84875005 1.5021048e-38
0.14425215 0.17012155 0.84875005 8.657362e-39
0.14425215 0.17012155 0.85125005 8.4747504e-39
0.14175215 0.17512155 0.84375006 7.3468397e-40
0.14175215 0.17512155 0.84625006 1.8367099e-40
0.14425215 0.17512155 0.84375006 1.271075e-38
0.14425215 0.17512155 0.84625006 9.1835496e-40
0.14175215 0.17512155 0.84875005 5.5101298e-40
0.14175215 0.17512155 0.85125005 8.2651947e-40
0.14425215 0.17512155 0.84875005 1.1883155e-38
0.14425215 0.17512155 0.85125005 1.2803314e-38
0.14425215 0.17762154 0.85125005 8.9440285e-39
0.11425215 0.17762154 0.85875005 1.0692913e-38
0.11425215 0.18012154 0.85875005 1.0878028e-38
0.11675216 0.17012155 0.85375005 1.1610907e-38
0.11675216 0.17262155 0.85375005 1.4466432e-38
0.11675216 0.17262155 0.85625005 1.5112152e-38
0.11925215 0.17262155 0.85375005 1.5021404e-38
0.11925215 0.17262155 0.85625005 1.5388744e-38
0.11925215 0.17262155 0.85875005 1.6219944e-38
0.11675216 0.17762154 0.85875005 8.0181499e-39
0.11675216 0.17762154 0.86125004 8.7531898e-39
0.11925215 0.17512155 0.85875005 1.4096927e-38
0.11925215 0.17512155 0.86125004 1.4096927e-38
0.11925215 0.17762154 0.85875005 6.729202e-39
0.11925215 0.17762154 0.86125004 6.1681221e-39
0.12175215 0.17262155 0.85375005 5.0656771e-39
0.12175215 0.17262155 0.85625005 5.0656771e-39
0.12425216 0.17262155 0.85375005 9.4864109e-39
0.12425216 0.17262155 0.85625005 9.9459373e-39
0.12175215 0.17262155 0.85875005 5.1578602e-39
0.12175215 0.17512155 0.85875005 1.841379e-39
0.12175215 0.17512155 0.86125004 9.9542343e-39
0.12175215 0.17762154 0.85875005 1.4697267e-39
0.12175215 0.17762154 0.86125004 4.5118027e-39
0.12425216 0.17512155 0.85875005 3.2271567e-39
0.12425216 0.17512155 0.86125004 4.0526e-39
0.12425216 0.17762154 0.86125004 6.533292e-39
0.12175215 0.17762154 0.86375004 4.3281401e-39
0.12425216 0.17762154 0.86375004 6.3496042e-39
0.12425216 0.17762154 0.86625004 6.4392986e-39
0.11675216 0.18012154 0.85875005 8.112519e-39
0.11675216 0.18012154 0.86125004 7.835209e-39
0.11925215 0.18012154 0.85875005 6.5473387e-39
0.11925215 0.18012154 0.86125004 5.4406338e-39
0.11925215 0.18262155 0.86125004 8.7571555e-39
0.11675216 0.18762155 0.86125004 1.5669628e-38
0.11925215 0.18512155 0.85875005 1.5758633e-38
0.11925215 0.18512155 0.86125004 1.1611274e-38
0.11925215 0.18762155 0.85875005 1.437492e-38
0.11925215 0.18762155 0.86125004 1.4744486e-38
0.12175215 0.18012154 0.86125004 2.6718614e-39
0.12175215 0.18262155 0.86125004 2.0337521e-39
0.12425216 0.18012154 0.86125004 2.1190365e-39
0.12425216 0.18262155 0.86125004 6.356444e-39
0.12175215 0.18512155 0.85875005 1.3548422e-38
0.12175215 0.18512155 0.86125004 6.4579919e-39
0.12175215 0.18762155 0.85875005 1.6493217e-38
0.12175215 0.18762155 0.86125004 1.3546624e-38
0.12425216 0.18512155 0.85875005 1.4282417e-38
0.12425216 0.18512155 0.86125004 7.1890941e-39
0.12425216 0.18762155 0.85875005 1.5205445e-38
0.12425216 0.18762155 0.86125004 1.4007256e-38
0.11675216 0.18012154 0.86375004 8.2036314e-39
0.11675216 0.18262155 0.86375004 7.5614836e-39
0.11675216 0.18262155 0.86625004 8.5738405e-39
0.11925215 0.18012154 0.86375004 4.5190334e-39
