# .PCD v0.7 - Point Cloud Data file format
VERSION 0.7
FIELDS x y z rgb
SIZE 4 4 4 4
TYPE F F F F
COUNT 1 1 1 1
WIDTH 393
HEIGHT 1
VIEWPOINT 0 0 0 1 0 0 0
POINTS 393
DATA ascii
0.67669797 -0.12254978 0.060468849 1.6862783e-38
0.67669797 -0.12004978 0.060468849 1.3733867e-38
0.67669797 -0.11754978 0.060468849 1.5393388e-38
0.67669797 -0.11504978 0.060468849 2.3509886e-38
0.67669797 -0.11254978 0.060468849 2.3509886e-38
0.69669795 -0.14254978 0.060468849 1.5111451e-38
0.69669795 -0.14004979 0.060468849 1.6309994e-38
0.69419795 -0.14254978 0.06296885 1.6678755e-38
0.69669795 -0.14504978 0.06296885 1.6679836e-38
0.69669795 -0.14254978 0.06296885 1.6585131e-38
0.69669795 -0.14254978 0.065468848 1.5756779e-38
0.69169796 -0.13754979 0.06296885 1.7321603e-38
0.68919796 -0.13504978 0.06296885 1.6863146e-38
0.68919796 -0.13254978 0.06296885 1.6862049e-38
0.68919796 -0.13254978 0.065468848 1.2170166e-38
0.69169796 -0.13504978 0.06296885 1.6121612e-38
0.69169796 -0.13504978 0.065468848 1.4927378e-38
0.69169796 -0.13254978 0.06296885 1.1986857e-38
0.69169796 -0.13254978 0.065468848 1.594625e-38
0.69419795 -0.14004979 0.06296885 1.723336e-38
0.69419795 -0.13754979 0.065468848 1.5022455e-38
0.69669795 -0.14004979 0.06296885 1.511035e-38
0.69669795 -0.14004979 0.065468848 1.4097259e-38
0.69669795 -0.13754979 0.065468848 2.3509886e-38
0.69419795 -0.13754979 0.067968845 2.3509886e-38
0.69669795 -0.13754979 0.067968845 2.3509886e-38
0.69419795 -0.13504978 0.065468848 1.7885952e-38
0.69419795 -0.13254978 0.065468848 2.3509886e-38
0.69669795 -0.13504978 0.065468848 2.3509886e-38
0.69669795 -0.13254978 0.065468848 2.3509886e-38
0.69419795 -0.13504978 0.067968845 2.3509886e-38
0.69419795 -0.13254978 0.067968845 2.3506288e-38
0.67919797 -0.12754978 0.06296885 1.5110732e-38
0.68169796 -0.13004978 0.06296885 1.8059524e-38
0.68169796 -0.13004978 0.065468848 1.7602866e-38
0.68169796 -0.12754978 0.06296885 1.7690743e-38
0.68169796 -0.12754978 0.065468848 1.6310695e-38
0.67919797 -0.12504978 0.06296885 1.6956065e-38
0.67919797 -0.12254978 0.06296885 1.7505959e-38
0.67919797 -0.12254978 0.065468848 1.659127e-38
0.68169796 -0.12504978 0.06296885 1.6674416e-38
0.68169796 -0.12504978 0.065468848 1.4283794e-38
0.68169796 -0.12254978 0.06296885 1.2446044e-38
0.68169796 -0.12254978 0.065468848 1.6775659e-38
0.68419796 -0.13004978 0.06296885 1.7601414e-38
0.68419796 -0.13004978 0.065468848 1.4375666e-38
0.68419796 -0.12754978 0.06296885 1.6310676e-38
0.68419796 -0.12754978 0.065468848 1.5574209e-38
0.68669796 -0.13004978 0.06296885 1.5662086e-38
0.68669796 -0.13004978 0.065468848 1.5108886e-38
0.68669796 -0.12754978 0.06296885 1.585042e-38
0.68669796 -0.12754978 0.065468848 1.6494077e-38
0.68419796 -0.13004978 0.067968845 1.3729651e-38
0.68419796 -0.12754978 0.067968845 1.6587355e-38
0.68669796 -0.12754978 0.067968845 2.3509886e-38
0.68419796 -0.12504978 0.065468848 2.3509886e-38
0.68419796 -0.12254978 0.065468848 2.3509886e-38
0.68419796 -0.12504978 0.067968845 2.1204995e-38
0.68419796 -0.12254978 0.067968845 2.3509886e-38
0.68669796 -0.12504978 0.067968845 2.3509886e-38
0.68669796 -0.12254978 0.067968845 2.3505928e-38
0.67919797 -0.12004978 0.06296885 1.4463969e-38
0.67919797 -0.12004978 0.065468848 2.3509886e-38
0.67919797 -0.11754978 0.06296885 1.759862e-38
0.67919797 -0.11754978 0.065468848 2.3509886e-38
0.68169796 -0.12004978 0.06296885 2.3509886e-38
0.68169796 -0.12004978 0.065468848 2.3509886e-38
0.68169796 -0.11754978 0.06296885 2.3509886e-38
0.68169796 -0.11754978 0.065468848 2.3509816e-38
0.67919797 -0.11504978 0.06296885 2.3509886e-38
0.67919797 -0.11254978 0.06296885 2.3509886e-38
0.68169796 -0.11504978 0.06296885 2.3509886e-38
0.68169796 -0.11504978 0.065468848 2.3509762e-38
0.68419796 -0.12004978 0.06296885 2.3509886e-38
0.68419796 -0.12004978 0.065468848 2.3509886e-38
0.68419796 -0.11754978 0.06296885 2.3509818e-38
0.68419796 -0.11504978 0.06296885 2.3509797e-38
0.68919796 -0.13004978 0.06296885 1.3821499e-38
0.68919796 -0.13004978 0.065468848 1.7886658e-38
0.68919796 -0.12754978 0.06296885 1.6679538e-38
0.68919796 -0.12754978 0.065468848 2.3509886e-38
0.69169796 -0.13004978 0.06296885 2.3509886e-38
0.69169796 -0.13004978 0.065468848 2.3509886e-38
0.69169796 -0.12754978 0.06296885 2.3509886e-38
0.69169796 -0.12754978 0.065468848 2.3509886e-38
0.70169795 -0.16754979 0.067968845 1.6310322e-38
0.70169795 -0.16754979 0.07046885 1.7323032e-38
0.69919795 -0.16254978 0.065468848 1.4282021e-38
0.70169795 -0.16254978 0.06296885 1.2531381e-38
0.70169795 -0.16254978 0.065468848 1.6680187e-38
0.70169795 -0.16504978 0.067968845 1.6495074e-38
0.70169795 -0.16504978 0.07046885 1.7231193e-38
0.70169795 -0.16254978 0.067968845 1.667913e-38
0.70169795 -0.16254978 0.07046885 1.7139737e-38
0.70419794 -0.16754979 0.065468848 1.6493269e-38
0.70669794 -0.16754979 0.06296885 1.6679102e-38
0.70419794 -0.16754979 0.067968845 1.6955692e-38
0.70419794 -0.16754979 0.07046885 1.7323038e-38
0.70669794 -0.17004979 0.067968845 1.6860982e-38
0.70669794 -0.17004979 0.07046885 1.8426876e-38
0.70669794 -0.16754979 0.067968845 1.7321953e-38
0.70669794 -0.16754979 0.07046885 1.6955695e-38
0.70419794 -0.16504978 0.06296885 1.3821398e-38
0.70419794 -0.16504978 0.065468848 1.4927388e-38
0.70419794 -0.16254978 0.06296885 1.4282374e-38
0.70419794 -0.16254978 0.065468848 1.704789e-38
0.70669794 -0.16504978 0.06296885 1.5112137e-38
0.70419794 -0.16504978 0.067968845 1.7507418e-38
0.70419794 -0.16504978 0.07046885 1.5850423e-38
0.70419794 -0.16254978 0.067968845 1.6955344e-38
0.70419794 -0.16254978 0.07046885 1.6219926e-38
0.70669794 -0.16504978 0.07046885 1.5757153e-38
0.70669794 -0.16254978 0.07046885 1.3731003e-38
0.69919795 -0.16004978 0.065468848 1.5294745e-38
0.70169795 -0.16004978 0.06296885 1.3913965e-38
0.70169795 -0.16004978 0.065468848 1.538765e-38
0.70169795 -0.15754978 0.06296885 1.7872612e-38
0.70169795 -0.15754978 0.065468848 1.7691815e-38
0.69919795 -0.16004978 0.067968845 1.6864592e-38
0.70169795 -0.16004978 0.067968845 1.7601061e-38
0.70169795 -0.16004978 0.07046885 1.677095e-38
0.70169795 -0.15754978 0.067968845 1.7691111e-38
0.70169795 -0.15504979 0.06296885 1.2348063e-38
0.70169795 -0.15504979 0.065468848 1.400399e-38
0.70169795 -0.15254979 0.06296885 1.2071474e-38
0.70169795 -0.15254979 0.065468848 1.2531728e-38
0.70169795 -0.15504979 0.067968845 1.4648656e-38
0.70419794 -0.16004978 0.06296885 1.5294745e-38
0.70419794 -0.16004978 0.065468848 1.7507093e-38
0.70419794 -0.15754978 0.06296885 1.4462447e-38
0.70419794 -0.15754978 0.065468848 1.4189107e-38
0.70419794 -0.16004978 0.067968845 1.6494723e-38
0.70419794 -0.16004978 0.07046885 1.6033408e-38
0.70419794 -0.15754978 0.067968845 1.4925243e-38
0.70419794 -0.15754978 0.07046885 1.4922722e-38
0.70669794 -0.16004978 0.07046885 1.4099078e-38
0.70669794 -0.15754978 0.067968845 1.3912163e-38
0.70669794 -0.15754978 0.07046885 1.6032682e-38
0.70419794 -0.15504979 0.06296885 1.2346279e-38
0.70419794 -0.15504979 0.065468848 1.3728517e-38
0.70419794 -0.15254979 0.06296885 1.2808318e-38
0.70419794 -0.15254979 0.065468848 1.4280949e-38
0.70669794 -0.15504979 0.065468848 1.280652e-38
0.70669794 -0.15254979 0.065468848 1.3366937e-38
0.70419794 -0.15504979 0.067968845 1.4095483e-38
0.70419794 -0.15504979 0.07046885 1.5014917e-38
0.70669794 -0.15504979 0.067968845 1.3084554e-38
0.70669794 -0.15504979 0.07046885 2.0269307e-38
0.70669794 -0.15254979 0.067968845 1.2991999e-38
0.70669794 -0.15254979 0.07046885 1.6765873e-38
0.70919794 -0.17004979 0.067968845 1.8243914e-38
0.70919794 -0.17004979 0.07046885 1.8521576e-38
0.70919794 -0.16754979 0.07046885 1.667913e-38
0.71169794 -0.17004979 0.07046885 1.7786176e-38
0.71169794 -0.16754979 0.07046885 1.5848998e-38
0.70919794 -0.16504978 0.07046885 1.5296196e-38
0.70919794 -0.16254978 0.07046885 1.4466061e-38
0.71169794 -0.16504978 0.07046885 1.4189475e-38
0.71169794 -0.16254978 0.07046885 1.5667474e-38
0.71419799 -0.17004979 0.07046885 1.7508512e-38
0.71419799 -0.16754979 0.07046885 1.6955692e-38
0.71669799 -0.17004979 0.07046885 1.446569e-38
0.71669799 -0.16754979 0.07046885 1.4189823e-38
0.71419799 -0.16504978 0.07046885 1.4556113e-38
0.71419799 -0.16254978 0.07046885 1.778296e-38
0.71669799 -0.16504978 0.07046885 1.8430826e-38
0.71669799 -0.16254978 0.07046885 2.1012304e-38
0.70919794 -0.17004979 0.072968848 1.751067e-38
0.70919794 -0.16754979 0.072968848 1.5850073e-38
0.71169794 -0.17004979 0.072968848 1.7232651e-38
0.71169794 -0.16754979 0.072968848 1.5388366e-38
0.70919794 -0.16504978 0.072968848 1.4097627e-38
0.71169794 -0.16504978 0.072968848 1.4742997e-38
0.71169794 -0.16254978 0.072968848 2.0456627e-38
0.71169794 -0.16254978 0.075468846 2.2756381e-38
0.71419799 -0.16754979 0.072968848 1.4006513e-38
0.71669799 -0.16754979 0.072968848 1.8151411e-38
0.71419799 -0.16504978 0.072968848 1.6956413e-38
0.71419799 -0.16254978 0.072968848 2.2573845e-38
0.71419799 -0.16254978 0.075468846 2.3509873e-38
0.71669799 -0.16504978 0.072968848 2.1559713e-38
0.71669799 -0.16254978 0.072968848 2.1837024e-38
0.71669799 -0.16254978 0.075468846 2.350988e-38
0.70919794 -0.16004978 0.07046885 1.5106076e-38
0.70919794 -0.15754978 0.067968845 1.9075142e-38
0.70919794 -0.15754978 0.07046885 1.8150648e-38
0.71169794 -0.16004978 0.07046885 2.1471858e-38
0.71169794 -0.15754978 0.07046885 2.2117228e-38
0.70919794 -0.15504979 0.067968845 1.3818173e-38
0.70919794 -0.15504979 0.07046885 2.2299035e-38
0.70919794 -0.15254979 0.067968845 1.5755061e-38
0.70919794 -0.15254979 0.07046885 1.5937234e-38
0.71169794 -0.15504979 0.067968845 1.8611578e-38
0.71169794 -0.15504979 0.07046885 2.2666043e-38
0.71169794 -0.15254979 0.067968845 1.6030499e-38
0.71169794 -0.15254979 0.07046885 1.8057721e-38
0.71419799 -0.16004978 0.07046885 2.193248e-38
0.71419799 -0.15754978 0.07046885 2.27615e-38
0.71419799 -0.15504979 0.067968845 2.0819977e-38
0.71419799 -0.15504979 0.07046885 2.1194551e-38
0.71419799 -0.15254979 0.067968845 1.8427226e-38
0.71419799 -0.15254979 0.07046885 2.054883e-38
0.70919794 -0.16004978 0.072968848 1.9073696e-38
0.70919794 -0.15754978 0.072968848 2.230054e-38
0.71169794 -0.16004978 0.072968848 2.1747366e-38
0.71169794 -0.16004978 0.075468846 2.2111011e-38
0.71169794 -0.15754978 0.072968848 2.3129191e-38
0.71169794 -0.15754978 0.075468846 1.907403e-38
0.70919794 -0.15254979 0.075468846 1.97194e-38
0.71169794 -0.15504979 0.072968848 2.1471132e-38
0.71169794 -0.15504979 0.075468846 1.8339349e-38
0.71169794 -0.15254979 0.072968848 2.0640277e-38
0.71169794 -0.15254979 0.075468846 1.9352057e-38
0.71419799 -0.16004978 0.072968848 2.1006521e-38
0.71419799 -0.16004978 0.075468846 2.2849731e-38
0.71419799 -0.15754978 0.072968848 1.9444611e-38
0.71419799 -0.15754978 0.075468846 1.5751738e-38
0.71669799 -0.16004978 0.072968848 2.2849363e-38
0.71669799 -0.16004978 0.075468846 2.3505898e-38
0.71669799 -0.15754978 0.072968848 1.8889649e-38
0.71669799 -0.15754978 0.075468846 1.5293284e-38
0.71419799 -0.15504979 0.072968848 1.990453e-38
0.71419799 -0.15504979 0.075468846 1.4742999e-38
0.71419799 -0.15254979 0.072968848 1.9443173e-38
0.71419799 -0.15254979 0.075468846 1.723336e-38
0.71669799 -0.15504979 0.072968848 1.852338e-38
0.71669799 -0.15504979 0.075468846 1.3454454e-38
0.71669799 -0.15254979 0.072968848 1.9259511e-38
0.71669799 -0.15254979 0.075468846 1.6956385e-38
0.71419799 -0.15504979 0.077968851 1.4745193e-38
0.71419799 -0.15254979 0.077968851 1.6863128e-38
0.71669799 -0.15504979 0.077968851 1.1889961e-38
0.71669799 -0.15254979 0.077968851 1.4839161e-38
0.72169799 -0.17754978 0.065468848 1.9164441e-38
0.72169799 -0.18004978 0.067968845 2.1750575e-38
0.72169799 -0.18004978 0.07046885 1.7507418e-38
0.72169799 -0.17754978 0.067968845 1.8613072e-38
0.72169799 -0.17754978 0.07046885 1.7321953e-38
0.72169799 -0.17504978 0.065468848 1.7508515e-38
0.72169799 -0.17254978 0.065468848 1.6863146e-38
0.72169799 -0.17504978 0.067968845 1.6587991e-38
0.72169799 -0.17504978 0.07046885 1.4560032e-38
0.72169799 -0.17254978 0.067968845 1.6309604e-38
0.72169799 -0.17254978 0.07046885 1.3728106e-38
0.72419798 -0.17754978 0.065468848 2.2208329e-38
0.72419798 -0.18004978 0.067968845 2.1842041e-38
0.72419798 -0.17754978 0.067968845 2.0549885e-38
0.72419798 -0.17754978 0.07046885 1.5942269e-38
0.72419798 -0.17504978 0.065468848 1.7785106e-38
0.72419798 -0.17504978 0.067968845 1.6956411e-38
0.72419798 -0.17504978 0.07046885 1.4829467e-38
0.72419798 -0.17254978 0.067968845 1.5203255e-38
0.72419798 -0.17254978 0.07046885 1.5014217e-38
0.72669798 -0.17504978 0.07046885 1.4371015e-38
0.72169799 -0.17504978 0.075468846 1.6306446e-38
0.72419798 -0.18004978 0.072968848 1.4098298e-38
0.72419798 -0.17754978 0.072968848 1.4001488e-38
0.72669798 -0.17754978 0.072968848 1.3267876e-38
0.72669798 -0.17754978 0.075468846 2.1567641e-38
0.72419798 -0.17504978 0.072968848 1.5944784e-38
0.72419798 -0.17254978 0.072968848 2.13836e-38
0.72669798 -0.17504978 0.072968848 1.5299049e-38
0.72669798 -0.17504978 0.075468846 2.3509877e-38
0.72669798 -0.17254978 0.072968848 2.3509886e-38
0.72669798 -0.17254978 0.075468846 2.3507355e-38
0.72419798 -0.17504978 0.077968851 2.3509514e-38
0.72919798 -0.17504978 0.072968848 2.3508078e-38
0.72919798 -0.17254978 0.072968848 2.3412654e-38
0.71919799 -0.17004979 0.07046885 1.409763e-38
0.71919799 -0.16754979 0.07046885 1.4924208e-38
0.72169799 -0.17004979 0.067968845 1.4742275e-38
0.72169799 -0.17004979 0.07046885 1.8989038e-38
0.72169799 -0.16754979 0.07046885 2.3509886e-38
0.71919799 -0.16504978 0.07046885 2.1283852e-38
0.72419798 -0.17004979 0.067968845 1.8713174e-38
0.72419798 -0.17004979 0.07046885 2.1844951e-38
0.71919799 -0.16754979 0.072968848 2.2401021e-38
0.72169799 -0.16754979 0.072968848 2.3417687e-38
0.72169799 -0.16754979 0.075468846 2.3509886e-38
0.71919799 -0.16504978 0.072968848 2.3509886e-38
0.71919799 -0.16254978 0.072968848 2.3509886e-38
0.71919799 -0.16254978 0.075468846 2.3509886e-38
0.72169799 -0.16504978 0.072968848 2.3509886e-38
0.72169799 -0.16504978 0.075468846 2.3508417e-38
0.72169799 -0.16254978 0.075468846 2.3132079e-38
0.72169799 -0.16254978 0.077968851 2.2480888e-38
0.72419798 -0.17004979 0.072968848 2.3509886e-38
0.72419798 -0.16754979 0.072968848 2.350986e-38
0.72669798 -0.17004979 0.072968848 2.3509886e-38
0.72669798 -0.17004979 0.075468846 2.2768002e-38
0.72669798 -0.16754979 0.072968848 2.3509853e-38
0.72419798 -0.16504978 0.072968848 2.2666726e-38
0.71919799 -0.16004978 0.072968848 2.3125591e-38
0.71919799 -0.16004978 0.075468846 2.3507009e-38
0.71919799 -0.15754978 0.072968848 1.621163e-38
0.71919799 -0.15754978 0.075468846 1.5938261e-38
0.71919799 -0.16004978 0.077968851 2.1656269e-38
0.71919799 -0.15754978 0.077968851 1.6031975e-38
0.72169799 -0.16004978 0.077968851 2.3503029e-38
0.72169799 -0.15754978 0.077968851 1.6031257e-38
0.71919799 -0.15504979 0.072968848 1.4743725e-38
0.71919799 -0.15504979 0.075468846 1.2811542e-38
0.71919799 -0.15254979 0.075468846 1.4746243e-38
0.72169799 -0.15504979 0.077968851 1.4836246e-38
0.72919798 -0.17004979 0.072968848 1.8715678e-38
0.69919795 -0.14504978 0.060468849 1.5665326e-38
0.70169795 -0.15004978 0.06296885 1.5754635e-38
0.70169795 -0.14754978 0.06296885 1.6676231e-38
0.70169795 -0.14754978 0.065468848 1.5664973e-38
0.69919795 -0.14504978 0.06296885 1.5941562e-38
0.69919795 -0.14504978 0.065468848 1.4830879e-38
0.69919795 -0.14254978 0.065468848 1.0973781e-38
0.70169795 -0.14504978 0.06296885 1.6028701e-38
0.70169795 -0.14504978 0.065468848 1.4832662e-38
0.70169795 -0.14254978 0.065468848 1.6038433e-38
0.69919795 -0.14254978 0.067968845 2.3509886e-38
0.70169795 -0.14504978 0.067968845 2.3509886e-38
0.70169795 -0.14254978 0.067968845 2.3509886e-38
0.70419794 -0.15004978 0.06296885 1.4743728e-38
0.70419794 -0.15004978 0.065468848 1.4189823e-38
0.70419794 -0.14754978 0.06296885 1.5388013e-38
0.70419794 -0.14754978 0.065468848 1.5109987e-38
0.70669794 -0.15004978 0.065468848 1.6410119e-38
0.70669794 -0.14754978 0.065468848 2.3509886e-38
0.70669794 -0.15004978 0.067968845 2.2219147e-38
0.70669794 -0.14754978 0.067968845 2.3509886e-38
0.70419794 -0.14504978 0.06296885 1.4555e-38
0.70419794 -0.14504978 0.065468848 1.991318e-38
0.70419794 -0.14254978 0.065468848 2.3509886e-38
0.70669794 -0.14504978 0.065468848 2.3509886e-38
0.70669794 -0.14254978 0.065468848 2.3505222e-38
0.70669794 -0.14504978 0.067968845 2.3509886e-38
0.70669794 -0.14254978 0.067968845 2.3506657e-38
0.69919795 -0.14004979 0.065468848 1.7611867e-38
0.69919795 -0.13754979 0.065468848 2.3509886e-38
0.70169795 -0.14004979 0.065468848 2.3507719e-38
0.70169795 -0.13754979 0.065468848 2.3509886e-38
0.69919795 -0.14004979 0.067968845 2.3509886e-38
0.69919795 -0.13754979 0.067968845 2.1293584e-38
0.70169795 -0.14004979 0.067968845 2.3509886e-38
0.70419794 -0.14004979 0.065468848 2.3509886e-38
0.70669794 -0.14004979 0.065468848 1.8154941e-38
0.70669794 -0.14004979 0.067968845 1.8154588e-38
0.70919794 -0.14754978 0.065468848 2.3509781e-38
0.71169794 -0.14754978 0.065468848 1.7782543e-38
0.70919794 -0.15004978 0.067968845 1.9719476e-38
0.70919794 -0.15004978 0.07046885 1.7043221e-38
0.70919794 -0.14754978 0.067968845 2.3509886e-38
0.70919794 -0.14754978 0.07046885 1.6583316e-38
0.71169794 -0.15004978 0.067968845 1.6953178e-38
0.71169794 -0.15004978 0.07046885 1.6859177e-38
0.71169794 -0.14754978 0.067968845 1.7508826e-38
0.71169794 -0.14754978 0.07046885 1.6675883e-38
0.70919794 -0.14504978 0.065468848 2.3509757e-38
0.70919794 -0.14254978 0.065468848 1.990486e-38
0.71169794 -0.14504978 0.06296885 2.3507016e-38
0.71169794 -0.14504978 0.065468848 1.4374176e-38
0.71169794 -0.14254978 0.06296885 2.3506657e-38
0.71169794 -0.14254978 0.065468848 1.953716e-38
0.70919794 -0.14504978 0.067968845 2.3509751e-38
0.70919794 -0.14254978 0.067968845 1.9813018e-38
0.71169794 -0.14504978 0.067968845 1.4744797e-38
0.71169794 -0.14504978 0.07046885 1.6403224e-38
0.71169794 -0.14254978 0.067968845 1.5297615e-38
0.71169794 -0.14254978 0.07046885 1.6402871e-38
0.71419799 -0.15004978 0.07046885 1.8244267e-38
0.71419799 -0.14754978 0.067968845 1.4929543e-38
0.71419799 -0.14754978 0.07046885 1.723084e-38
0.71419799 -0.14504978 0.06296885 2.0180724e-38
0.71419799 -0.14504978 0.065468848 1.5389811e-38
0.71419799 -0.14254978 0.06296885 1.7507768e-38
0.71669799 -0.14254978 0.06296885 1.8985422e-38
0.71669799 -0.14254978 0.065468848 1.9354223e-38
0.71419799 -0.14504978 0.067968845 1.4837348e-38
0.71419799 -0.14504978 0.07046885 1.6861698e-38
0.71419799 -0.14254978 0.067968845 1.5298698e-38
0.71419799 -0.14254978 0.07046885 1.7047131e-38
0.71669799 -0.14504978 0.067968845 1.6860612e-38
0.71669799 -0.14254978 0.067968845 1.9814467e-38
0.70919794 -0.15004978 0.072968848 1.8151354e-38
0.70919794 -0.15004978 0.075468846 1.9258062e-38
0.70919794 -0.14754978 0.072968848 1.7507443e-38
0.70919794 -0.14754978 0.075468846 1.8243564e-38
0.71169794 -0.15004978 0.072968848 1.7506014e-38
0.71169794 -0.15004978 0.075468846 1.8706687e-38
0.71169794 -0.14754978 0.072968848 1.7322699e-38
0.70919794 -0.14504978 0.072968848 1.7507068e-38
0.70919794 -0.14504978 0.075468846 1.8149553e-38
0.71169794 -0.14504978 0.072968848 1.6495074e-38
0.71419799 -0.15004978 0.072968848 1.8799236e-38
0.71419799 -0.15004978 0.075468846 1.7694336e-38
0.71419799 -0.14754978 0.072968848 1.8060967e-38
0.71669799 -0.15004978 0.072968848 1.8429027e-38
