# .PCD v0.7 - Point Cloud Data file format
VERSION 0.7
FIELDS x y z rgb
SIZE 4 4 4 4
TYPE F F F F
COUNT 1 1 1 1
WIDTH 368
HEIGHT 1
VIEWPOINT 0 0 0 1 0 0 0
POINTS 368
DATA ascii
0.72145343 -0.18097444 0.068102233 2.2303408e-38
0.72395343 -0.18097444 0.068102233 2.1658375e-38
0.72395343 -0.18097444 0.070602238 2.0272942e-38
0.72395343 -0.18097444 0.073102236 1.8800993e-38
0.72645342 -0.18097444 0.070602238 1.6311382e-38
0.69895345 -0.16347443 0.065602235 1.3912165e-38
0.69895345 -0.16097443 0.065602235 1.4096927e-38
0.70395344 -0.16597444 0.065602235 1.5295098e-38
0.70145345 -0.16347443 0.065602235 1.6492919e-38
0.70145345 -0.16097443 0.065602235 1.7230484e-38
0.70395344 -0.16347443 0.065602235 1.6307806e-38
0.70395344 -0.16097443 0.063102238 1.5386591e-38
0.70395344 -0.16097443 0.065602235 1.7507443e-38
0.70645344 -0.16597444 0.063102238 1.5019589e-38
0.69645345 -0.16097443 0.068102233 1.5662805e-38
0.69895345 -0.16347443 0.068102233 1.6308525e-38
0.69895345 -0.16097443 0.068102233 1.6957146e-38
0.70645344 -0.17097443 0.068102233 1.667767e-38
0.70645344 -0.17097443 0.070602238 1.7968407e-38
0.70895344 -0.17097443 0.068102233 1.7784011e-38
0.70895344 -0.17097443 0.070602238 1.7785825e-38
0.70895344 -0.17097443 0.073102236 1.723337e-38
0.70145345 -0.16847444 0.070602238 1.7229758e-38
0.70145345 -0.16597444 0.068102233 1.6862054e-38
0.70145345 -0.16597444 0.070602238 1.7322309e-38
0.70395344 -0.16847444 0.068102233 1.6863499e-38
0.70395344 -0.16847444 0.070602238 1.6956767e-38
0.70395344 -0.16597444 0.068102233 1.6956411e-38
0.70395344 -0.16597444 0.070602238 1.5757153e-38
0.70145345 -0.16347443 0.068102233 1.6954641e-38
0.70145345 -0.16347443 0.070602238 1.7506364e-38
0.70145345 -0.16097443 0.068102233 1.7415619e-38
0.70145345 -0.16097443 0.070602238 1.7047539e-38
0.70395344 -0.16347443 0.068102233 1.7415966e-38
0.70395344 -0.16347443 0.070602238 1.5204685e-38
0.70395344 -0.16097443 0.068102233 1.7230136e-38
0.70395344 -0.16097443 0.070602238 1.649579e-38
0.70645344 -0.16847444 0.068102233 1.7323038e-38
0.70645344 -0.16847444 0.070602238 1.7783657e-38
0.70645344 -0.16597444 0.068102233 1.7138638e-38
0.70645344 -0.16597444 0.070602238 1.7231207e-38
0.70895344 -0.16847444 0.068102233 1.7599619e-38
0.70895344 -0.16847444 0.070602238 1.6679836e-38
0.70895344 -0.16597444 0.070602238 1.6678424e-38
0.70895344 -0.16847444 0.073102236 1.6126657e-38
0.70895344 -0.16597444 0.073102236 1.5848998e-38
0.70645344 -0.16347443 0.070602238 1.4835192e-38
0.70645344 -0.16097443 0.070602238 1.4466414e-38
0.70895344 -0.16347443 0.070602238 1.4650079e-38
0.70895344 -0.16097443 0.070602238 1.5108189e-38
0.69895345 -0.15847443 0.065602235 1.7508515e-38
0.69395345 -0.14097443 0.063102238 1.6126323e-38
0.69895345 -0.14597443 0.060602233 1.5849367e-38
0.69645345 -0.14597443 0.063102238 1.5756802e-38
0.69895345 -0.14597443 0.063102238 1.566642e-38
0.69645345 -0.14347443 0.060602233 1.4374965e-38
0.69645345 -0.14097443 0.060602233 1.6125606e-38
0.69645345 -0.14347443 0.063102238 1.6679127e-38
0.69645345 -0.14347443 0.065602235 1.6493272e-38
0.69645345 -0.14097443 0.063102238 1.5294381e-38
0.69645345 -0.14097443 0.065602235 1.4464968e-38
0.69895345 -0.14347443 0.063102238 1.6127398e-38
0.69895345 -0.14347443 0.065602235 1.1618785e-38
0.69895345 -0.14097443 0.063102238 1.4096192e-38
0.69895345 -0.14097443 0.065602235 1.7703336e-38
0.70145345 -0.15847443 0.063102238 1.6405045e-38
0.70145345 -0.15847443 0.065602235 1.7967679e-38
0.70145345 -0.15597443 0.063102238 1.4554644e-38
0.70145345 -0.15597443 0.065602235 1.4095462e-38
0.70395344 -0.15847443 0.063102238 1.7967679e-38
0.70395344 -0.15847443 0.065602235 1.7508512e-38
0.70395344 -0.15597443 0.063102238 1.2900533e-38
0.70395344 -0.15597443 0.065602235 1.3637371e-38
0.70395344 -0.15347444 0.063102238 1.271614e-38
0.70395344 -0.15347444 0.065602235 1.428274e-38
0.70395344 -0.15097444 0.063102238 1.2806914e-38
0.70395344 -0.15097444 0.065602235 1.4744078e-38
0.70645344 -0.15597443 0.065602235 1.4096921e-38
0.70645344 -0.15347444 0.065602235 1.2808321e-38
0.70645344 -0.15097444 0.063102238 1.4466764e-38
0.70645344 -0.15097444 0.065602235 1.6225006e-38
0.70145345 -0.14847443 0.063102238 1.5112505e-38
0.70145345 -0.14847443 0.065602235 1.5389798e-38
0.70145345 -0.14597443 0.063102238 1.5111786e-38
0.70145345 -0.14597443 0.065602235 1.4833359e-38
0.70395344 -0.14847443 0.063102238 1.5665676e-38
0.70395344 -0.14847443 0.065602235 1.3819596e-38
0.70395344 -0.14597443 0.063102238 1.4373125e-38
0.70395344 -0.14597443 0.065602235 1.991318e-38
0.70145345 -0.14347443 0.065602235 1.4925914e-38
0.70145345 -0.14097443 0.065602235 2.3509886e-38
0.70395344 -0.14347443 0.065602235 2.3509886e-38
0.70395344 -0.14097443 0.065602235 2.3509877e-38
0.70645344 -0.14847443 0.065602235 2.2219147e-38
0.70645344 -0.14597443 0.065602235 2.3509886e-38
0.70895344 -0.14597443 0.065602235 2.3509886e-38
0.70645344 -0.14347443 0.065602235 2.3506657e-38
0.70645344 -0.14097443 0.065602235 1.8246787e-38
0.70895344 -0.14347443 0.065602235 1.9812665e-38
0.69645345 -0.15847443 0.068102233 1.7691109e-38
0.69895345 -0.15847443 0.068102233 1.7694711e-38
0.69895345 -0.14347443 0.068102233 2.3509886e-38
0.69895345 -0.14097443 0.068102233 2.3509886e-38
0.70145345 -0.15847443 0.068102233 1.75085e-38
0.70145345 -0.15847443 0.070602238 1.5477328e-38
0.70395344 -0.15847443 0.068102233 1.5019589e-38
0.70395344 -0.15847443 0.070602238 1.4926334e-38
0.70395344 -0.15597443 0.068102233 1.3819967e-38
0.70395344 -0.15597443 0.070602238 1.4831602e-38
0.70645344 -0.15847443 0.068102233 1.4741925e-38
0.70645344 -0.15847443 0.070602238 1.612523e-38
0.70645344 -0.15597443 0.068102233 1.2808674e-38
0.70645344 -0.15597443 0.070602238 1.9168046e-38
0.70895344 -0.15847443 0.070602238 1.6583319e-38
0.70895344 -0.15597443 0.068102233 1.971937e-38
0.70895344 -0.15597443 0.070602238 2.1654429e-38
0.70645344 -0.15347444 0.068102233 1.2347335e-38
0.70645344 -0.15347444 0.070602238 1.6675476e-38
0.70645344 -0.15097444 0.068102233 1.3551332e-38
0.70645344 -0.15097444 0.070602238 1.5386609e-38
0.70895344 -0.15347444 0.068102233 1.3451186e-38
0.70895344 -0.15347444 0.070602238 1.8427913e-38
0.70895344 -0.15097444 0.068102233 1.9351413e-38
0.70895344 -0.15097444 0.070602238 1.7045374e-38
0.70895344 -0.15097444 0.073102236 1.7691109e-38
0.70145345 -0.14847443 0.068102233 1.372676e-38
0.70145345 -0.14597443 0.068102233 1.991318e-38
0.70145345 -0.14347443 0.068102233 2.3509886e-38
0.70145345 -0.14097443 0.068102233 2.3509886e-38
0.70645344 -0.14847443 0.068102233 2.2034756e-38
0.70645344 -0.14847443 0.070602238 1.9719104e-38
0.70645344 -0.14597443 0.068102233 2.3509886e-38
0.70895344 -0.14847443 0.068102233 2.350988e-38
0.70895344 -0.14847443 0.070602238 1.7045739e-38
0.70895344 -0.14597443 0.068102233 2.3509781e-38
0.70895344 -0.14597443 0.070602238 1.5206126e-38
0.70895344 -0.14847443 0.073102236 1.6954988e-38
0.70895344 -0.14597443 0.073102236 1.7507421e-38
0.70645344 -0.14347443 0.068102233 2.3507016e-38
0.70645344 -0.14097443 0.068102233 1.7416359e-38
0.70895344 -0.14347443 0.068102233 1.9813386e-38
0.70895344 -0.14097443 0.068102233 1.7416301e-38
0.70895344 -0.14347443 0.073102236 1.6862051e-38
0.72395343 -0.17847443 0.065602235 2.1932115e-38
0.72395343 -0.17597443 0.065602235 1.8797103e-38
0.72645342 -0.17847443 0.063102238 2.2301246e-38
0.72645342 -0.17597443 0.063102238 2.1562962e-38
0.72645342 -0.17347443 0.063102238 1.8612342e-38
0.71145344 -0.17097443 0.070602238 1.7050408e-38
0.71395344 -0.17097443 0.070602238 1.7417396e-38
0.71145344 -0.17097443 0.073102236 1.7233005e-38
0.71895343 -0.17347443 0.068102233 1.8613069e-38
0.71895343 -0.17097443 0.068102233 1.6217408e-38
0.71895343 -0.17097443 0.070602238 1.5386926e-38
0.71145344 -0.16847444 0.070602238 1.6128452e-38
0.71145344 -0.16597444 0.070602238 1.4281671e-38
0.71395344 -0.16847444 0.070602238 1.585007e-38
0.71395344 -0.16597444 0.070602238 1.4835543e-38
0.71145344 -0.16847444 0.073102236 1.5942266e-38
0.71145344 -0.16597444 0.073102236 1.4835192e-38
0.71395344 -0.16847444 0.073102236 1.409763e-38
0.71395344 -0.16597444 0.073102236 1.7140087e-38
0.71145344 -0.16347443 0.070602238 1.409798e-38
0.71145344 -0.16097443 0.070602238 1.8521595e-38
0.71395344 -0.16347443 0.070602238 1.4830918e-38
0.71395344 -0.16097443 0.070602238 2.0548827e-38
0.71145344 -0.16347443 0.073102236 1.4555759e-38
0.71145344 -0.16097443 0.073102236 2.0272586e-38
0.71395344 -0.16347443 0.073102236 2.1195619e-38
0.71395344 -0.16097443 0.073102236 2.2390177e-38
0.71645343 -0.16847444 0.070602238 1.4189104e-38
0.71645343 -0.16597444 0.070602238 1.8798532e-38
0.71895343 -0.16847444 0.070602238 1.5015325e-38
0.71895343 -0.16597444 0.070602238 1.8334368e-38
0.71645343 -0.16597444 0.073102236 2.1652614e-38
0.71895343 -0.16597444 0.073102236 2.3509886e-38
0.71645343 -0.16347443 0.070602238 2.1012304e-38
0.71645343 -0.16097443 0.070602238 2.2481672e-38
0.71895343 -0.16347443 0.070602238 2.2112163e-38
0.71645343 -0.16347443 0.073102236 2.1837024e-38
0.71645343 -0.16097443 0.073102236 2.3218145e-38
0.71895343 -0.16347443 0.073102236 2.3509886e-38
0.71895343 -0.16097443 0.073102236 2.3509863e-38
0.71895343 -0.16097443 0.075602233 2.3505176e-38
0.71895343 -0.16097443 0.078102231 2.3503032e-38
0.72145343 -0.17847443 0.068102233 2.2851549e-38
0.72145343 -0.17597443 0.068102233 1.9071529e-38
0.72395343 -0.17847443 0.068102233 2.0640672e-38
0.72395343 -0.17847443 0.070602238 1.7323032e-38
0.72395343 -0.17597443 0.068102233 1.5757874e-38
0.72395343 -0.17597443 0.070602238 1.4744429e-38
0.72145343 -0.17847443 0.075602233 1.4191217e-38
0.72395343 -0.17847443 0.073102236 1.3452989e-38
0.72395343 -0.17847443 0.075602233 1.3635202e-38
0.72395343 -0.17597443 0.073102236 1.5296543e-38
0.72395343 -0.17597443 0.075602233 1.6857815e-38
0.72145343 -0.17347443 0.068102233 1.7413436e-38
0.72145343 -0.17097443 0.068102233 1.658547e-38
0.72395343 -0.17347443 0.068102233 1.3362213e-38
0.72395343 -0.17347443 0.070602238 1.3729918e-38
0.72395343 -0.17097443 0.068102233 1.8619532e-38
0.72395343 -0.17097443 0.070602238 1.4654045e-38
0.72395343 -0.17347443 0.073102236 2.0832597e-38
0.72395343 -0.17347443 0.075602233 1.9259904e-38
0.72395343 -0.17097443 0.073102236 2.3509886e-38
0.72395343 -0.17097443 0.075602233 2.3509886e-38
0.72645342 -0.17847443 0.070602238 1.6219579e-38
0.72645342 -0.17597443 0.070602238 1.5389816e-38
0.72645342 -0.17847443 0.073102236 1.3999749e-38
0.72645342 -0.17847443 0.075602233 2.2303408e-38
0.72645342 -0.17597443 0.073102236 1.6581221e-38
0.72645342 -0.17597443 0.075602233 2.3509153e-38
0.72645342 -0.17347443 0.070602238 2.0922625e-38
0.72645342 -0.17097443 0.070602238 2.3509886e-38
0.72645342 -0.17347443 0.073102236 2.230236e-38
0.72645342 -0.17347443 0.075602233 2.350664e-38
0.72645342 -0.17097443 0.073102236 2.3509886e-38
0.72395343 -0.17597443 0.078102231 2.3509156e-38
0.72395343 -0.17347443 0.078102231 2.3509884e-38
0.72395343 -0.17097443 0.078102231 2.3135705e-38
0.72145343 -0.16847444 0.068102233 1.5108242e-38
0.72395343 -0.16847444 0.070602238 2.2124796e-38
0.72145343 -0.16847444 0.073102236 2.1941121e-38
0.72145343 -0.16847444 0.075602233 2.3509886e-38
0.72145343 -0.16597444 0.073102236 2.3509886e-38
0.72145343 -0.16597444 0.075602233 2.3509886e-38
0.72395343 -0.16847444 0.073102236 2.3509886e-38
0.72395343 -0.16597444 0.075602233 2.3509852e-38
0.72145343 -0.16347443 0.075602233 2.3495815e-38
0.72145343 -0.16097443 0.075602233 2.3504485e-38
0.72645342 -0.16847444 0.070602238 2.3509886e-38
0.72645342 -0.16847444 0.073102236 2.350986e-38
0.72645342 -0.16597444 0.073102236 2.3310296e-38
0.72145343 -0.16347443 0.078102231 2.2480886e-38
0.72145343 -0.16097443 0.078102231 2.3407588e-38
0.71395344 -0.14347443 0.065602235 1.4099775e-38
0.71145344 -0.15847443 0.070602238 2.2576406e-38
0.71145344 -0.15597443 0.070602238 2.2299821e-38
0.71395344 -0.15847443 0.070602238 2.3037364e-38
0.71395344 -0.15597443 0.070602238 2.1931016e-38
0.71145344 -0.15847443 0.073102236 2.2853695e-38
0.71145344 -0.15597443 0.073102236 2.1655511e-38
0.71395344 -0.15847443 0.073102236 1.8984354e-38
0.71395344 -0.15597443 0.073102236 1.9444974e-38
0.71145344 -0.15347444 0.068102233 1.8797752e-38
0.71145344 -0.15347444 0.070602238 2.0453718e-38
0.71145344 -0.15097444 0.070602238 1.6953175e-38
0.71395344 -0.15347444 0.068102233 2.0178926e-38
0.71395344 -0.15347444 0.070602238 2.0826486e-38
0.71145344 -0.15347444 0.073102236 2.0641729e-38
0.71145344 -0.15097444 0.073102236 1.7415248e-38
0.71145344 -0.15097444 0.075602233 1.8890005e-38
0.71395344 -0.15347444 0.073102236 1.9444273e-38
0.71395344 -0.15347444 0.075602233 1.8708491e-38
0.71395344 -0.15097444 0.073102236 1.8521228e-38
0.71395344 -0.15097444 0.075602233 1.7417396e-38
0.71645343 -0.15847443 0.070602238 1.9718318e-38
0.71645343 -0.15597443 0.070602238 1.9996006e-38
0.71645343 -0.15847443 0.073102236 2.1189841e-38
0.71645343 -0.15597443 0.073102236 1.474229e-38
0.71895343 -0.15847443 0.073102236 2.091434e-38
0.71895343 -0.15847443 0.075602233 2.0547716e-38
0.71895343 -0.15597443 0.073102236 1.4835195e-38
0.71895343 -0.15597443 0.075602233 1.3268281e-38
0.71645343 -0.15347444 0.070602238 1.9626864e-38
0.71645343 -0.15347444 0.073102236 1.8891081e-38
0.71645343 -0.15347444 0.075602233 1.7324121e-38
0.71645343 -0.15097444 0.073102236 1.8338632e-38
0.71645343 -0.15097444 0.075602233 1.7417752e-38
0.71895343 -0.15347444 0.075602233 1.2348784e-38
0.71395344 -0.15347444 0.078102231 1.4651216e-38
0.71395344 -0.15097444 0.078102231 1.8524078e-38
0.71895343 -0.15847443 0.078102231 2.211689e-38
0.71895343 -0.15597443 0.078102231 1.5204293e-38
0.71645343 -0.15347444 0.078102231 1.2258015e-38
0.71145344 -0.14847443 0.068102233 1.6675512e-38
0.71145344 -0.14847443 0.070602238 1.5941913e-38
0.71145344 -0.14597443 0.068102233 1.4464207e-38
0.71145344 -0.14597443 0.070602238 1.6954953e-38
0.71395344 -0.14847443 0.068102233 1.6400375e-38
0.71395344 -0.14597443 0.068102233 1.5296899e-38
0.71395344 -0.14597443 0.070602238 1.6861698e-38
0.71145344 -0.14847443 0.073102236 1.7323405e-38
0.71145344 -0.14847443 0.075602233 1.8521225e-38
0.71145344 -0.14597443 0.073102236 1.7507068e-38
0.71145344 -0.14597443 0.075602233 1.8517978e-38
0.71395344 -0.14847443 0.073102236 1.842903e-38
0.71395344 -0.14847443 0.075602233 1.8521222e-38
0.71145344 -0.14347443 0.068102233 1.5481644e-38
0.71145344 -0.14347443 0.070602238 1.6403591e-38
0.71395344 -0.14347443 0.068102233 1.5297615e-38
0.71645343 -0.14347443 0.068102233 1.6402871e-38
0.72145343 -0.15847443 0.075602233 2.1192693e-38
0.72145343 -0.15597443 0.075602233 1.2625371e-38
0.72145343 -0.15847443 0.078102231 2.229912e-38
0.72145343 -0.15597443 0.078102231 1.5021346e-38
0.67895347 -0.12847443 0.060602233 1.5388041e-38
0.67895347 -0.12597443 0.060602233 1.7140456e-38
0.67895347 -0.12347443 0.060602233 1.7504884e-38
0.67895347 -0.12097443 0.060602233 1.4467486e-38
0.67895347 -0.12347443 0.063102238 1.7873663e-38
0.67895347 -0.12347443 0.065602235 1.6406519e-38
0.67895347 -0.12097443 0.063102238 1.4739132e-38
0.67895347 -0.12097443 0.065602235 2.3508092e-38
0.68645346 -0.13347444 0.063102238 1.7323402e-38
0.68645346 -0.13097443 0.063102238 1.5754282e-38
0.68895346 -0.13347444 0.063102238 1.6954948e-38
0.68895346 -0.13347444 0.065602235 1.1986138e-38
0.68895346 -0.13097443 0.063102238 1.4926644e-38
0.68895346 -0.13097443 0.065602235 1.7888098e-38
0.68145347 -0.12847443 0.060602233 1.778256e-38
0.68145347 -0.12597443 0.060602233 1.6213811e-38
0.68145347 -0.12847443 0.063102238 1.7415598e-38
0.68145347 -0.12847443 0.065602235 1.4284537e-38
0.68145347 -0.12597443 0.063102238 1.6398908e-38
0.68145347 -0.12597443 0.065602235 1.834693e-38
0.68395346 -0.12847443 0.063102238 1.6493972e-38
0.68395346 -0.12847443 0.065602235 1.6771736e-38
0.68395346 -0.12597443 0.063102238 1.8070343e-38
0.68395346 -0.12597443 0.065602235 2.1020604e-38
0.68145347 -0.12347443 0.063102238 1.2353849e-38
0.68145347 -0.12347443 0.065602235 2.3509886e-38
0.68145347 -0.12097443 0.063102238 1.8991934e-38
0.68145347 -0.12097443 0.065602235 2.3509886e-38
0.68395346 -0.12347443 0.065602235 2.3509886e-38
0.68395346 -0.12097443 0.063102238 2.3509886e-38
0.68395346 -0.12097443 0.065602235 2.3509886e-38
0.68645346 -0.12847443 0.065602235 2.3509886e-38
0.68645346 -0.12597443 0.065602235 2.3509886e-38
0.68895346 -0.12847443 0.065602235 2.3509886e-38
0.68395346 -0.12847443 0.068102233 2.3509886e-38
0.68395346 -0.12597443 0.068102233 2.3509886e-38
0.67895347 -0.11847443 0.060602233 1.5758225e-38
0.67895347 -0.11597443 0.060602233 2.3509886e-38
0.67895347 -0.11847443 0.063102238 1.7597198e-38
0.67895347 -0.11847443 0.065602235 2.3509886e-38
0.67895347 -0.11347443 0.060602233 2.3509886e-38
0.68145347 -0.11597443 0.060602233 2.3509886e-38
0.68145347 -0.11847443 0.063102238 2.3509886e-38
0.68145347 -0.11597443 0.063102238 2.3509886e-38
0.68395346 -0.11847443 0.063102238 2.3509886e-38
0.68145347 -0.11347443 0.063102238 2.3319008e-38
0.69145346 -0.13847443 0.063102238 1.7230133e-38
0.69145346 -0.13597444 0.063102238 1.6214161e-38
0.69395345 -0.13847443 0.063102238 1.7325553e-38
0.69395345 -0.13847443 0.065602235 1.5112505e-38
0.69395345 -0.13597444 0.063102238 1.446604e-38
0.69395345 -0.13597444 0.065602235 1.7424974e-38
0.69145346 -0.13347444 0.063102238 1.4001826e-38
0.69145346 -0.13347444 0.065602235 1.5853698e-38
0.69145346 -0.13097443 0.063102238 1.816504e-38
0.69145346 -0.13097443 0.065602235 2.34141e-38
0.69395345 -0.13347444 0.063102238 1.4927378e-38
0.69395345 -0.13347444 0.065602235 2.3509886e-38
0.69395345 -0.13097443 0.065602235 2.3509886e-38
0.69645345 -0.13847443 0.063102238 1.3913593e-38
0.69645345 -0.13847443 0.065602235 1.3174682e-38
0.69645345 -0.13597444 0.065602235 2.3509886e-38
0.69895345 -0.13847443 0.065602235 2.3509886e-38
0.69895345 -0.13597444 0.065602235 2.3509852e-38
0.69645345 -0.13097443 0.065602235 1.7508168e-38
0.70145345 -0.13847443 0.065602235 2.3509886e-38
0.70145345 -0.13597444 0.065602235 2.3509849e-38
0.69645345 -0.13847443 0.068102233 2.3509886e-38
0.69645345 -0.13597444 0.068102233 2.3509886e-38
0.69895345 -0.13847443 0.068102233 2.3509886e-38
0.69645345 -0.13347444 0.068102233 2.3509886e-38
0.69645345 -0.13097443 0.068102233 1.7506367e-38
