# .PCD v0.7 - Point Cloud Data file format
VERSION 0.7
FIELDS x y z rgb
SIZE 4 4 4 4
TYPE F F F F
COUNT 1 1 1 1
WIDTH 385
HEIGHT 1
VIEWPOINT 0 0 0 1 0 0 0
POINTS 385
DATA ascii
0.72477853 -0.18068163 0.064196937 2.1935338e-38
0.72477853 -0.18068163 0.066696934 2.1842043e-38
0.72227854 -0.18068163 0.069196932 2.2117906e-38
0.72477853 -0.18068163 0.069196932 1.7507771e-38
0.72477853 -0.18068163 0.071696937 1.6679831e-38
0.72727859 -0.18068163 0.069196932 1.612807e-38
0.72727859 -0.18068163 0.071696937 1.4006822e-38
0.72477853 -0.18068163 0.074196935 1.3451905e-38
0.69727856 -0.16068162 0.066696934 1.4188757e-38
0.69727856 -0.16318162 0.069196932 1.630888e-38
0.69727856 -0.16068162 0.069196932 1.7323032e-38
0.70727855 -0.17068163 0.069196932 1.7876572e-38
0.70727855 -0.17068163 0.071696937 1.8247152e-38
0.69977856 -0.16568163 0.066696934 1.5295096e-38
0.70227855 -0.16568163 0.066696934 1.6678019e-38
0.70227855 -0.16068162 0.061696932 1.6312496e-38
0.69977856 -0.16318162 0.066696934 1.640072e-38
0.69977856 -0.16068162 0.064196937 1.5662808e-38
0.69977856 -0.16068162 0.066696934 1.4188757e-38
0.70227855 -0.16318162 0.066696934 1.6954625e-38
0.70227855 -0.16068162 0.064196937 1.5754637e-38
0.70227855 -0.16068162 0.066696934 1.7968402e-38
0.70477855 -0.16818163 0.064196937 1.6770947e-38
0.70477855 -0.16568163 0.064196937 1.5019589e-38
0.70477855 -0.16318162 0.064196937 1.7414149e-38
0.70477855 -0.16318162 0.066696934 1.7415613e-38
0.70477855 -0.16068162 0.064196937 1.7783304e-38
0.70477855 -0.16068162 0.066696934 1.7876575e-38
0.69977856 -0.16818163 0.071696937 1.750635e-38
0.69977856 -0.16568163 0.069196932 1.6861698e-38
0.69977856 -0.16568163 0.071696937 1.7230111e-38
0.70227855 -0.16818163 0.069196932 1.73216e-38
0.70227855 -0.16818163 0.071696937 1.6955341e-38
0.70227855 -0.16568163 0.069196932 1.7323388e-38
0.70227855 -0.16568163 0.071696937 1.7784714e-38
0.69977856 -0.16318162 0.069196932 1.7046092e-38
0.69977856 -0.16068162 0.069196932 1.7323038e-38
0.70227855 -0.16318162 0.069196932 1.714009e-38
0.70227855 -0.16318162 0.071696937 1.714186e-38
0.70227855 -0.16068162 0.069196932 1.7324121e-38
0.70227855 -0.16068162 0.071696937 1.668124e-38
0.70477855 -0.16568163 0.071696937 1.6125934e-38
0.70727855 -0.16818163 0.069196932 1.7966254e-38
0.70727855 -0.16818163 0.071696937 1.6494033e-38
0.70727855 -0.16568163 0.069196932 1.5849704e-38
0.70727855 -0.16568163 0.071696937 1.5111098e-38
0.70477855 -0.16318162 0.069196932 1.6863849e-38
0.70477855 -0.16318162 0.071696937 1.45604e-38
0.70477855 -0.16068162 0.069196932 1.603231e-38
0.70477855 -0.16068162 0.071696937 1.4191975e-38
0.70727855 -0.16318162 0.069196932 1.4836627e-38
0.70727855 -0.16318162 0.071696937 1.4558963e-38
0.70727855 -0.16068162 0.069196932 1.3823917e-38
0.70727855 -0.16068162 0.071696937 1.5107833e-38
0.69727856 -0.15818162 0.066696934 1.7599644e-38
0.69727856 -0.15818162 0.069196932 1.8244658e-38
0.69727856 -0.14568162 0.061696932 1.5939394e-38
0.69727856 -0.14568162 0.064196937 1.5389814e-38
0.69477856 -0.14068162 0.061696932 1.603341e-38
0.69727856 -0.14318162 0.061696932 1.4558996e-38
0.69727856 -0.14068162 0.061696932 1.6218519e-38
0.69477856 -0.14318162 0.064196937 1.6678755e-38
0.69477856 -0.14068162 0.064196937 1.5019233e-38
0.69727856 -0.14318162 0.064196937 1.6034461e-38
0.69727856 -0.14318162 0.066696934 1.1618429e-38
0.69727856 -0.14068162 0.064196937 1.4558235e-38
0.69727856 -0.14068162 0.066696934 1.7518949e-38
0.70227855 -0.15818162 0.061696932 1.7688941e-38
0.69977856 -0.15818162 0.064196937 1.7691111e-38
0.69977856 -0.15818162 0.066696934 1.7507443e-38
0.70227855 -0.15818162 0.064196937 1.8149916e-38
0.70227855 -0.15818162 0.066696934 1.7784011e-38
0.70227855 -0.15568163 0.064196937 1.4370254e-38
0.70227855 -0.15318163 0.064196937 1.2716122e-38
0.70227855 -0.15068163 0.064196937 1.4926334e-38
0.70477855 -0.15568163 0.061696932 1.2899437e-38
0.70477855 -0.15818162 0.064196937 1.7600342e-38
0.70477855 -0.15818162 0.066696934 1.7507068e-38
0.70477855 -0.15568163 0.064196937 1.4004713e-38
0.70477855 -0.15568163 0.066696934 1.4649362e-38
0.70727855 -0.15568163 0.064196937 1.3913609e-38
0.70477855 -0.15068163 0.061696932 1.4559344e-38
0.70477855 -0.15318163 0.064196937 1.42813e-38
0.70477855 -0.15318163 0.066696934 1.2809037e-38
0.70477855 -0.15068163 0.064196937 1.3913959e-38
0.70477855 -0.15068163 0.066696934 1.631792e-38
0.70727855 -0.15318163 0.064196937 1.4373514e-38
0.70727855 -0.15318163 0.066696934 1.364425e-38
0.70727855 -0.15068163 0.064196937 1.3635558e-38
0.70727855 -0.15068163 0.066696934 1.6410119e-38
0.69977856 -0.15818162 0.069196932 1.7599992e-38
0.70227855 -0.15818162 0.069196932 1.4927391e-38
0.70227855 -0.15818162 0.071696937 1.4743019e-38
0.70227855 -0.15568163 0.069196932 1.4096192e-38
0.70477855 -0.15818162 0.069196932 1.4650823e-38
0.70477855 -0.15818162 0.071696937 1.4191975e-38
0.70477855 -0.15568163 0.069196932 1.5107819e-38
0.70727855 -0.15818162 0.069196932 1.6217426e-38
0.70727855 -0.15818162 0.071696937 1.7966251e-38
0.70727855 -0.15568163 0.069196932 1.501527e-38
0.70727855 -0.15568163 0.071696937 2.1194901e-38
0.70727855 -0.15318163 0.069196932 1.4001476e-38
0.70727855 -0.15068163 0.069196932 1.9627277e-38
0.69977856 -0.14568162 0.061696932 1.5940101e-38
0.70227855 -0.14818162 0.061696932 1.6402874e-38
0.70227855 -0.14568162 0.061696932 1.6121262e-38
0.69977856 -0.14818162 0.064196937 1.5388016e-38
0.69977856 -0.14568162 0.064196937 1.501703e-38
0.70227855 -0.14818162 0.064196937 1.5849351e-38
0.70227855 -0.14818162 0.066696934 1.3818529e-38
0.70227855 -0.14568162 0.064196937 1.4831605e-38
0.70227855 -0.14568162 0.066696934 1.6316471e-38
0.69977856 -0.14318162 0.064196937 1.4277349e-38
0.69977856 -0.14318162 0.066696934 1.6036995e-38
0.69977856 -0.14068162 0.064196937 2.3413724e-38
0.69977856 -0.14068162 0.066696934 2.3505201e-38
0.70227855 -0.14318162 0.066696934 2.3509886e-38
0.70227855 -0.14068162 0.066696934 2.3509886e-38
0.70477855 -0.14818162 0.064196937 1.409404e-38
0.70477855 -0.14818162 0.066696934 1.3265426e-38
0.70477855 -0.14568162 0.064196937 1.5948052e-38
0.70477855 -0.14568162 0.066696934 1.9820984e-38
0.70727855 -0.14818162 0.066696934 2.2311342e-38
0.70727855 -0.14568162 0.066696934 2.3509886e-38
0.70477855 -0.14318162 0.066696934 2.3506657e-38
0.70477855 -0.14068162 0.066696934 1.760003e-38
0.70727855 -0.14318162 0.066696934 2.3507733e-38
0.70727855 -0.14068162 0.066696934 1.7508913e-38
0.69977856 -0.14318162 0.069196932 2.3509886e-38
0.69977856 -0.14068162 0.069196932 2.3509886e-38
0.70227855 -0.14318162 0.069196932 2.3506657e-38
0.70227855 -0.14068162 0.069196932 1.7508913e-38
0.70727855 -0.14818162 0.069196932 2.3509886e-38
0.70727855 -0.14318162 0.069196932 2.0364745e-38
0.70727855 -0.14068162 0.069196932 1.7506682e-38
0.70477855 -0.15068163 0.07919693 1.9074396e-38
0.70477855 -0.14818162 0.07919693 1.8429395e-38
0.70977855 -0.17068163 0.069196932 1.8428326e-38
0.70977855 -0.17068163 0.071696937 1.7785462e-38
0.71227854 -0.17068163 0.071696937 1.6958213e-38
0.71727854 -0.17318162 0.069196932 1.8427958e-38
0.71727854 -0.17068163 0.069196932 1.7232301e-38
0.71727854 -0.17068163 0.071696937 1.4189473e-38
0.70977855 -0.16818163 0.069196932 1.7045392e-38
0.70977855 -0.16818163 0.071696937 1.6309972e-38
0.70977855 -0.16568163 0.071696937 1.4005066e-38
0.71227854 -0.16818163 0.071696937 1.5941562e-38
0.71227854 -0.16568163 0.071696937 1.4468175e-38
0.70977855 -0.16318162 0.071696937 1.3271097e-38
0.70977855 -0.16068162 0.071696937 1.8523027e-38
0.71227854 -0.16318162 0.071696937 1.7782606e-38
0.71227854 -0.16068162 0.071696937 2.0364797e-38
0.71477854 -0.16818163 0.071696937 1.4282374e-38
0.71477854 -0.16568163 0.071696937 1.7048243e-38
0.71727854 -0.16818163 0.071696937 1.4464968e-38
0.71727854 -0.16568163 0.071696937 1.7230837e-38
0.71477854 -0.16318162 0.071696937 2.1104855e-38
0.71477854 -0.16068162 0.071696937 2.2574218e-38
0.71727854 -0.16318162 0.071696937 2.1928475e-38
0.71727854 -0.16068162 0.071696937 2.2480517e-38
0.71477854 -0.16068162 0.074196935 2.2664889e-38
0.71727854 -0.16068162 0.074196935 2.2850449e-38
0.71977854 -0.17568162 0.066696934 2.1564775e-38
0.72227854 -0.17818162 0.066696934 2.2300171e-38
0.72227854 -0.17568162 0.064196937 2.1840285e-38
0.72227854 -0.17568162 0.066696934 1.870454e-38
0.71977854 -0.17318162 0.066696934 1.8520872e-38
0.72227854 -0.17318162 0.066696934 1.7322686e-38
0.72477853 -0.17818162 0.064196937 2.1564773e-38
0.72477853 -0.17818162 0.066696934 2.0826113e-38
0.72477853 -0.17568162 0.064196937 2.1563328e-38
0.72477853 -0.17568162 0.066696934 1.7414897e-38
0.72477853 -0.17318162 0.064196937 1.8428676e-38
0.72477853 -0.17318162 0.066696934 1.6403241e-38
0.72227854 -0.17818162 0.069196932 2.0549549e-38
0.72227854 -0.17568162 0.069196932 1.6772382e-38
0.72227854 -0.17818162 0.074196935 1.391392e-38
0.72227854 -0.17818162 0.076696932 1.3635948e-38
0.72227854 -0.17568162 0.076696932 1.6857815e-38
0.71977854 -0.17068163 0.069196932 1.6217776e-38
0.71977854 -0.17068163 0.071696937 1.4742631e-38
0.72227854 -0.17318162 0.069196932 1.6218833e-38
0.72227854 -0.17068163 0.069196932 1.4557882e-38
0.72477853 -0.17818162 0.069196932 1.7414152e-38
0.72477853 -0.17818162 0.071696937 1.6220279e-38
0.72477853 -0.17568162 0.069196932 1.594117e-38
0.72477853 -0.17568162 0.071696937 1.5021736e-38
0.72727859 -0.17818162 0.069196932 1.5482013e-38
0.72727859 -0.17818162 0.071696937 1.3268592e-38
0.72727859 -0.17568162 0.069196932 1.4371363e-38
0.72727859 -0.17568162 0.071696937 1.575967e-38
0.72477853 -0.17818162 0.074196935 1.3815718e-38
0.72477853 -0.17568162 0.074196935 1.6396843e-38
0.72727859 -0.17818162 0.074196935 1.3724236e-38
0.72727859 -0.17568162 0.074196935 1.9812006e-38
0.72477853 -0.17318162 0.069196932 1.3270002e-38
0.72477853 -0.17318162 0.071696937 1.4738353e-38
0.72477853 -0.17068163 0.069196932 1.8711728e-38
0.72477853 -0.17068163 0.071696937 2.1752035e-38
0.72727859 -0.17318162 0.071696937 2.0830429e-38
0.72727859 -0.17068163 0.071696937 2.3509886e-38
0.72477853 -0.17318162 0.074196935 2.24846e-38
0.72477853 -0.17068163 0.074196935 2.3509886e-38
0.72727859 -0.17318162 0.074196935 2.3509886e-38
0.72727859 -0.17068163 0.074196935 2.3509886e-38
0.71977854 -0.16818163 0.071696937 1.8150705e-38
0.71977854 -0.16568163 0.071696937 2.1467497e-38
0.72227854 -0.16818163 0.069196932 1.4739467e-38
0.71977854 -0.16568163 0.074196935 2.3509886e-38
0.72227854 -0.16818163 0.074196935 2.3509886e-38
0.72227854 -0.16818163 0.076696932 2.3509859e-38
0.72227854 -0.16568163 0.074196935 2.3509886e-38
0.72227854 -0.16568163 0.076696932 2.3494691e-38
0.71977854 -0.16318162 0.071696937 2.3509886e-38
0.71977854 -0.16318162 0.074196935 2.3509886e-38
0.71977854 -0.16318162 0.076696932 2.3504128e-38
0.71977854 -0.16068162 0.074196935 2.266569e-38
0.71977854 -0.16068162 0.076696932 2.3506649e-38
0.72227854 -0.16318162 0.074196935 2.3496171e-38
0.72227854 -0.16318162 0.076696932 2.2572734e-38
0.72227854 -0.16068162 0.076696932 2.3503029e-38
0.72477853 -0.16818163 0.071696937 2.3141103e-38
0.72727859 -0.16818163 0.071696937 2.3509886e-38
0.72477853 -0.16818163 0.074196935 2.3509866e-38
0.72727859 -0.16818163 0.074196935 2.3509872e-38
0.71977854 -0.16068162 0.07919693 2.3502679e-38
0.71227854 -0.15318163 0.066696934 1.6305653e-38
0.70977855 -0.15818162 0.069196932 1.7966607e-38
0.70977855 -0.15818162 0.071696937 2.2208347e-38
0.70977855 -0.15568163 0.069196932 2.1654076e-38
0.70977855 -0.15568163 0.071696937 2.2115793e-38
0.71227854 -0.15818162 0.071696937 2.2853698e-38
0.71227854 -0.15568163 0.069196932 2.2664615e-38
0.71227854 -0.15568163 0.071696937 2.1563328e-38
0.71227854 -0.15818162 0.074196935 1.9626124e-38
0.71227854 -0.15568163 0.074196935 1.9994908e-38
0.70977855 -0.15318163 0.069196932 1.6489641e-38
0.70977855 -0.15318163 0.071696937 2.0637033e-38
0.70977855 -0.15068163 0.069196932 1.9533614e-38
0.70977855 -0.15068163 0.071696937 1.7044643e-38
0.71227854 -0.15318163 0.069196932 1.6213811e-38
0.71227854 -0.15318163 0.071696937 2.0641373e-38
0.71227854 -0.15068163 0.069196932 1.7411998e-38
0.71227854 -0.15068163 0.071696937 1.8059524e-38
0.70977855 -0.15318163 0.074196935 1.9259861e-38
0.70977855 -0.15068163 0.074196935 1.8059171e-38
0.71227854 -0.15318163 0.074196935 1.9443907e-38
0.71227854 -0.15318163 0.076696932 1.9076195e-38
0.71227854 -0.15068163 0.074196935 1.9074752e-38
0.71227854 -0.15068163 0.076696932 1.8523378e-38
0.71477854 -0.15818162 0.071696937 1.9352425e-38
0.71477854 -0.15568163 0.071696937 1.9721217e-38
0.71727854 -0.15818162 0.071696937 1.8521941e-38
0.71727854 -0.15568163 0.071696937 1.8339002e-38
0.71477854 -0.15818162 0.074196935 1.8706693e-38
0.71477854 -0.15568163 0.074196935 1.8246447e-38
0.71727854 -0.15818162 0.074196935 1.5659918e-38
0.71727854 -0.15568163 0.074196935 1.4651174e-38
0.71477854 -0.15318163 0.069196932 1.8244633e-38
0.71477854 -0.15318163 0.071696937 1.9168044e-38
0.71727854 -0.15318163 0.071696937 1.8891817e-38
0.71477854 -0.15318163 0.074196935 1.8891817e-38
0.71477854 -0.15318163 0.076696932 1.7233005e-38
0.71477854 -0.15068163 0.074196935 1.760178e-38
0.71477854 -0.15068163 0.076696932 1.7140443e-38
0.71727854 -0.15318163 0.074196935 1.704826e-38
0.71727854 -0.15318163 0.076696932 1.4837388e-38
0.71727854 -0.15068163 0.074196935 1.73252e-38
0.70977855 -0.14568162 0.066696934 2.3509751e-38
0.71227854 -0.14568162 0.066696934 1.5203979e-38
0.70977855 -0.14318162 0.066696934 2.0366194e-38
0.71227854 -0.14318162 0.064196937 1.7599967e-38
0.71227854 -0.14318162 0.066696934 1.4560032e-38
0.71477854 -0.14318162 0.064196937 1.8985422e-38
0.71477854 -0.14318162 0.066696934 1.5665679e-38
0.71727854 -0.14318162 0.066696934 1.9353504e-38
0.70977855 -0.14818162 0.069196932 2.0087164e-38
0.70977855 -0.14818162 0.071696937 1.6400723e-38
0.70977855 -0.14568162 0.069196932 1.8059483e-38
0.70977855 -0.14568162 0.071696937 1.6954229e-38
0.71227854 -0.14818162 0.069196932 1.6675512e-38
0.71227854 -0.14818162 0.071696937 1.7047541e-38
0.71227854 -0.14568162 0.069196932 1.4743703e-38
0.71227854 -0.14568162 0.071696937 1.7507424e-38
0.70977855 -0.14818162 0.074196935 1.7137935e-38
0.70977855 -0.14568162 0.074196935 1.723119e-38
0.71227854 -0.14818162 0.074196935 1.8429393e-38
0.71227854 -0.14818162 0.076696932 1.8153537e-38
0.71227854 -0.14568162 0.074196935 1.8426859e-38
0.70977855 -0.14318162 0.069196932 1.4651137e-38
0.70977855 -0.14318162 0.071696937 1.631031e-38
0.71227854 -0.14318162 0.069196932 1.6586542e-38
0.71227854 -0.14318162 0.071696937 1.6954934e-38
0.71477854 -0.14818162 0.071696937 1.8429395e-38
0.71477854 -0.14568162 0.069196932 1.7229742e-38
0.71477854 -0.14568162 0.071696937 1.8334666e-38
0.71477854 -0.14318162 0.069196932 1.6402871e-38
0.71727854 -0.14318162 0.069196932 1.6954953e-38
0.71977854 -0.15818162 0.074196935 2.0822873e-38
0.71977854 -0.15818162 0.076696932 2.1102312e-38
0.71977854 -0.15568163 0.074196935 1.4558978e-38
0.71977854 -0.15568163 0.076696932 1.290339e-38
0.72227854 -0.15818162 0.076696932 2.1931073e-38
0.71977854 -0.15318163 0.076696932 1.2258021e-38
0.71477854 -0.15318163 0.07919693 1.2073274e-38
0.71977854 -0.15818162 0.07919693 2.2023622e-38
0.67727858 -0.12818162 0.061696932 1.50189e-38
0.67727858 -0.12568162 0.061696932 1.778366e-38
0.67727858 -0.12318163 0.061696932 1.7414155e-38
0.67727858 -0.12068162 0.061696932 1.5662439e-38
0.68727857 -0.13318163 0.064196937 1.7044994e-38
0.68727857 -0.13068162 0.064196937 1.492594e-38
0.67977858 -0.12818162 0.061696932 1.5019256e-38
0.67977858 -0.12568162 0.061696932 1.6771696e-38
0.68227857 -0.12818162 0.061696932 1.8151354e-38
0.67977858 -0.12818162 0.064196937 1.7599263e-38
0.67977858 -0.12568162 0.064196937 1.6674066e-38
0.67977858 -0.12568162 0.066696934 2.3509886e-38
0.68227857 -0.12818162 0.064196937 1.7876559e-38
0.68227857 -0.12818162 0.066696934 1.4559331e-38
0.68227857 -0.12568162 0.064196937 1.4559292e-38
0.68227857 -0.12568162 0.066696934 1.7885952e-38
0.67977858 -0.12318163 0.061696932 1.7596733e-38
0.67977858 -0.12068162 0.061696932 1.5660624e-38
0.67977858 -0.12318163 0.064196937 1.2722271e-38
0.67977858 -0.12318163 0.066696934 2.3509886e-38
0.67977858 -0.12068162 0.064196937 1.9268161e-38
0.67977858 -0.12068162 0.066696934 2.3509886e-38
0.68227857 -0.12318163 0.064196937 1.6499067e-38
0.68227857 -0.12318163 0.066696934 2.3509886e-38
0.68227857 -0.12068162 0.064196937 2.3509886e-38
0.68227857 -0.12068162 0.066696934 2.3509886e-38
0.68477857 -0.12818162 0.064196937 1.4834839e-38
0.68477857 -0.12818162 0.066696934 1.658557e-38
0.68477857 -0.12568162 0.066696934 2.0928408e-38
0.68477857 -0.12318163 0.066696934 2.350592e-38
0.68477857 -0.12568162 0.069196932 2.3509886e-38
0.67727858 -0.11818162 0.061696932 1.5575263e-38
0.67727858 -0.11568163 0.061696932 2.3509886e-38
0.67727858 -0.11318162 0.061696932 2.3509886e-38
0.67977858 -0.11818162 0.061696932 2.1850364e-38
0.67977858 -0.11568163 0.061696932 2.3509886e-38
0.68227857 -0.11568163 0.061696932 2.3509886e-38
0.67977858 -0.11818162 0.064196937 2.3509886e-38
0.67977858 -0.11568163 0.064196937 2.3509886e-38
0.68227857 -0.11818162 0.064196937 2.3509886e-38
0.67977858 -0.11318162 0.061696932 2.3509886e-38
0.69227856 -0.13818163 0.061696932 1.7322309e-38
0.69227856 -0.13568163 0.061696932 1.6305653e-38
0.69227856 -0.13818163 0.064196937 1.5850052e-38
0.69227856 -0.13568163 0.064196937 1.4373864e-38
0.68977857 -0.13318163 0.061696932 1.7229392e-38
0.68977857 -0.13068162 0.061696932 1.5201088e-38
0.69227856 -0.13318163 0.061696932 1.2262722e-38
0.69227856 -0.13068162 0.061696932 1.7886656e-38
0.68977857 -0.13318163 0.064196937 1.2079054e-38
0.68977857 -0.13068162 0.064196937 1.7795182e-38
0.68977857 -0.13068162 0.066696934 2.3229706e-38
0.69227856 -0.13318163 0.064196937 1.5761502e-38
0.69227856 -0.13318163 0.066696934 2.3509886e-38
0.69227856 -0.13068162 0.064196937 2.2952762e-38
0.69227856 -0.13068162 0.066696934 2.3509886e-38
0.69477856 -0.13818163 0.061696932 1.7509572e-38
0.69477856 -0.13818163 0.064196937 1.4099781e-38
0.69477856 -0.13818163 0.066696934 1.5940916e-38
0.69477856 -0.13568163 0.064196937 1.7609365e-38
0.69477856 -0.13568163 0.066696934 2.0836212e-38
0.69727856 -0.13818163 0.064196937 1.3820417e-38
0.69727856 -0.13818163 0.066696934 2.3509886e-38
0.69727856 -0.13568163 0.066696934 2.3509886e-38
0.69477856 -0.13318163 0.064196937 2.3509886e-38
0.69477856 -0.13318163 0.066696934 2.3509886e-38
0.69477856 -0.13068162 0.064196937 2.3509886e-38
0.69477856 -0.13068162 0.066696934 2.3509886e-38
0.69727856 -0.13318163 0.066696934 2.3506294e-38
0.69727856 -0.13068162 0.064196937 2.3509886e-38
0.69727856 -0.13068162 0.066696934 1.778296e-38
0.68977857 -0.12818162 0.064196937 2.3509886e-38
0.69977856 -0.13818163 0.064196937 2.3509886e-38
0.69977856 -0.13818163 0.066696934 2.3509886e-38
0.69977856 -0.13568163 0.066696934 2.350986e-38
0.70227855 -0.13818163 0.066696934 2.1201748e-38
0.72977859 -0.17568162 0.071696937 1.9351021e-38
0.72977859 -0.17568162 0.074196935 2.3509884e-38
0.72977859 -0.17318162 0.074196935 2.3507002e-38
