# .PCD v0.7 - Point Cloud Data file format
VERSION 0.7
FIELDS x y z rgb
SIZE 4 4 4 4
TYPE F F F F
COUNT 1 1 1 1
WIDTH 329
HEIGHT 1
VIEWPOINT 0 0 0 1 0 0 0
POINTS 329
DATA ascii
0.68480426 0.1853306 0.057436336 1.5757505e-38
0.68480426 0.1853306 0.059936337 1.6217369e-38
0.68480426 0.1878306 0.057436336 1.1422529e-38
0.68480426 0.1878306 0.059936337 1.0782943e-38
0.68730426 0.1853306 0.057436336 1.6125173e-38
0.68730426 0.1878306 0.057436336 1.0132457e-38
0.68980426 0.1878306 0.057436336 1.031866e-38
0.68480426 0.19033059 0.057436336 2.3509157e-38
0.68480426 0.19033059 0.059936337 2.3509886e-38
0.68480426 0.19283059 0.057436336 2.3503783e-38
0.68480426 0.19283059 0.059936337 2.3506657e-38
0.68480426 0.19533059 0.057436336 7.5546312e-39
0.68480426 0.19533059 0.059936337 7.6475359e-39
0.68730426 0.19033059 0.057436336 1.0782943e-38
0.68730426 0.19033059 0.059936337 1.1792409e-38
0.68730426 0.19283059 0.057436336 2.3506657e-38
0.68730426 0.19283059 0.059936337 2.3499122e-38
0.68980426 0.19033059 0.057436336 1.1976447e-38
0.68980426 0.19033059 0.059936337 2.3509886e-38
0.68980426 0.19283059 0.059936337 2.3500899e-38
0.68730426 0.19533059 0.057436336 7.5553347e-39
0.68730426 0.19533059 0.059936337 7.6475303e-39
0.68730426 0.19783059 0.057436336 9.5836385e-39
0.68730426 0.19783059 0.059936337 1.0043916e-38
0.68980426 0.19533059 0.057436336 7.3698897e-39
0.68980426 0.19533059 0.059936337 1.123816e-38
0.68980426 0.19783059 0.057436336 9.6761929e-39
0.68980426 0.19783059 0.059936337 1.0043913e-38
0.69230431 0.19033059 0.057436336 1.1427965e-38
0.69230431 0.19033059 0.059936337 1.2438481e-38
0.69230431 0.19283059 0.057436336 2.3509886e-38
0.69230431 0.19283059 0.059936337 2.3503758e-38
0.69480431 0.19033059 0.057436336 1.0963682e-38
0.69480431 0.19033059 0.059936337 1.1980059e-38
0.69480431 0.19283059 0.059936337 2.3508092e-38
0.69230431 0.19533059 0.057436336 8.0156094e-39
0.69230431 0.19533059 0.059936337 1.2059615e-38
0.69230431 0.19783059 0.057436336 1.0136109e-38
0.69230431 0.19783059 0.059936337 9.9535337e-39
0.69480431 0.19533059 0.059936337 1.0499855e-38
0.69480431 0.19783059 0.057436336 1.0230478e-38
0.69480431 0.19783059 0.059936337 7.4642503e-39
0.69230431 0.2003306 0.057436336 1.0230083e-38
0.69480431 0.2003306 0.057436336 1.0689986e-38
0.71480429 0.1878306 0.062436335 1.179309e-38
0.71480429 0.1878306 0.06493634 1.1150241e-38
0.71480429 0.1853306 0.067436337 1.2714307e-38
0.71480429 0.1878306 0.067436337 1.1793092e-38
0.69730431 0.19033059 0.059936337 1.1239896e-38
0.69730431 0.19283059 0.059936337 2.3504824e-38
0.69980431 0.19283059 0.057436336 2.3504111e-38
0.69730431 0.19533059 0.059936337 2.3501961e-38
0.69730431 0.19783059 0.059936337 7.923062e-39
0.69980431 0.19533059 0.057436336 2.3500879e-38
0.69980431 0.19783059 0.057436336 1.1506446e-38
0.7023043 0.19283059 0.057436336 1.1980415e-38
0.7023043 0.19283059 0.059936337 1.2071529e-38
0.7048043 0.19283059 0.057436336 1.3357188e-38
0.7048043 0.19283059 0.059936337 1.3083886e-38
0.7023043 0.19533059 0.057436336 2.341231e-38
0.7023043 0.19533059 0.059936337 2.3504481e-38
0.7023043 0.19783059 0.057436336 6.7273901e-39
0.7023043 0.19783059 0.059936337 9.9474002e-39
0.7048043 0.19533059 0.057436336 2.3502673e-38
0.7048043 0.19533059 0.059936337 2.3503787e-38
0.7048043 0.19783059 0.057436336 1.1963464e-38
0.7048043 0.19783059 0.059936337 1.1139088e-38
0.69730431 0.19033059 0.062436335 1.2346632e-38
0.69730431 0.19283059 0.062436335 2.3504104e-38
0.69980431 0.19283059 0.062436335 2.3136804e-38
0.69730431 0.19533059 0.062436335 1.1506446e-38
0.69980431 0.19533059 0.062436335 2.3505549e-38
0.7048043 0.19033059 0.062436335 1.161016e-38
0.7048043 0.19283059 0.062436335 1.3728542e-38
0.7048043 0.19533059 0.062436335 2.3502679e-38
0.7048043 0.19783059 0.062436335 1.306547e-38
0.7048043 0.2003306 0.057436336 5.9898223e-39
0.7048043 0.2003306 0.059936337 5.6210411e-39
0.7073043 0.19283059 0.059936337 1.0876192e-38
0.7098043 0.19033059 0.059936337 9.9517176e-39
0.7073043 0.19533059 0.059936337 2.3501605e-38
0.7073043 0.19783059 0.059936337 1.3065823e-38
0.71230429 0.19033059 0.059936337 1.0044264e-38
0.71230429 0.19283059 0.059936337 9.583654e-39
0.71480429 0.19033059 0.057436336 1.0504875e-38
0.71480429 0.19283059 0.057436336 9.7684054e-39
0.7073043 0.19033059 0.06493634 1.161016e-38
0.7073043 0.19283059 0.062436335 1.1334652e-38
0.7073043 0.19283059 0.06493634 1.1149903e-38
0.7098043 0.19033059 0.062436335 9.9513477e-39
0.7098043 0.19283059 0.062436335 1.1427567e-38
0.7098043 0.19283059 0.06493634 1.4283878e-38
0.7073043 0.19533059 0.062436335 2.3501992e-38
0.7073043 0.19533059 0.06493634 2.3501601e-38
0.7073043 0.19783059 0.062436335 1.1783742e-38
0.7073043 0.19783059 0.06493634 1.1869804e-38
0.7098043 0.19533059 0.06493634 2.3503787e-38
0.7098043 0.19783059 0.062436335 2.3500504e-38
0.7098043 0.19783059 0.06493634 9.3920446e-39
0.71230429 0.19033059 0.062436335 1.0043916e-38
0.71230429 0.19033059 0.06493634 1.0322323e-38
0.71230429 0.19283059 0.062436335 1.1149903e-38
0.71230429 0.19283059 0.06493634 9.5843994e-39
0.71480429 0.19033059 0.062436335 1.0872928e-38
0.71480429 0.19033059 0.06493634 1.105768e-38
0.71480429 0.19283059 0.062436335 1.0504534e-38
0.71480429 0.19283059 0.06493634 1.004678e-38
0.71230429 0.19533059 0.06493634 2.3501272e-38
0.71230429 0.19783059 0.06493634 2.3496192e-38
0.71480429 0.19533059 0.06493634 1.2443947e-38
0.71480429 0.19783059 0.06493634 2.3497275e-38
0.7073043 0.2003306 0.059936337 4.8834789e-39
0.7098043 0.2028306 0.059936337 9.2166665e-39
0.71230429 0.2003306 0.059936337 5.9901726e-39
0.71230429 0.2028306 0.059936337 1.0043913e-38
0.71230429 0.2053306 0.059936337 9.8598527e-39
0.71480429 0.20783059 0.057436336 9.4907395e-39
0.7073043 0.2003306 0.062436335 5.5288469e-39
0.7073043 0.2003306 0.06493634 5.7132396e-39
0.7098043 0.2003306 0.062436335 5.6210411e-39
0.7098043 0.2003306 0.06493634 4.7909287e-39
0.7098043 0.2028306 0.062436335 9.8598527e-39
0.71230429 0.2003306 0.062436335 4.7912819e-39
0.71230429 0.2003306 0.06493634 4.6079696e-39
0.71230429 0.2028306 0.062436335 9.3988942e-39
0.71230429 0.2028306 0.06493634 8.8486099e-39
0.71480429 0.2003306 0.062436335 4.6990862e-39
0.71480429 0.2003306 0.06493634 6.9924569e-39
0.71480429 0.2028306 0.062436335 9.0319291e-39
0.71480429 0.2028306 0.06493634 8.9408055e-39
0.71480429 0.2028306 0.067436337 8.8486099e-39
0.71230429 0.2053306 0.06493634 8.9407873e-39
0.71480429 0.2053306 0.062436335 8.8478882e-39
0.71480429 0.2053306 0.06493634 9.0329885e-39
0.71480429 0.2053306 0.067436337 9.6754895e-39
0.71730429 0.1878306 0.059936337 1.1425383e-38
0.71980429 0.1878306 0.059936337 1.3546958e-38
0.71730429 0.1853306 0.06493634 1.3729551e-38
0.71730429 0.1878306 0.062436335 1.1610854e-38
0.71730429 0.1878306 0.06493634 1.1793443e-38
0.71980429 0.1853306 0.06493634 1.4559684e-38
0.71980429 0.1878306 0.06493634 1.3731e-38
0.71730429 0.1853306 0.067436337 1.2991968e-38
0.71730429 0.1853306 0.069936335 1.2248933e-38
0.71730429 0.1878306 0.067436337 1.105586e-38
0.71730429 0.1878306 0.069936335 1.6028596e-38
0.71980429 0.1853306 0.067436337 1.3361159e-38
0.71980429 0.1853306 0.069936335 8.570944e-39
0.71980429 0.1878306 0.069936335 1.9358193e-38
0.72230428 0.1853306 0.067436337 1.1793462e-38
0.72230428 0.1853306 0.069936335 1.0047133e-38
0.72230428 0.1878306 0.069936335 6.2668071e-39
0.72480428 0.1878306 0.069936335 6.1785744e-39
0.71730429 0.19033059 0.059936337 1.0965484e-38
0.71730429 0.19033059 0.062436335 1.1333556e-38
0.71730429 0.19033059 0.06493634 1.0686019e-38
0.71730429 0.19283059 0.062436335 1.004678e-38
0.71730429 0.19283059 0.06493634 9.3988801e-39
0.71980429 0.19033059 0.06493634 1.0317962e-38
0.71980429 0.19283059 0.06493634 8.7563946e-39
0.71730429 0.19033059 0.067436337 1.1327504e-38
0.71730429 0.19283059 0.067436337 1.1233379e-38
0.71980429 0.19033059 0.067436337 1.897832e-38
0.71980429 0.19033059 0.069936335 2.3509886e-38
0.71980429 0.19283059 0.067436337 1.8434771e-38
0.71730429 0.19533059 0.062436335 8.8485972e-39
0.71730429 0.19533059 0.06493634 1.1608406e-38
0.71730429 0.19783059 0.06493634 1.9445034e-38
0.71980429 0.19533059 0.06493634 6.0817544e-39
0.71980429 0.19783059 0.06493634 1.262801e-38
0.71730429 0.19533059 0.067436337 6.0814013e-39
0.71730429 0.19783059 0.067436337 1.253509e-38
0.71980429 0.19533059 0.067436337 1.5392314e-38
0.71980429 0.19533059 0.069936335 2.3509886e-38
0.71980429 0.19783059 0.067436337 1.4469326e-38
0.71980429 0.19783059 0.069936335 2.3509886e-38
0.72230428 0.19033059 0.067436337 2.3509886e-38
0.72230428 0.19033059 0.069936335 2.3509886e-38
0.72230428 0.19283059 0.067436337 2.3509886e-38
0.72230428 0.19283059 0.069936335 2.3509886e-38
0.72480428 0.19033059 0.069936335 2.3509886e-38
0.72480428 0.19283059 0.069936335 2.3509886e-38
0.72230428 0.19533059 0.067436337 2.3509886e-38
0.72230428 0.19533059 0.069936335 2.3509886e-38
0.72230428 0.19783059 0.067436337 2.3509886e-38
0.72230428 0.19783059 0.069936335 2.3509886e-38
0.72480428 0.19533059 0.069936335 2.3509886e-38
0.72480428 0.19783059 0.069936335 2.3509886e-38
0.71730429 0.2053306 0.059936337 9.3992473e-39
0.71730429 0.20783059 0.059936337 9.4910898e-39
0.71980429 0.20783059 0.059936337 9.9513505e-39
0.72230428 0.20783059 0.059936337 9.5836385e-39
0.72480428 0.20783059 0.059936337 9.2170196e-39
0.71730429 0.2003306 0.06493634 7.8200456e-39
0.71730429 0.2028306 0.06493634 8.9408027e-39
0.71980429 0.2003306 0.06493634 0
0.71980429 0.2028306 0.06493634 6.4284847e-40
0.71730429 0.2003306 0.067436337 0
0.71730429 0.2028306 0.067436337 4.8766252e-39
0.71980429 0.2003306 0.067436337 1.0863135e-38
0.71980429 0.2028306 0.067436337 8.0836761e-39
0.71980429 0.2028306 0.069936335 2.3505921e-38
0.71730429 0.2053306 0.06493634 9.2170196e-39
0.71730429 0.20783059 0.062436335 9.3063482e-39
0.71980429 0.2053306 0.06493634 9.2170196e-39
0.71980429 0.20783059 0.062436335 9.9524197e-39
0.71980429 0.20783059 0.06493634 9.3088649e-39
0.71730429 0.2053306 0.067436337 6.6358951e-39
0.71980429 0.2053306 0.067436337 8.191705e-39
0.71980429 0.2053306 0.069936335 2.3490426e-38
0.71980429 0.20783059 0.069936335 7.1872907e-39
0.72230428 0.2003306 0.067436337 2.3509886e-38
0.72230428 0.2003306 0.069936335 2.3509886e-38
0.72230428 0.2028306 0.067436337 2.3509886e-38
0.72230428 0.2028306 0.069936335 2.3509865e-38
0.72480428 0.2003306 0.069936335 2.3509886e-38
0.72480428 0.2028306 0.069936335 2.3509886e-38
0.72230428 0.2053306 0.067436337 2.3489711e-38
0.72230428 0.2053306 0.069936335 2.3495106e-38
0.72230428 0.20783059 0.069936335 1.0942102e-38
0.72730428 0.19033059 0.069936335 2.3509886e-38
0.72730428 0.19283059 0.069936335 2.3509886e-38
0.72730428 0.19533059 0.069936335 2.3509886e-38
0.72730428 0.19783059 0.069936335 2.3509886e-38
0.72980428 0.19533059 0.069936335 2.3509886e-38
0.72980428 0.19783059 0.069936335 2.3509886e-38
0.73230428 0.19283059 0.069936335 1.1896498e-38
0.73230428 0.19533059 0.069936335 2.3509886e-38
0.73230428 0.19783059 0.069936335 2.3509886e-38
0.73480427 0.19783059 0.067436337 2.3509886e-38
0.72730428 0.2003306 0.069936335 2.3509886e-38
0.72730428 0.2028306 0.069936335 2.3509886e-38
0.72980428 0.2003306 0.069936335 2.3509886e-38
0.72730428 0.2053306 0.069936335 2.3509886e-38
0.73230428 0.2003306 0.069936335 2.3509886e-38
0.73480427 0.2028306 0.067436337 2.3509886e-38
0.73730427 0.19533059 0.06493634 2.0378496e-38
0.73730427 0.19783059 0.06493634 2.3509886e-38
0.73730427 0.19533059 0.067436337 8.3015724e-39
0.73730427 0.19783059 0.067436337 2.0010417e-38
0.73980427 0.19533059 0.067436337 9.3946342e-39
0.73980427 0.19783059 0.067436337 1.9734551e-38
0.74480426 0.19283059 0.069936335 5.5424157e-40
0.74230427 0.19533059 0.06493634 1.2250906e-38
0.74230427 0.19783059 0.06493634 8.0257057e-39
0.74230427 0.19533059 0.067436337 1.1898924e-38
0.74230427 0.19533059 0.069936335 1.0325895e-38
0.74230427 0.19783059 0.067436337 7.0968957e-39
0.74230427 0.19783059 0.069936335 1.1239573e-38
0.74480426 0.19533059 0.067436337 1.0326258e-38
0.74480426 0.19533059 0.069936335 5.1672559e-39
0.74480426 0.19783059 0.067436337 7.5581919e-39
0.74480426 0.19783059 0.069936335 1.1425441e-38
0.73730427 0.2003306 0.067436337 2.3503772e-38
0.73980427 0.2003306 0.067436337 2.3505571e-38
0.73980427 0.2028306 0.067436337 2.0639223e-38
0.74230427 0.2028306 0.06493634 1.4464965e-38
0.74230427 0.2003306 0.067436337 2.3505221e-38
0.74230427 0.2003306 0.069936335 2.3505193e-38
0.74230427 0.2028306 0.067436337 1.1794925e-38
0.74230427 0.2028306 0.069936335 1.7592805e-38
0.74480426 0.2003306 0.067436337 2.3506657e-38
0.74480426 0.2003306 0.069936335 2.1198178e-38
0.74480426 0.2028306 0.067436337 1.7409862e-38
0.74480426 0.2028306 0.069936335 1.630494e-38
0.74230427 0.2053306 0.067436337 7.5603541e-39
0.74230427 0.2053306 0.069936335 8.0202645e-39
0.74480426 0.2053306 0.067436337 9.8659469e-39
0.74480426 0.2053306 0.069936335 9.2137448e-39
0.74730426 0.19533059 0.069936335 5.7172207e-39
0.74730426 0.19783059 0.069936335 8.2986983e-39
0.74730426 0.2003306 0.069936335 2.2024974e-38
0.74730426 0.2028306 0.069936335 1.612164e-38
0.74980426 0.2003306 0.069936335 2.2856625e-38
0.74980426 0.2028306 0.069936335 2.3500183e-38
0.74730426 0.2053306 0.069936335 9.4906848e-39
0.74730426 0.20783059 0.069936335 1.0320856e-38
0.74980426 0.2053306 0.069936335 8.9371733e-39
0.74980426 0.20783059 0.067436337 8.2046474e-39
0.74980426 0.20783059 0.069936335 9.1219247e-39
0.75480431 0.2028306 0.069936335 2.3499449e-38
0.75230426 0.2053306 0.067436337 6.8156018e-39
0.75480431 0.2053306 0.069936335 1.5197879e-38
0.71980429 0.1878306 0.072436333 2.1478726e-38
0.72230428 0.1853306 0.072436333 5.7175864e-39
0.72230428 0.1878306 0.072436333 1.9823878e-38
0.72480428 0.1878306 0.072436333 6.0863787e-39
0.72480428 0.1878306 0.074936338 1.1526173e-38
0.72730428 0.1878306 0.072436333 9.6135759e-39
0.72480428 0.19033059 0.072436333 2.3509886e-38
0.72480428 0.19033059 0.074936338 1.1712107e-38
0.72480428 0.19283059 0.072436333 2.3509886e-38
0.72480428 0.19533059 0.072436333 2.3509886e-38
0.72480428 0.19783059 0.072436333 2.3509886e-38
0.71730429 0.2028306 0.072436333 2.3509866e-38
0.71980429 0.2028306 0.072436333 2.3509886e-38
0.71730429 0.2053306 0.072436333 1.103609e-38
0.71980429 0.2053306 0.072436333 2.3495077e-38
0.72230428 0.2028306 0.072436333 2.3509886e-38
0.72230428 0.2028306 0.074936338 2.3509886e-38
0.72480428 0.2003306 0.072436333 2.3509886e-38
0.72480428 0.2028306 0.072436333 2.3509886e-38
0.72230428 0.2053306 0.072436333 2.3494735e-38
0.72230428 0.2053306 0.074936338 2.2934683e-38
0.72480428 0.2053306 0.072436333 2.3495081e-38
0.72730428 0.19033059 0.072436333 2.3509886e-38
0.72730428 0.19283059 0.072436333 2.3509886e-38
0.72980428 0.19033059 0.072436333 1.1896503e-38
0.72980428 0.19283059 0.072436333 2.0378499e-38
0.72730428 0.19533059 0.072436333 2.3509886e-38
0.72730428 0.19783059 0.072436333 2.3509886e-38
0.72980428 0.19783059 0.072436333 2.3509886e-38
0.72730428 0.2003306 0.072436333 2.3509886e-38
0.72730428 0.2028306 0.072436333 2.3509886e-38
0.72980428 0.2053306 0.072436333 1.207575e-38
0.74480426 0.19533059 0.072436333 8.5760265e-39
0.74480426 0.19783059 0.072436333 1.2528464e-38
0.74980426 0.19783059 0.072436333 1.2068312e-38
0.74980426 0.2003306 0.072436333 2.3040291e-38
0.74980426 0.2028306 0.072436333 2.3500546e-38
0.75230426 0.2003306 0.072436333 2.2855468e-38
0.75230426 0.2028306 0.072436333 2.3499449e-38
0.75230426 0.2053306 0.072436333 1.519716e-38
0.71980429 0.21033059 0.059936337 9.8598709e-39
0.72230428 0.21033059 0.059936337 1.271829e-38
0.72480428 0.21033059 0.059936337 1.3178911e-38
0.72480428 0.21283059 0.059936337 1.3178545e-38
0.72230428 0.21033059 0.062436335 1.3086349e-38
0.74980426 0.21033059 0.069936335 5.6188537e-39
