# .PCD v0.7 - Point Cloud Data file format
VERSION 0.7
FIELDS x y z rgb
SIZE 4 4 4 4
TYPE F F F F
COUNT 1 1 1 1
WIDTH 257
HEIGHT 1
VIEWPOINT 0 0 0 1 0 0 0
POINTS 257
DATA ascii
0.68067592 0.1924838 0.058510203 7.6457325e-39
0.68317592 0.1899838 0.058510203 2.3509168e-38
0.68317592 0.1924838 0.058510203 1.6487536e-38
0.68067592 0.19498381 0.058510203 9.4896436e-39
0.68317592 0.19498381 0.058510203 7.3691442e-39
0.68567592 0.1874838 0.058510203 1.1055177e-38
0.68817592 0.1874838 0.058510203 1.0041335e-38
0.68567592 0.1899838 0.058510203 2.350915e-38
0.68567592 0.1924838 0.058510203 2.3503058e-38
0.68567592 0.1924838 0.061010204 2.3499817e-38
0.68817592 0.1899838 0.058510203 1.1976447e-38
0.68817592 0.1899838 0.061010204 2.3509886e-38
0.68817592 0.1924838 0.058510203 2.3498749e-38
0.68817592 0.1924838 0.061010204 2.3501605e-38
0.69067591 0.1899838 0.058510203 1.133541e-38
0.69067591 0.1899838 0.061010204 1.2345933e-38
0.69067591 0.1924838 0.058510203 2.3509886e-38
0.69067591 0.1924838 0.061010204 2.3504125e-38
0.69317591 0.1899838 0.058510203 1.1612353e-38
0.69317591 0.1899838 0.061010204 1.1887866e-38
0.69317591 0.1924838 0.061010204 2.3508092e-38
0.68567592 0.19498381 0.058510203 7.3680876e-39
0.68567592 0.19498381 0.061010204 7.8308608e-39
0.68567592 0.19748381 0.058510203 1.0597067e-38
0.68567592 0.19748381 0.061010204 1.0505222e-38
0.68817592 0.19498381 0.058510203 7.4631391e-39
0.68817592 0.19498381 0.061010204 8.2907487e-39
0.68817592 0.19748381 0.058510203 1.0689619e-38
0.68817592 0.19748381 0.061010204 1.0503803e-38
0.69067591 0.19498381 0.058510203 8.290404e-39
0.69067591 0.19498381 0.061010204 1.2242209e-38
0.69067591 0.19748381 0.058510203 1.0503099e-38
0.69067591 0.19748381 0.061010204 1.0504875e-38
0.69317591 0.19498381 0.061010204 1.0131793e-38
0.69317591 0.19748381 0.061010204 7.3727567e-39
0.69317591 0.19998381 0.058510203 1.0597423e-38
0.69567591 0.1899838 0.058510203 1.0778932e-38
0.69567591 0.1899838 0.061010204 1.1980059e-38
0.69567591 0.1924838 0.061010204 2.3508092e-38
0.69817591 0.1924838 0.061010204 2.3504108e-38
0.7006759 0.1924838 0.058510203 1.2438479e-38
0.7031759 0.1924838 0.058510203 1.2163727e-38
0.7031759 0.1924838 0.061010204 1.3083886e-38
0.69567591 0.19498381 0.061010204 1.0131793e-38
0.69567591 0.19748381 0.058510203 7.6486443e-39
0.69567591 0.19748381 0.061010204 7.9227103e-39
0.69817591 0.19498381 0.061010204 2.350124e-38
0.69817591 0.19748381 0.058510203 7.5564459e-39
0.7006759 0.19498381 0.058510203 2.3504475e-38
0.7006759 0.19748381 0.058510203 1.1506446e-38
0.7006759 0.19748381 0.061010204 6.358609e-39
0.7031759 0.19498381 0.058510203 2.3502669e-38
0.7031759 0.19498381 0.061010204 2.3503787e-38
0.7031759 0.19748381 0.058510203 9.580417e-39
0.7031759 0.19748381 0.061010204 5.5288441e-39
0.7006759 0.19998381 0.058510203 1.0781481e-38
0.7006759 0.19998381 0.061010204 1.013863e-38
0.7031759 0.19998381 0.058510203 6.4508046e-39
0.7031759 0.19998381 0.061010204 6.5408282e-39
0.7056759 0.1924838 0.058510203 1.1149891e-38
0.7056759 0.1924838 0.061010204 1.069215e-38
0.7081759 0.1899838 0.061010204 9.860601e-39
0.71317589 0.1874838 0.061010204 1.1793443e-38
0.7106759 0.1924838 0.061010204 1.0136459e-38
0.71317589 0.1899838 0.061010204 1.0503803e-38
0.71317589 0.1924838 0.058510203 9.860601e-39
0.71317589 0.1924838 0.061010204 1.0411622e-38
0.7056759 0.19498381 0.061010204 2.3501956e-38
0.7056759 0.19748381 0.061010204 1.0772829e-38
0.7056759 0.19998381 0.061010204 6.3571474e-39
0.7056759 0.2024838 0.058510203 1.0231882e-38
0.7081759 0.2024838 0.058510203 9.6776278e-39
0.7081759 0.2024838 0.061010204 1.0043168e-38
0.7106759 0.2024838 0.058510203 9.6772719e-39
0.7106759 0.2024838 0.061010204 1.0042815e-38
0.69567591 0.1899838 0.063510202 1.262287e-38
0.69567591 0.1924838 0.063510202 2.3503754e-38
0.7056759 0.1924838 0.063510202 1.4278798e-38
0.7056759 0.1924838 0.066010207 1.5110355e-38
0.7081759 0.1924838 0.063510202 1.1888175e-38
0.7081759 0.1924838 0.066010207 1.4559386e-38
0.7106759 0.1899838 0.063510202 9.7680522e-39
0.7106759 0.1924838 0.063510202 1.133358e-38
0.71317589 0.1924838 0.063510202 1.0594958e-38
0.7056759 0.19498381 0.063510202 2.3502321e-38
0.7056759 0.19498381 0.066010207 2.3501596e-38
0.7056759 0.19748381 0.063510202 1.3248072e-38
0.7081759 0.19498381 0.063510202 2.3409799e-38
0.7081759 0.19498381 0.066010207 2.3503787e-38
0.7081759 0.19748381 0.063510202 2.3503751e-38
0.7081759 0.19748381 0.066010207 2.350157e-38
0.7056759 0.19998381 0.063510202 5.5263274e-39
0.7056759 0.19998381 0.066010207 6.7252209e-39
0.7081759 0.19998381 0.063510202 6.3567971e-39
0.7081759 0.19998381 0.066010207 4.9738627e-39
0.7106759 0.19498381 0.063510202 1.4374997e-38
0.7106759 0.19498381 0.066010207 1.5202222e-38
0.7106759 0.19748381 0.063510202 2.3500864e-38
0.7106759 0.19748381 0.066010207 2.3495473e-38
0.71317589 0.19498381 0.063510202 1.5479888e-38
0.71317589 0.19498381 0.066010207 1.3730006e-38
0.71317589 0.19748381 0.066010207 2.3126691e-38
0.7106759 0.19998381 0.063510202 6.7252209e-39
0.7106759 0.19998381 0.066010207 4.331024e-39
0.7106759 0.2024838 0.063510202 1.0136459e-38
0.7106759 0.2024838 0.066010207 8.8486099e-39
0.71317589 0.19998381 0.063510202 9.8501487e-39
0.71317589 0.19998381 0.066010207 3.9622471e-39
0.71317589 0.2024838 0.063510202 9.0297641e-39
0.71317589 0.2024838 0.066010207 8.9404524e-39
0.71317589 0.2049838 0.058510203 1.0135363e-38
0.71317589 0.2049838 0.061010204 9.6761929e-39
0.71817589 0.1874838 0.061010204 1.1794889e-38
0.71567589 0.1899838 0.058510203 1.1056976e-38
0.71567589 0.1899838 0.061010204 1.1148443e-38
0.71567589 0.1924838 0.058510203 1.0688187e-38
0.71567589 0.1924838 0.061010204 1.087221e-38
0.71817589 0.1899838 0.058510203 1.1793446e-38
0.71817589 0.1899838 0.061010204 1.1701995e-38
0.71817589 0.1924838 0.061010204 1.0689283e-38
0.71567589 0.1849838 0.066010207 1.3731e-38
0.71567589 0.1874838 0.063510202 1.2163304e-38
0.71567589 0.1874838 0.066010207 1.1702696e-38
0.71817589 0.1849838 0.063510202 1.4559684e-38
0.71817589 0.1849838 0.066010207 1.2992339e-38
0.71817589 0.1874838 0.063510202 1.373135e-38
0.71817589 0.1874838 0.066010207 1.1056231e-38
0.71817589 0.1849838 0.068510205 1.2525878e-38
0.71817589 0.1874838 0.068510205 1.6213343e-38
0.71567589 0.1899838 0.063510202 1.1517594e-38
0.71567589 0.1899838 0.066010207 1.1516147e-38
0.71567589 0.1924838 0.063510202 1.0687513e-38
0.71567589 0.1924838 0.066010207 9.9502687e-39
0.71817589 0.1899838 0.063510202 1.06925e-38
0.71817589 0.1899838 0.066010207 1.0775768e-38
0.71817589 0.1924838 0.063510202 1.1242437e-38
0.71817589 0.1924838 0.066010207 1.178479e-38
0.71817589 0.1899838 0.068510205 1.7226246e-38
0.72067589 0.1849838 0.066010207 1.4651883e-38
0.72067589 0.1874838 0.066010207 1.2990541e-38
0.72067589 0.1849838 0.068510205 1.1794539e-38
0.72067589 0.1874838 0.068510205 8.6631424e-39
0.72317588 0.1849838 0.068510205 1.0047133e-38
0.72317588 0.1849838 0.071010202 1.0135676e-38
0.72317588 0.1874838 0.068510205 6.6319519e-39
0.72317588 0.1874838 0.071010202 6.4508382e-39
0.72067589 0.1899838 0.066010207 1.013148e-38
0.72067589 0.1924838 0.066010207 1.9346747e-38
0.72067589 0.1899838 0.068510205 2.3509886e-38
0.72067589 0.1924838 0.068510205 2.3509886e-38
0.72317588 0.1899838 0.068510205 2.3509886e-38
0.72317588 0.1899838 0.071010202 2.3509886e-38
0.72317588 0.1924838 0.068510205 2.3509886e-38
0.72317588 0.1924838 0.071010202 2.3509886e-38
0.71567589 0.19498381 0.063510202 1.3545975e-38
0.71567589 0.19498381 0.066010207 1.1976112e-38
0.71567589 0.19748381 0.066010207 1.9904937e-38
0.71817589 0.19498381 0.063510202 8.7535247e-39
0.71817589 0.19498381 0.066010207 6.6345751e-39
0.71817589 0.19748381 0.066010207 1.2811322e-38
0.71817589 0.19498381 0.068510205 1.4192034e-38
0.71817589 0.19748381 0.068510205 1.4745208e-38
0.71567589 0.19998381 0.063510202 6.9924569e-39
0.71567589 0.19998381 0.066010207 8.0051599e-39
0.71567589 0.2024838 0.063510202 8.5723537e-39
0.71567589 0.2024838 0.066010207 9.0330011e-39
0.71817589 0.19998381 0.066010207 0
0.71817589 0.2024838 0.066010207 4.6061661e-39
0.71567589 0.19998381 0.068510205 0
0.71567589 0.2024838 0.068510205 4.603648e-39
0.71817589 0.19998381 0.068510205 8.1769465e-39
0.71817589 0.19998381 0.071010202 2.3509873e-38
0.71817589 0.2024838 0.068510205 9.836828e-39
0.71817589 0.2024838 0.071010202 2.3509866e-38
0.72067589 0.19498381 0.066010207 8.4657471e-39
0.72067589 0.19748381 0.066010207 1.4745202e-38
0.72067589 0.19498381 0.068510205 2.3509886e-38
0.72067589 0.19748381 0.068510205 2.3509886e-38
0.72317588 0.19498381 0.068510205 2.3509886e-38
0.72317588 0.19498381 0.071010202 2.3509886e-38
0.72317588 0.19748381 0.068510205 2.3509886e-38
0.72317588 0.19748381 0.071010202 2.3509886e-38
0.72067589 0.19998381 0.066010207 1.0588346e-38
0.72067589 0.19998381 0.068510205 2.3509886e-38
0.72067589 0.19998381 0.071010202 2.350987e-38
0.72067589 0.2024838 0.071010202 2.3509866e-38
0.72317588 0.19998381 0.068510205 2.3509886e-38
0.72317588 0.19998381 0.071010202 2.3509886e-38
0.72317588 0.2024838 0.071010202 2.3509886e-38
0.71817589 0.19998381 0.0735102 2.3509886e-38
0.71817589 0.2024838 0.0735102 2.3509886e-38
0.72067589 0.19998381 0.0735102 2.3509886e-38
0.72067589 0.2024838 0.0735102 2.3509886e-38
0.72317588 0.19998381 0.0735102 2.3509886e-38
0.72317588 0.2024838 0.0735102 2.3509886e-38
0.72567588 0.1874838 0.071010202 6.4544354e-39
0.72567588 0.1899838 0.071010202 1.9914997e-38
0.72567588 0.1924838 0.068510205 2.3509886e-38
0.72567588 0.1924838 0.071010202 2.3509886e-38
0.72817588 0.1899838 0.071010202 2.3509886e-38
0.72817588 0.1924838 0.071010202 2.3509886e-38
0.73067588 0.1924838 0.071010202 2.0931317e-38
0.72567588 0.1924838 0.0735102 2.3509886e-38
0.72567588 0.19498381 0.071010202 2.3509886e-38
0.72567588 0.19748381 0.071010202 2.3509886e-38
0.72817588 0.19748381 0.071010202 2.3509886e-38
0.72567588 0.19998381 0.071010202 2.3509886e-38
0.73067588 0.19498381 0.071010202 2.3509886e-38
0.73067588 0.19748381 0.071010202 2.3509886e-38
0.73067588 0.19998381 0.068510205 2.3509886e-38
0.73067588 0.19998381 0.071010202 2.3509886e-38
0.72567588 0.19498381 0.0735102 2.3509886e-38
0.72567588 0.19748381 0.0735102 2.3509886e-38
0.72567588 0.19998381 0.0735102 2.3509886e-38
0.72567588 0.2024838 0.0735102 2.3509886e-38
0.71567589 0.2074838 0.058510203 9.860224e-39
0.71817589 0.2074838 0.058510203 9.5825595e-39
0.71817589 0.2074838 0.061010204 8.7560415e-39
0.72067589 0.2074838 0.058510203 9.2141512e-39
0.72067589 0.2074838 0.061010204 9.0329885e-39
0.72067589 0.20998381 0.058510203 9.4917988e-39
0.72067589 0.20998381 0.061010204 9.7687515e-39
0.72317588 0.20998381 0.058510203 9.8598709e-39
0.72317588 0.20998381 0.061010204 1.0228282e-38
0.72317588 0.21248381 0.058510203 1.2168003e-38
0.72317588 0.21248381 0.061010204 1.410158e-38
0.72567588 0.20998381 0.061010204 1.0412679e-38
0.72567588 0.21248381 0.058510203 1.3271097e-38
0.72567588 0.21248381 0.061010204 1.4654048e-38
0.72817588 0.21498381 0.058510203 1.4654045e-38
0.71567589 0.2049838 0.063510202 9.3985438e-39
0.71567589 0.2049838 0.066010207 9.4932604e-39
0.71817589 0.2049838 0.066010207 7.0968803e-39
0.71817589 0.2074838 0.063510202 1.0045333e-38
0.71817589 0.2074838 0.066010207 1.0412323e-38
0.71567589 0.2049838 0.068510205 9.3992473e-39
0.71817589 0.2049838 0.068510205 8.8367381e-39
0.71817589 0.2049838 0.071010202 1.0850239e-38
0.71817589 0.2074838 0.068510205 8.9371901e-39
0.71817589 0.20998381 0.063510202 1.281156e-38
0.72067589 0.2074838 0.063510202 1.0137165e-38
0.72067589 0.2074838 0.066010207 1.0046417e-38
0.72317588 0.2049838 0.066010207 2.3492221e-38
0.72317588 0.2074838 0.063510202 1.0126757e-38
0.72317588 0.2074838 0.066010207 9.5836441e-39
0.72067589 0.2049838 0.068510205 2.3490427e-38
0.72067589 0.2049838 0.071010202 2.3495473e-38
0.72067589 0.2074838 0.068510205 1.1959851e-38
0.72067589 0.2074838 0.071010202 7.4631419e-39
0.72067589 0.20998381 0.066010207 1.318071e-38
0.72317588 0.20998381 0.063510202 1.3639167e-38
0.72317588 0.21248381 0.063510202 1.4377454e-38
0.71817589 0.2049838 0.0735102 9.4680244e-39
0.72067589 0.2049838 0.0735102 2.3492985e-38
0.72317588 0.2049838 0.0735102 2.3027595e-38
0.72817588 0.2049838 0.071010202 2.3027232e-38
0.72567588 0.20998381 0.063510202 1.0043894e-38
