# .PCD v0.7 - Point Cloud Data file format
VERSION 0.7
FIELDS x y z rgb
SIZE 4 4 4 4
TYPE F F F F
COUNT 1 1 1 1
WIDTH 254
HEIGHT 1
VIEWPOINT 0 0 0 1 0 0 0
POINTS 254
DATA ascii
0.67483002 0.19135815 0.05820559 8.3843723e-39
0.67483002 0.19385816 0.05820559 9.0297417e-39
0.67983001 0.19385816 0.05820559 7.8294259e-39
0.68233001 0.18885815 0.05820559 2.3509168e-38
0.68233001 0.19135815 0.05820559 2.3509168e-38
0.68483001 0.18885815 0.05820559 1.114739e-38
0.68483001 0.19135815 0.05820559 2.3509527e-38
0.68483001 0.18885815 0.060705591 1.0875138e-38
0.68483001 0.19135815 0.060705591 2.3509886e-38
0.68733001 0.18885815 0.05820559 1.013318e-38
0.68983001 0.18885815 0.05820559 1.0227559e-38
0.68733001 0.18885815 0.060705591 1.2161197e-38
0.68733001 0.19135815 0.060705591 2.3507016e-38
0.68733001 0.19135815 0.063205592 2.3501944e-38
0.68983001 0.18885815 0.060705591 1.1704551e-38
0.68983001 0.19135815 0.060705591 2.3509886e-38
0.68983001 0.19135815 0.063205592 2.3503763e-38
0.68233001 0.19385816 0.05820559 7.5535354e-39
0.68233001 0.19635816 0.05820559 9.6740363e-39
0.68483001 0.19385816 0.05820559 7.5546312e-39
0.68483001 0.19635816 0.05820559 1.0043913e-38
0.68483001 0.19385816 0.060705591 7.8304824e-39
0.68483001 0.19635816 0.060705591 1.0319406e-38
0.68483001 0.19635816 0.063205592 1.0598142e-38
0.68733001 0.19385816 0.060705591 1.4176181e-38
0.68733001 0.19385816 0.063205592 1.1330319e-38
0.68733001 0.19635816 0.060705591 9.8595052e-39
0.68733001 0.19635816 0.063205592 1.0412676e-38
0.68983001 0.19385816 0.060705591 1.14229e-38
0.68983001 0.19385816 0.063205592 1.2151811e-38
0.68983001 0.19635816 0.060705591 8.2903984e-39
0.68733001 0.19885816 0.05820559 1.0506671e-38
0.68983001 0.19885816 0.05820559 1.0597423e-38
0.69233 0.18885815 0.05820559 1.0410465e-38
0.69483 0.18885815 0.05820559 1.0504153e-38
0.69233 0.18885815 0.060705591 1.2438128e-38
0.69233 0.18885815 0.063205592 1.225629e-38
0.69233 0.19135815 0.060705591 1.2439205e-38
0.69233 0.19135815 0.063205592 2.3508092e-38
0.69483 0.18885815 0.060705591 1.0870762e-38
0.69483 0.19135815 0.060705591 1.1980782e-38
0.69483 0.19135815 0.063205592 1.243956e-38
0.69983 0.19135815 0.05820559 1.2438476e-38
0.69733 0.19135815 0.060705591 1.2530674e-38
0.69733 0.19135815 0.063205592 1.2072611e-38
0.69983 0.19135815 0.060705591 1.2348476e-38
0.69233 0.19385816 0.060705591 2.3496556e-38
0.69233 0.19385816 0.063205592 2.3502665e-38
0.69233 0.19635816 0.060705591 7.9223544e-39
0.69233 0.19635816 0.063205592 7.5564459e-39
0.69483 0.19385816 0.060705591 2.350232e-38
0.69483 0.19385816 0.063205592 2.3501611e-38
0.69483 0.19635816 0.060705591 7.2798576e-39
0.69233 0.19885816 0.05820559 1.0505593e-38
0.69233 0.19885816 0.060705591 1.050524e-38
0.69233 0.19885816 0.063205592 1.0598888e-38
0.69483 0.19885816 0.060705591 9.9535309e-39
0.69983 0.19385816 0.05820559 2.3504111e-38
0.69983 0.19635816 0.05820559 2.3501598e-38
0.69733 0.19385816 0.060705591 2.3504114e-38
0.69733 0.19385816 0.063205592 2.3504121e-38
0.69733 0.19635816 0.060705591 1.1598271e-38
0.69983 0.19385816 0.060705591 2.3411593e-38
0.69983 0.19635816 0.060705591 2.3504831e-38
0.69983 0.19885816 0.05820559 6.7266838e-39
0.70482999 0.19135815 0.05820559 1.1335002e-38
0.70232999 0.19135815 0.060705591 1.1335356e-38
0.70482999 0.19135815 0.060705591 1.0876901e-38
0.70732999 0.19135815 0.060705591 1.1334652e-38
0.70732999 0.19135815 0.063205592 1.1702714e-38
0.70982999 0.19135815 0.060705591 1.0043194e-38
0.70982999 0.19135815 0.063205592 1.161016e-38
0.70232999 0.19385816 0.05820559 2.3412669e-38
0.70232999 0.19635816 0.05820559 2.3505191e-38
0.70482999 0.19385816 0.05820559 1.3266427e-38
0.70232999 0.19385816 0.060705591 2.3503744e-38
0.70232999 0.19635816 0.060705591 2.3505195e-38
0.70482999 0.19385816 0.060705591 1.2900574e-38
0.70482999 0.19635816 0.060705591 2.3507349e-38
0.70232999 0.19885816 0.05820559 7.1854914e-39
0.70232999 0.20135815 0.05820559 1.0781481e-38
0.70482999 0.19885816 0.05820559 1.2056731e-38
0.70232999 0.19885816 0.060705591 6.2664106e-39
0.70232999 0.20135815 0.060705591 1.0230823e-38
0.70482999 0.19885816 0.060705591 1.132348e-38
0.70482999 0.20135815 0.060705591 1.0320859e-38
0.70732999 0.19385816 0.060705591 1.4001854e-38
0.70732999 0.19385816 0.063205592 1.3635991e-38
0.70732999 0.19635816 0.060705591 2.3505186e-38
0.70732999 0.19635816 0.063205592 2.3503385e-38
0.70982999 0.19385816 0.060705591 1.2071124e-38
0.70982999 0.19385816 0.063205592 1.4376074e-38
0.70982999 0.19635816 0.063205592 2.3503787e-38
0.70732999 0.19885816 0.060705591 1.3156587e-38
0.70732999 0.19885816 0.063205592 1.1782657e-38
0.70732999 0.20135815 0.060705591 9.9513617e-39
0.70732999 0.20135815 0.063205592 1.0043916e-38
0.70982999 0.19885816 0.060705591 5.7135955e-39
0.70982999 0.19885816 0.063205592 1.2053835e-38
0.70982999 0.20135815 0.060705591 9.5854532e-39
0.70982999 0.20135815 0.063205592 9.9513617e-39
0.71482998 0.18635815 0.063205592 1.1703044e-38
0.71232998 0.19135815 0.05820559 1.0044632e-38
0.71482998 0.19135815 0.05820559 1.0871859e-38
0.71232998 0.19135815 0.060705591 1.0596367e-38
0.71232998 0.19135815 0.063205592 1.0046433e-38
0.71482998 0.18885815 0.063205592 1.1150963e-38
0.71482998 0.19135815 0.060705591 1.0411975e-38
0.71482998 0.19135815 0.063205592 1.0503112e-38
0.71732998 0.18635815 0.063205592 1.3913944e-38
0.71982998 0.18635815 0.063205592 1.391324e-38
0.71732998 0.18885815 0.05820559 1.1425036e-38
0.71732998 0.19135815 0.05820559 1.1423951e-38
0.71732998 0.18885815 0.060705591 1.1240642e-38
0.71732998 0.18885815 0.063205592 1.2162225e-38
0.71732998 0.19135815 0.060705591 1.105589e-38
0.71732998 0.19135815 0.063205592 1.1242437e-38
0.71982998 0.18885815 0.060705591 1.1886359e-38
0.71982998 0.18885815 0.063205592 1.1885645e-38
0.71982998 0.19135815 0.063205592 1.0870059e-38
0.71732998 0.18635815 0.06570559 1.1884936e-38
0.71732998 0.18635815 0.068205595 1.2526225e-38
0.71982998 0.18635815 0.06570559 1.4467136e-38
0.71982998 0.18635815 0.068205595 8.847891e-39
0.71732998 0.18885815 0.06570559 1.1423954e-38
0.71732998 0.18885815 0.068205595 1.7134772e-38
0.71732998 0.19135815 0.06570559 1.087078e-38
0.71732998 0.19135815 0.068205595 1.9163432e-38
0.71982998 0.18885815 0.06570559 1.6213327e-38
0.71982998 0.18885815 0.068205595 2.3509886e-38
0.71982998 0.19135815 0.06570559 1.9071232e-38
0.71482998 0.19385816 0.05820559 9.9509973e-39
0.71232998 0.19385816 0.060705591 1.1610869e-38
0.71232998 0.19385816 0.063205592 1.1517964e-38
0.71232998 0.19635816 0.063205592 2.3504505e-38
0.71482998 0.19385816 0.060705591 1.161016e-38
0.71482998 0.19385816 0.063205592 1.0410916e-38
0.71482998 0.19635816 0.063205592 1.3088953e-38
0.71232998 0.19885816 0.063205592 9.6682742e-39
0.71232998 0.20135815 0.060705591 9.9517176e-39
0.71232998 0.20135815 0.063205592 4.9753214e-39
0.71482998 0.19885816 0.063205592 7.4526896e-39
0.71482998 0.20135815 0.063205592 4.053714e-39
0.71732998 0.19385816 0.060705591 1.0504171e-38
0.71732998 0.19385816 0.063205592 1.0597436e-38
0.71982998 0.19385816 0.063205592 8.8457204e-39
0.71232998 0.19385816 0.06570559 1.5018547e-38
0.71232998 0.19635816 0.06570559 2.3501984e-38
0.71482998 0.19385816 0.06570559 1.3088953e-38
0.71482998 0.19635816 0.06570559 2.2584715e-38
0.71232998 0.19885816 0.06570559 3.869327e-39
0.71232998 0.20135815 0.06570559 8.9400866e-39
0.71482998 0.19885816 0.06570559 6.9935163e-39
0.71482998 0.20135815 0.06570559 4.4221476e-39
0.71482998 0.20135815 0.068205595 0
0.71732998 0.19385816 0.06570559 8.7531744e-39
0.71732998 0.19385816 0.068205595 1.5669975e-38
0.71732998 0.19635816 0.06570559 1.216086e-38
0.71732998 0.19635816 0.068205595 1.4746286e-38
0.71982998 0.19385816 0.06570559 8.3782206e-39
0.71982998 0.19635816 0.06570559 1.4099132e-38
0.71982998 0.19635816 0.068205595 2.3509886e-38
0.71732998 0.19885816 0.06570559 2.1188392e-38
0.71732998 0.19885816 0.068205595 1.6211895e-38
0.71732998 0.20135815 0.06570559 0
0.71732998 0.20135815 0.068205595 8.3584735e-39
0.71982998 0.19885816 0.06570559 1.6303372e-38
0.71982998 0.19885816 0.068205595 2.3509886e-38
0.71982998 0.20135815 0.06570559 1.0771658e-38
0.71982998 0.20135815 0.068205595 2.3509886e-38
0.71732998 0.20135815 0.070705593 2.3509866e-38
0.71982998 0.19885816 0.070705593 2.3509886e-38
0.71982998 0.20135815 0.070705593 2.3509879e-38
0.71982998 0.20135815 0.07320559 2.3509886e-38
0.72232997 0.18635815 0.068205595 8.5712999e-39
0.72232997 0.18635815 0.070705593 6.5430353e-39
0.72482997 0.18635815 0.070705593 5.9019847e-39
0.72232997 0.18885815 0.068205595 1.954294e-38
0.72232997 0.19135815 0.068205595 2.3509886e-38
0.72232997 0.18885815 0.070705593 2.1570923e-38
0.72232997 0.19135815 0.070705593 2.3509886e-38
0.72482997 0.18885815 0.070705593 1.9731329e-38
0.72482997 0.18885815 0.07320559 2.3509886e-38
0.72482997 0.19135815 0.070705593 2.3509886e-38
0.72482997 0.19135815 0.07320559 2.3509886e-38
0.72732997 0.19135815 0.070705593 2.3509886e-38
0.72232997 0.19385816 0.068205595 2.3509886e-38
0.72232997 0.19635816 0.068205595 2.3509886e-38
0.72232997 0.19385816 0.070705593 2.3509886e-38
0.72232997 0.19635816 0.070705593 2.3509886e-38
0.72482997 0.19385816 0.070705593 2.3509886e-38
0.72482997 0.19385816 0.07320559 2.3509886e-38
0.72482997 0.19635816 0.070705593 2.3509886e-38
0.72482997 0.19635816 0.07320559 2.3509886e-38
0.72232997 0.19885816 0.068205595 2.3509886e-38
0.72232997 0.20135815 0.068205595 2.3509886e-38
0.72232997 0.19885816 0.070705593 2.3509886e-38
0.72232997 0.20135815 0.070705593 2.3509886e-38
0.72232997 0.20135815 0.07320559 2.3509886e-38
0.72482997 0.19885816 0.070705593 2.3509886e-38
0.72482997 0.19885816 0.07320559 2.3509886e-38
0.72482997 0.20135815 0.070705593 2.3509886e-38
0.72482997 0.20135815 0.07320559 2.3509886e-38
0.72732997 0.19385816 0.070705593 2.3509886e-38
0.72732997 0.19385816 0.07320559 2.3509886e-38
0.72732997 0.19635816 0.070705593 2.3509886e-38
0.72732997 0.19635816 0.07320559 2.3509886e-38
0.72732997 0.19885816 0.070705593 2.3509886e-38
0.72732997 0.19885816 0.07320559 2.3509886e-38
0.72983003 0.19885816 0.070705593 2.3509886e-38
0.72983003 0.20135815 0.070705593 2.3509886e-38
0.71232998 0.20385815 0.05820559 9.8602184e-39
0.71232998 0.20385815 0.060705591 9.5829351e-39
0.71232998 0.20385815 0.063205592 9.4903891e-39
0.71482998 0.20385815 0.060705591 9.3985438e-39
0.71482998 0.20385815 0.063205592 9.0329885e-39
0.71482998 0.20635815 0.063205592 9.6758398e-39
0.71982998 0.20385815 0.05820559 8.7553408e-39
0.71982998 0.20635815 0.060705591 9.6761901e-39
0.71982998 0.20885816 0.05820559 9.4917988e-39
0.71482998 0.20385815 0.06570559 9.6758398e-39
0.71732998 0.20385815 0.06570559 9.8598709e-39
0.71732998 0.20385815 0.068205595 9.8336036e-39
0.71732998 0.20635815 0.06570559 9.6758398e-39
0.71732998 0.20635815 0.068205595 1.021966e-38
0.71982998 0.20385815 0.068205595 2.3507722e-38
0.71982998 0.20635815 0.068205595 1.1958413e-38
0.71732998 0.20385815 0.070705593 2.3495459e-38
0.71732998 0.20635815 0.070705593 1.1220116e-38
0.71982998 0.20385815 0.070705593 2.3509874e-38
0.71982998 0.20385815 0.07320559 2.3496495e-38
0.71982998 0.20635815 0.070705593 1.1129365e-38
0.71982998 0.20635815 0.07320559 9.9293543e-39
0.72232997 0.20885816 0.05820559 9.6761901e-39
0.72232997 0.21135816 0.05820559 1.2810486e-38
0.72482997 0.21135816 0.05820559 1.3178901e-38
0.72232997 0.20885816 0.060705591 9.6761929e-39
0.72232997 0.20885816 0.063205592 1.0137534e-38
0.72482997 0.20885816 0.060705591 1.004425e-38
0.72482997 0.20885816 0.063205592 9.6761873e-39
0.72482997 0.21135816 0.060705591 1.3086715e-38
0.72732997 0.21135816 0.060705591 1.0228658e-38
0.72232997 0.20385815 0.068205595 2.3492198e-38
0.72232997 0.20635815 0.068205595 1.1591399e-38
0.72232997 0.20385815 0.07320559 2.3509886e-38
0.72232997 0.20635815 0.07320559 8.1812527e-39
0.72482997 0.20385815 0.07320559 2.3509886e-38
0.72732997 0.20635815 0.068205595 2.3492584e-38
0.72732997 0.20635815 0.070705593 2.2017038e-38
0.72732997 0.20885816 0.068205595 8.1783856e-39
0.72482997 0.21385816 0.05820559 1.4191991e-38
0.72232997 0.20135815 0.075705588 2.3509886e-38
0.72232997 0.20385815 0.075705588 2.3509886e-38
0.73233002 0.20135815 0.070705593 2.3509886e-38
