# .PCD v0.7 - Point Cloud Data file format
VERSION 0.7
FIELDS x y z rgb
SIZE 4 4 4 4
TYPE F F F F
COUNT 1 1 1 1
WIDTH 215
HEIGHT 1
VIEWPOINT 0 0 0 1 0 0 0
POINTS 215
DATA ascii
0.68568546 0.18582805 0.059363656 1.6402821e-38
0.68568546 0.18832804 0.059363656 1.1516528e-38
0.68568546 0.18582805 0.061863653 1.5942969e-38
0.68568546 0.18832804 0.061863653 1.0595623e-38
0.68318546 0.19082804 0.059363656 2.3508809e-38
0.68318546 0.19332804 0.059363656 1.6670848e-38
0.68568546 0.19082804 0.059363656 2.3509157e-38
0.68568546 0.19332804 0.059363656 1.6756929e-38
0.68568546 0.19082804 0.061863653 2.3498749e-38
0.68568546 0.19332804 0.061863653 1.4729721e-38
0.68568546 0.19582805 0.059363656 8.659883e-39
0.68818545 0.18582805 0.059363656 1.6218085e-38
0.68818545 0.18832804 0.059363656 1.0317905e-38
0.69068545 0.18582805 0.059363656 1.5849702e-38
0.69068545 0.18832804 0.059363656 1.0687818e-38
0.68818545 0.19082804 0.059363656 2.3506657e-38
0.68818545 0.19332804 0.059363656 2.349945e-38
0.69068545 0.19082804 0.059363656 1.2529618e-38
0.69068545 0.19332804 0.059363656 2.3501247e-38
0.68818545 0.19082804 0.061863653 2.3509886e-38
0.68818545 0.19332804 0.061863653 2.3501968e-38
0.69068545 0.19082804 0.061863653 1.2715071e-38
0.69068545 0.19332804 0.061863653 2.3497619e-38
0.69318545 0.18832804 0.059363656 1.0779268e-38
0.69568545 0.18832804 0.059363656 1.123884e-38
0.69318545 0.19082804 0.059363656 1.1795668e-38
0.69318545 0.19332804 0.059363656 2.349691e-38
0.69568545 0.19082804 0.059363656 1.2072615e-38
0.69568545 0.19332804 0.059363656 2.3509886e-38
0.69318545 0.19082804 0.061863653 1.198078e-38
0.69318545 0.19332804 0.061863653 2.3503747e-38
0.69568545 0.19082804 0.061863653 1.2715419e-38
0.69568545 0.19332804 0.061863653 2.3504827e-38
0.68818545 0.19582805 0.059363656 1.0227565e-38
0.69068545 0.19582805 0.059363656 8.7513752e-39
0.69068545 0.19832805 0.059363656 1.0319411e-38
0.69068545 0.19582805 0.061863653 8.5691321e-39
0.69068545 0.20082805 0.059363656 1.3086715e-38
0.69318545 0.19582805 0.059363656 8.1996503e-39
0.69318545 0.19832805 0.059363656 1.0779679e-38
0.69568545 0.19582805 0.059363656 8.2918459e-39
0.69568545 0.19832805 0.059363656 1.0965519e-38
0.69318545 0.19582805 0.061863653 9.9502687e-39
0.69318545 0.19832805 0.061863653 1.0415222e-38
0.69568545 0.19582805 0.061863653 1.1783048e-38
0.69818544 0.19082804 0.059363656 1.2807614e-38
0.69818544 0.19332804 0.059363656 2.3504827e-38
0.70068544 0.19332804 0.059363656 1.2440675e-38
0.70318544 0.19332804 0.059363656 1.2440675e-38
0.70568544 0.19082804 0.059363656 1.1517245e-38
0.70568544 0.19332804 0.059363656 1.3819245e-38
0.70318544 0.19332804 0.061863653 2.350307e-38
0.70568544 0.19082804 0.061863653 1.1519762e-38
0.70568544 0.19332804 0.061863653 1.4186601e-38
0.70568544 0.19332804 0.064363658 2.3501276e-38
0.69818544 0.19582805 0.059363656 1.1784107e-38
0.70068544 0.19582805 0.059363656 2.3504485e-38
0.70318544 0.19582805 0.059363656 2.3505912e-38
0.70318544 0.19832805 0.059363656 1.0500205e-38
0.70568544 0.19582805 0.059363656 2.3503787e-38
0.70568544 0.19832805 0.059363656 7.3734602e-39
0.70318544 0.19582805 0.061863653 2.3506277e-38
0.70318544 0.19832805 0.061863653 1.1691193e-38
0.70568544 0.19582805 0.061863653 2.3501961e-38
0.70568544 0.19582805 0.064363658 2.3504472e-38
0.70568544 0.19832805 0.061863653 1.3435697e-38
0.70818543 0.19332804 0.059363656 1.3176084e-38
0.70818543 0.19082804 0.061863653 1.1888175e-38
0.70818543 0.19082804 0.064363658 1.1426495e-38
0.70818543 0.19332804 0.061863653 1.179526e-38
0.70818543 0.19332804 0.064363658 1.4740858e-38
0.71068543 0.19332804 0.061863653 1.179526e-38
0.71068543 0.19332804 0.064363658 1.4376074e-38
0.71568543 0.18832804 0.059363656 1.197856e-38
0.71568543 0.18582805 0.064363658 1.3731e-38
0.71568543 0.18832804 0.064363658 1.1335356e-38
0.71318543 0.19332804 0.059363656 1.0688913e-38
0.71568543 0.19082804 0.059363656 1.1057329e-38
0.71568543 0.19332804 0.059363656 1.022831e-38
0.71318543 0.19082804 0.061863653 1.1240639e-38
0.71318543 0.19332804 0.061863653 1.0596367e-38
0.71318543 0.19332804 0.064363658 1.0135058e-38
0.71568543 0.19082804 0.061863653 1.0965872e-38
0.71568543 0.19082804 0.064363658 1.1335356e-38
0.71568543 0.19332804 0.061863653 1.0595677e-38
0.71568543 0.19332804 0.064363658 1.0781478e-38
0.70818543 0.19582805 0.061863653 2.3317246e-38
0.70818543 0.19582805 0.064363658 2.350232e-38
0.70818543 0.19832805 0.061863653 1.1969569e-38
0.70818543 0.19832805 0.064363658 1.2331874e-38
0.71068543 0.19582805 0.064363658 2.3504505e-38
0.71068543 0.19832805 0.061863653 1.2699934e-38
0.71068543 0.19832805 0.064363658 1.0680984e-38
0.70818543 0.20082805 0.059363656 6.5404779e-39
0.71068543 0.20082805 0.059363656 7.1858473e-39
0.71068543 0.20332804 0.059363656 1.0872225e-38
0.70818543 0.20082805 0.061863653 7.5531823e-39
0.71068543 0.20082805 0.061863653 7.6475359e-39
0.71068543 0.20332804 0.061863653 1.0597436e-38
0.71318543 0.19582805 0.064363658 2.286058e-38
0.71318543 0.19832805 0.061863653 1.104689e-38
0.71318543 0.19832805 0.064363658 1.1685069e-38
0.71568543 0.19582805 0.064363658 1.2621478e-38
0.71568543 0.19832805 0.064363658 2.1557545e-38
0.71318543 0.20332804 0.059363656 1.004608e-38
0.71318543 0.20082805 0.061863653 6.0823682e-39
0.71318543 0.20082805 0.064363658 6.725574e-39
0.71318543 0.20332804 0.061863653 9.3092153e-39
0.71318543 0.20332804 0.064363658 9.7673095e-39
0.71568543 0.20082805 0.061863653 6.9096122e-39
0.71568543 0.20082805 0.064363658 1.0311479e-38
0.71568543 0.20332804 0.061863653 9.3992473e-39
0.71568543 0.20332804 0.064363658 1.0042464e-38
0.71568543 0.20332804 0.066863656 1.0597786e-38
0.71568543 0.20582804 0.059363656 9.6758398e-39
0.71568543 0.20582804 0.061863653 9.6783579e-39
0.71568543 0.20582804 0.064363658 1.0689983e-38
0.71568543 0.20582804 0.066863656 1.0689983e-38
0.71818542 0.18832804 0.059363656 1.1886006e-38
0.71818542 0.18582805 0.061863653 1.3914663e-38
0.71818542 0.18582805 0.064363658 1.4744429e-38
0.71818542 0.18832804 0.061863653 1.2071474e-38
0.72068542 0.18582805 0.064363658 1.4559328e-38
0.71818542 0.19082804 0.059363656 1.1148796e-38
0.71818542 0.19082804 0.061863653 1.142685e-38
0.71818542 0.19332804 0.064363658 9.3978011e-39
0.72068542 0.19332804 0.064363658 8.4689673e-39
0.71818542 0.18582805 0.066863656 1.3635188e-38
0.71818542 0.18582805 0.069363654 9.2163134e-39
0.71818542 0.18832804 0.066863656 1.1791276e-38
0.71818542 0.18832804 0.069363654 1.9726974e-38
0.72068542 0.18582805 0.066863656 1.3638454e-38
0.72068542 0.18832804 0.066863656 1.9543303e-38
0.71818542 0.19082804 0.066863656 1.2159786e-38
0.71818542 0.19332804 0.066863656 1.1604717e-38
0.72068542 0.19082804 0.066863656 2.3509886e-38
0.72068542 0.19332804 0.066863656 1.5946938e-38
0.72318542 0.18582805 0.069363654 1.0598139e-38
0.72318542 0.18832804 0.069363654 2.2305928e-38
0.72318542 0.18582805 0.071863651 6.4544354e-39
0.72318542 0.18832804 0.071863651 2.0099389e-38
0.72568542 0.18832804 0.071863651 1.0258945e-38
0.72318542 0.19082804 0.069363654 2.3509886e-38
0.72318542 0.19332804 0.069363654 2.3509886e-38
0.72568542 0.19332804 0.069363654 2.3509886e-38
0.72318542 0.19082804 0.071863651 2.3509886e-38
0.72318542 0.19332804 0.071863651 2.3509886e-38
0.72568542 0.19082804 0.071863651 2.3509886e-38
0.72568542 0.19332804 0.071863651 2.3509886e-38
0.71818542 0.20332804 0.059363656 8.8485902e-39
0.71818542 0.20082805 0.064363658 7.5539306e-39
0.71818542 0.20332804 0.061863653 9.2166693e-39
0.71818542 0.20332804 0.064363658 9.9517176e-39
0.72068542 0.20082805 0.064363658 2.2083567e-39
0.72068542 0.20332804 0.064363658 6.0805409e-39
0.71818542 0.19582805 0.066863656 8.1061052e-39
0.71818542 0.19582805 0.069363654 2.3509886e-38
0.71818542 0.19832805 0.066863656 1.4559993e-38
0.71818542 0.19832805 0.069363654 2.3509886e-38
0.72068542 0.19582805 0.066863656 2.3509886e-38
0.72068542 0.19832805 0.066863656 2.3509886e-38
0.71818542 0.20082805 0.066863656 4.787284e-39
0.71818542 0.20332804 0.066863656 8.4772896e-39
0.71818542 0.20332804 0.069363654 2.3490776e-38
0.72068542 0.20082805 0.066863656 1.2432275e-38
0.72068542 0.20332804 0.066863656 1.0852027e-38
0.72068542 0.20082805 0.071863651 2.3509886e-38
0.72068542 0.20332804 0.071863651 2.3509872e-38
0.72318542 0.19582805 0.069363654 2.3509886e-38
0.72318542 0.19832805 0.069363654 2.3509886e-38
0.72568542 0.19582805 0.069363654 2.3509886e-38
0.72568542 0.19832805 0.069363654 2.3509886e-38
0.72318542 0.19582805 0.071863651 2.3509886e-38
0.72318542 0.19832805 0.071863651 2.3509886e-38
0.72568542 0.19582805 0.071863651 2.3509886e-38
0.72568542 0.19832805 0.071863651 2.3509886e-38
0.72318542 0.20082805 0.069363654 2.3509886e-38
0.72318542 0.20332804 0.069363654 2.3509866e-38
0.72568542 0.20082805 0.069363654 2.3509886e-38
0.72568542 0.20332804 0.069363654 2.3509886e-38
0.72318542 0.20082805 0.071863651 2.3509886e-38
0.72318542 0.20332804 0.071863651 2.3509886e-38
0.72568542 0.20082805 0.071863651 2.3509886e-38
0.72568542 0.20332804 0.071863651 2.3509886e-38
0.72818542 0.19332804 0.071863651 2.3509886e-38
0.72818542 0.19582805 0.071863651 2.3509886e-38
0.72818542 0.19832805 0.071863651 2.3509886e-38
0.73068541 0.19582805 0.071863651 2.3509886e-38
0.73068541 0.19832805 0.071863651 2.3509886e-38
0.73068541 0.20082805 0.069363654 2.3509886e-38
0.72818542 0.20082805 0.071863651 2.3509886e-38
0.72818542 0.20332804 0.071863651 2.3509886e-38
0.73068541 0.20082805 0.071863651 2.3509886e-38
0.73318541 0.20082805 0.066863656 2.3509886e-38
0.71818542 0.20582804 0.059363656 9.4014109e-39
0.71818542 0.20832804 0.059363656 9.5861623e-39
0.72068542 0.20832804 0.059363656 1.0689269e-38
0.71818542 0.20582804 0.061863653 9.4936065e-39
0.72068542 0.20832804 0.061863653 1.0505238e-38
0.72068542 0.20832804 0.064363658 1.0599591e-38
0.72068542 0.21082805 0.059363656 1.3178914e-38
0.72318542 0.20832804 0.059363656 1.0688187e-38
0.72318542 0.20832804 0.061863653 1.1057692e-38
0.72318542 0.21082805 0.059363656 1.3546974e-38
0.72318542 0.21082805 0.061863653 1.3823914e-38
0.71818542 0.20582804 0.066863656 1.0136812e-38
0.71818542 0.20582804 0.069363654 1.2511573e-38
0.71818542 0.20832804 0.066863656 1.0136462e-38
0.71818542 0.20832804 0.069363654 8.6627795e-39
0.72068542 0.20582804 0.066863656 9.7575859e-39
0.72068542 0.20582804 0.071863651 1.1221535e-38
0.72068542 0.20582804 0.074363656 8.274163e-39
0.72068542 0.20832804 0.071863651 7.5553529e-39
0.72318542 0.20582804 0.069363654 2.3496882e-38
0.72318542 0.20582804 0.071863651 2.3494718e-38
