# .PCD v0.7 - Point Cloud Data file format
VERSION 0.7
FIELDS x y z rgb
SIZE 4 4 4 4
TYPE F F F F
COUNT 1 1 1 1
WIDTH 262
HEIGHT 1
VIEWPOINT 0 0 0 1 0 0 0
POINTS 262
DATA ascii
0.67400301 0.18942097 0.057107911 2.0634573e-38
0.67400301 0.19192097 0.057107911 9.6754586e-39
0.676503 0.19192097 0.057107911 2.0354332e-38
0.681503 0.18442097 0.059607912 1.5667108e-38
0.681503 0.18442097 0.062107913 1.6309917e-38
0.681503 0.18692097 0.059607912 1.0319762e-38
0.681503 0.18692097 0.062107913 1.0317201e-38
0.679003 0.19192097 0.057107911 1.9152925e-38
0.681503 0.19192097 0.057107911 2.3509168e-38
0.679003 0.19442098 0.057107911 8.2911019e-39
0.681503 0.19442098 0.057107911 8.014145e-39
0.684003 0.18692097 0.057107911 1.0504156e-38
0.68650299 0.18692097 0.057107911 1.6585798e-38
0.68650299 0.18692097 0.059607912 1.6217722e-38
0.684003 0.18942097 0.057107911 1.1147017e-38
0.684003 0.19192097 0.057107911 2.3504498e-38
0.68650299 0.18942097 0.057107911 1.1060607e-38
0.68650299 0.19192097 0.057107911 2.3509886e-38
0.684003 0.19192097 0.059607912 1.6573258e-38
0.68650299 0.18942097 0.059607912 1.0967334e-38
0.68650299 0.19192097 0.059607912 2.3508092e-38
0.68900299 0.18692097 0.059607912 1.5666012e-38
0.68900299 0.18942097 0.059607912 1.0503074e-38
0.68900299 0.19192097 0.059607912 2.3507373e-38
0.68900299 0.19192097 0.062107913 2.35016e-38
0.69150299 0.18942097 0.059607912 1.1888938e-38
0.69150299 0.18942097 0.062107913 1.0687834e-38
0.69150299 0.19192097 0.059607912 2.3509886e-38
0.69150299 0.19192097 0.062107913 2.3506971e-38
0.684003 0.19442098 0.057107911 8.0148639e-39
0.684003 0.19692098 0.057107911 1.041231e-38
0.68650299 0.19692098 0.057107911 1.1058046e-38
0.684003 0.19442098 0.059607912 8.1085085e-39
0.68650299 0.19442098 0.059607912 8.2914508e-39
0.68650299 0.19692098 0.059607912 1.0504506e-38
0.68900299 0.19442098 0.059607912 1.4637157e-38
0.68900299 0.19442098 0.062107913 1.1699124e-38
0.68900299 0.19692098 0.059607912 1.0227929e-38
0.69150299 0.19442098 0.059607912 1.1883508e-38
0.69150299 0.19442098 0.062107913 1.2704266e-38
0.69150299 0.19692098 0.059607912 1.059707e-38
0.69150299 0.19692098 0.062107913 8.1099714e-39
0.68900299 0.19942097 0.059607912 1.0966929e-38
0.69150299 0.19942097 0.059607912 1.1150254e-38
0.69150299 0.20192097 0.059607912 1.3271113e-38
0.69400299 0.18942097 0.059607912 1.2806876e-38
0.69400299 0.18942097 0.062107913 1.2256646e-38
0.69400299 0.19192097 0.059607912 2.3504481e-38
0.69400299 0.19192097 0.062107913 2.3508092e-38
0.69650298 0.19192097 0.059607912 1.2072615e-38
0.69650298 0.19192097 0.062107913 1.2623226e-38
0.69900298 0.19192097 0.059607912 1.2807617e-38
0.69900298 0.19192097 0.062107913 2.3504505e-38
0.70150298 0.19192097 0.059607912 1.2163725e-38
0.69400299 0.19442098 0.059607912 2.3496551e-38
0.69400299 0.19442098 0.062107913 2.350267e-38
0.69400299 0.19692098 0.062107913 1.0689283e-38
0.69650298 0.19442098 0.062107913 2.3502317e-38
0.69650298 0.19692098 0.062107913 7.6497191e-39
0.69400299 0.19942097 0.059607912 1.1242808e-38
0.69400299 0.19942097 0.062107913 1.1151706e-38
0.69400299 0.20192097 0.059607912 1.3271113e-38
0.69650298 0.19942097 0.059607912 1.1335374e-38
0.69650298 0.20192097 0.059607912 1.2902699e-38
0.69900298 0.19442098 0.059607912 2.3501237e-38
0.69900298 0.19442098 0.062107913 2.3505191e-38
0.69900298 0.19692098 0.059607912 1.2151811e-38
0.69900298 0.19692098 0.062107913 1.0500205e-38
0.70150298 0.19442098 0.059607912 2.3411952e-38
0.70150298 0.19442098 0.062107913 2.35052e-38
0.70150298 0.19692098 0.059607912 2.3504831e-38
0.70150298 0.19692098 0.062107913 1.2517354e-38
0.70150298 0.19942097 0.057107911 7.9234124e-39
0.70150298 0.19942097 0.059607912 7.9234124e-39
0.70150298 0.19942097 0.062107913 6.8199333e-39
0.70400298 0.19192097 0.059607912 1.3357194e-38
0.70400298 0.19192097 0.062107913 1.3358681e-38
0.70650297 0.19192097 0.059607912 1.1061643e-38
0.70650297 0.19192097 0.062107913 1.142827e-38
0.70900297 0.19192097 0.062107913 1.179491e-38
0.71150297 0.19192097 0.059607912 1.0596367e-38
0.71150297 0.19192097 0.062107913 1.1335021e-38
0.70400298 0.19442098 0.059607912 2.3501956e-38
0.70400298 0.19442098 0.062107913 2.3501635e-38
0.70400298 0.19692098 0.059607912 2.3505193e-38
0.70400298 0.19692098 0.062107913 2.3506277e-38
0.70650297 0.19442098 0.059607912 1.3083889e-38
0.70650297 0.19442098 0.062107913 1.4276646e-38
0.70650297 0.19692098 0.059607912 2.3507349e-38
0.70650297 0.19692098 0.062107913 2.3505557e-38
0.70400298 0.19942097 0.059607912 7.6468269e-39
0.70400298 0.19942097 0.062107913 6.7248706e-39
0.70650297 0.19942097 0.059607912 6.7248706e-39
0.70650297 0.19942097 0.062107913 6.356088e-39
0.70650297 0.20192097 0.062107913 1.0781829e-38
0.70900297 0.19442098 0.062107913 1.3728542e-38
0.70900297 0.19692098 0.062107913 2.3500868e-38
0.71150297 0.19442098 0.062107913 1.4376074e-38
0.71150297 0.19692098 0.062107913 2.3504863e-38
0.70900297 0.19942097 0.059607912 6.2638924e-39
0.70900297 0.19942097 0.062107913 7.0014575e-39
0.70900297 0.20192097 0.059607912 1.0689283e-38
0.70900297 0.20192097 0.062107913 1.0597087e-38
0.71150297 0.19942097 0.062107913 1.104689e-38
0.71150297 0.20192097 0.059607912 1.0320859e-38
0.71150297 0.20192097 0.062107913 9.9542371e-39
0.70900297 0.19442098 0.064607911 2.3501601e-38
0.70900297 0.19692098 0.064607911 2.3501235e-38
0.71150297 0.19442098 0.064607911 2.3504505e-38
0.71150297 0.19692098 0.064607911 2.3501949e-38
0.70900297 0.19942097 0.064607911 7.277687e-39
0.70900297 0.20192097 0.064607911 1.0320503e-38
0.71150297 0.19942097 0.064607911 1.0773548e-38
0.71150297 0.19942097 0.067107916 1.0220726e-38
0.71150297 0.20192097 0.064607911 9.2173728e-39
0.71150297 0.20442097 0.059607912 1.0321913e-38
0.71150297 0.20442097 0.062107913 1.0229364e-38
0.71400297 0.18942097 0.062107913 1.1240992e-38
0.71400297 0.19192097 0.059607912 1.0228673e-38
0.71400297 0.19192097 0.062107913 1.0413424e-38
0.71650296 0.18942097 0.059607912 1.1149522e-38
0.71650296 0.18942097 0.062107913 1.1979279e-38
0.71650296 0.19192097 0.059607912 1.0872934e-38
0.71650296 0.19192097 0.062107913 1.1055917e-38
0.71900296 0.18692097 0.059607912 1.3638802e-38
0.71900296 0.18692097 0.062107913 1.3915381e-38
0.71900296 0.18942097 0.059607912 1.1886008e-38
0.71900296 0.18942097 0.062107913 1.2164023e-38
0.71900296 0.19192097 0.062107913 1.1519024e-38
0.71650296 0.18692097 0.064607911 1.3915031e-38
0.71650296 0.18692097 0.067107916 1.3542992e-38
0.71400297 0.19192097 0.064607911 1.0780425e-38
0.71650296 0.18942097 0.064607911 1.1519374e-38
0.71650296 0.18942097 0.067107916 1.050026e-38
0.71650296 0.19192097 0.064607911 1.0966579e-38
0.71650296 0.19192097 0.067107916 1.2155352e-38
0.71900296 0.18442097 0.064607911 1.4744078e-38
0.71900296 0.18692097 0.064607911 1.3914678e-38
0.71900296 0.18692097 0.067107916 1.2616987e-38
0.72150296 0.18442097 0.067107916 1.3177141e-38
0.72150296 0.18692097 0.067107916 8.9404397e-39
0.71900296 0.18692097 0.069607913 9.0315592e-39
0.72150296 0.18442097 0.069607913 1.0782538e-38
0.72150296 0.18692097 0.069607913 7.3687882e-39
0.72150296 0.18692097 0.072107911 2.1478723e-38
0.71900296 0.18942097 0.067107916 1.7319519e-38
0.71900296 0.19192097 0.067107916 1.880392e-38
0.72150296 0.18942097 0.067107916 1.9726968e-38
0.72150296 0.19192097 0.067107916 1.8896472e-38
0.71900296 0.18942097 0.069607913 2.3509886e-38
0.72150296 0.18942097 0.069607913 2.2396676e-38
0.72150296 0.18942097 0.072107911 2.3509886e-38
0.72150296 0.19192097 0.069607913 2.3509886e-38
0.71400297 0.19442098 0.062107913 1.0965519e-38
0.71400297 0.19442098 0.064607911 1.5387691e-38
0.71400297 0.19692098 0.064607911 2.2952774e-38
0.71650296 0.19442098 0.064607911 1.0229014e-38
0.71650296 0.19442098 0.067107916 8.559721e-39
0.71650296 0.19692098 0.064607911 2.0090038e-38
0.71650296 0.19692098 0.067107916 1.3455607e-38
0.71400297 0.19942097 0.064607911 9.7608229e-39
0.71400297 0.19942097 0.067107916 1.0773533e-38
0.71400297 0.20192097 0.064607911 9.6761901e-39
0.71400297 0.20192097 0.067107916 9.6773041e-39
0.71650296 0.19942097 0.064607911 1.0865353e-38
0.71650296 0.19942097 0.067107916 5.3379382e-39
0.71650296 0.20192097 0.064607911 9.8616884e-39
0.71650296 0.20192097 0.067107916 6.0798515e-39
0.71650296 0.19942097 0.069607913 1.0391421e-38
0.71650296 0.20192097 0.069607913 1.1036791e-38
0.71900296 0.19442098 0.064607911 8.7473338e-39
0.71900296 0.19442098 0.067107916 1.4560095e-38
0.71900296 0.19692098 0.064607911 7.3724905e-39
0.71900296 0.19692098 0.067107916 1.529766e-38
0.72150296 0.19442098 0.067107916 1.6038407e-38
0.72150296 0.19692098 0.067107916 2.3509886e-38
0.71900296 0.19442098 0.069607913 2.3509886e-38
0.71900296 0.19692098 0.069607913 2.3509886e-38
0.72150296 0.19442098 0.069607913 2.3509886e-38
0.72150296 0.19692098 0.069607913 2.3509886e-38
0.72150296 0.19692098 0.072107911 2.3509886e-38
0.71900296 0.19942097 0.067107916 1.2339725e-38
0.71900296 0.20192097 0.067107916 1.0576911e-38
0.72150296 0.19942097 0.067107916 2.3509886e-38
0.71900296 0.19942097 0.069607913 2.3509886e-38
0.71900296 0.19942097 0.072107911 2.3509886e-38
0.71900296 0.20192097 0.069607913 2.3509886e-38
0.71900296 0.20192097 0.072107911 2.3509869e-38
0.72150296 0.19942097 0.069607913 2.3509886e-38
0.72150296 0.19942097 0.072107911 2.3509886e-38
0.72150296 0.20192097 0.072107911 2.3509886e-38
0.72400296 0.18442097 0.069607913 1.0504461e-38
0.72400296 0.18692097 0.069607913 7.2802374e-39
0.72400296 0.18692097 0.072107911 6.6391812e-39
0.72400296 0.18942097 0.069607913 2.1754951e-38
0.72400296 0.18942097 0.072107911 2.02845e-38
0.72400296 0.19192097 0.069607913 2.3509886e-38
0.72400296 0.19192097 0.072107911 2.3509886e-38
0.72650295 0.19192097 0.072107911 2.3509886e-38
0.72400296 0.19442098 0.069607913 2.3509886e-38
0.72400296 0.19442098 0.072107911 2.3509886e-38
0.72400296 0.19692098 0.069607913 2.3509886e-38
0.72400296 0.19692098 0.072107911 2.3509886e-38
0.72650295 0.19442098 0.069607913 2.3509886e-38
0.72650295 0.19442098 0.072107911 2.3509886e-38
0.72650295 0.19692098 0.069607913 2.3509886e-38
0.72650295 0.19692098 0.072107911 2.3509886e-38
0.72400296 0.19942097 0.069607913 2.3509886e-38
0.72400296 0.19942097 0.072107911 2.3509886e-38
0.72400296 0.20192097 0.072107911 2.3509886e-38
0.72650295 0.19942097 0.072107911 2.3509886e-38
0.72650295 0.20192097 0.072107911 2.3509886e-38
0.72900295 0.19692098 0.069607913 2.3509886e-38
0.72900295 0.19692098 0.072107911 2.3509886e-38
0.73150301 0.19692098 0.069607913 2.3509886e-38
0.72900295 0.19942097 0.069607913 2.3509886e-38
0.72900295 0.19942097 0.072107911 2.3509886e-38
0.73150301 0.19942097 0.069607913 2.3509886e-38
0.73150301 0.20192097 0.069607913 2.3509886e-38
0.71400297 0.20442097 0.059607912 1.0229014e-38
0.71400297 0.20442097 0.062107913 9.4014109e-39
0.71400297 0.20692097 0.062107913 9.6783579e-39
0.71650296 0.20692097 0.059607912 9.678711e-39
0.71650296 0.20692097 0.062107913 1.0044264e-38
0.71900296 0.20692097 0.059607912 9.678711e-39
0.71900296 0.20692097 0.062107913 1.0139702e-38
0.71900296 0.20942098 0.059607912 1.0689263e-38
0.71900296 0.20942098 0.062107913 1.0689989e-38
0.72150296 0.20942098 0.059607912 1.0045714e-38
0.72150296 0.20942098 0.062107913 1.0781831e-38
0.72150296 0.21192098 0.059607912 1.2813375e-38
0.72150296 0.21192098 0.062107913 1.3455858e-38
0.71400297 0.20442097 0.064607911 9.4932576e-39
0.71400297 0.20442097 0.067107916 1.0597436e-38
0.71650296 0.20442097 0.064607911 1.0505591e-38
0.71650296 0.20442097 0.067107916 8.4769365e-39
0.71650296 0.20692097 0.064607911 1.0689986e-38
0.71650296 0.20692097 0.067107916 1.0136812e-38
0.71650296 0.20442097 0.069607913 9.9427101e-39
0.71900296 0.20442097 0.067107916 1.0217855e-38
0.71900296 0.20692097 0.064607911 1.0966576e-38
0.71900296 0.20692097 0.067107916 1.1049411e-38
0.71900296 0.20442097 0.069607913 2.3492211e-38
0.71900296 0.20442097 0.072107911 2.3497246e-38
0.71900296 0.20692097 0.069607913 1.1960202e-38
0.72150296 0.20442097 0.072107911 2.3494732e-38
0.72150296 0.20692097 0.072107911 9.7442484e-39
0.72150296 0.20942098 0.064607911 1.0874027e-38
0.72400296 0.21192098 0.059607912 1.2904122e-38
0.72400296 0.20442097 0.072107911 2.3509886e-38
0.72650295 0.20692097 0.069607913 2.3496147e-38
0.72900295 0.20442097 0.069607913 2.3509886e-38
0.72900295 0.20442097 0.072107911 2.3507866e-38
0.72900295 0.20692097 0.069607913 2.293575e-38
0.72900295 0.20692097 0.072107911 1.2719658e-38
0.72650295 0.21442097 0.059607912 1.4377837e-38
0.71900296 0.20192097 0.074607909 2.3509886e-38
0.72150296 0.19942097 0.074607909 2.3509886e-38
0.72150296 0.20192097 0.074607909 2.3509886e-38
0.71900296 0.20442097 0.074607909 2.3494369e-38
0.72150296 0.20442097 0.074607909 2.1834081e-38
0.72150296 0.20692097 0.074607909 8.0058311e-39
