# .PCD v0.7 - Point Cloud Data file format
VERSION 0.7
FIELDS x y z rgb
SIZE 4 4 4 4
TYPE F F F F
COUNT 1 1 1 1
WIDTH 398
HEIGHT 1
VIEWPOINT 0 0 0 1 0 0 0
POINTS 398
DATA ascii
0.70159668 0.087438226 0.063993119 1.1148446e-38
0.70159668 0.087438226 0.066493116 1.2254418e-38
0.70659667 0.082438223 0.063993119 1.4190173e-38
0.70659667 0.082438223 0.066493116 1.4836992e-38
0.70659667 0.084938221 0.061493114 1.3638451e-38
0.70659667 0.087438226 0.061493114 1.2808689e-38
0.70409667 0.084938221 0.063993119 1.2808686e-38
0.70409667 0.087438226 0.063993119 1.2992702e-38
0.70409667 0.087438226 0.066493116 1.3177097e-38
0.70659667 0.084938221 0.063993119 1.3637371e-38
0.70659667 0.084938221 0.066493116 1.4834824e-38
0.70659667 0.087438226 0.063993119 1.3176381e-38
0.70659667 0.087438226 0.066493116 1.455427e-38
0.70409667 0.087438226 0.068993114 1.4002176e-38
0.70659667 0.084938221 0.068993114 1.2346263e-38
0.70659667 0.087438226 0.068993114 1.1790576e-38
0.71159667 0.06993822 0.061493114 1.400758e-38
0.71159667 0.072438225 0.061493114 1.4284144e-38
0.71159667 0.06993822 0.063993119 1.3180318e-38
0.71159667 0.06993822 0.066493116 9.5868629e-39
0.71159667 0.072438225 0.063993119 1.4652949e-38
0.71159667 0.072438225 0.066493116 9.8630897e-39
0.71159667 0.074938223 0.061493114 1.4838064e-38
0.71159667 0.07743822 0.061493114 1.5019956e-38
0.71159667 0.074938223 0.063993119 1.4837341e-38
0.71159667 0.074938223 0.066493116 7.1890479e-39
0.71159667 0.07743822 0.063993119 1.4744078e-38
0.71159667 0.07743822 0.066493116 6.5469043e-39
0.71409667 0.06993822 0.061493114 1.3639508e-38
0.71409667 0.072438225 0.061493114 1.4284521e-38
0.71659672 0.072438225 0.058993116 1.4193044e-38
0.71659672 0.072438225 0.061493114 1.3180695e-38
0.71409667 0.06993822 0.063993119 1.3089204e-38
0.71409667 0.06993822 0.066493116 6.9099653e-39
0.71409667 0.072438225 0.063993119 1.3456924e-38
0.71409667 0.072438225 0.066493116 1.0874377e-38
0.71659672 0.06993822 0.063993119 9.0358556e-39
0.71409667 0.074938223 0.061493114 1.7600317e-38
0.71409667 0.07743822 0.061493114 1.4836994e-38
0.71409667 0.074938223 0.063993119 1.3642039e-38
0.71409667 0.074938223 0.066493116 1.1885308e-38
0.71409667 0.07743822 0.063993119 1.2905571e-38
0.71409667 0.07743822 0.066493116 1.16105e-38
0.71159667 0.074938223 0.068993114 1.1977851e-38
0.71159667 0.07743822 0.068993114 1.1611204e-38
0.71159667 0.074938223 0.073993117 1.8703077e-38
0.71159667 0.07743822 0.073993117 1.7965511e-38
0.71409667 0.06993822 0.068993114 5.5306616e-39
0.71409667 0.06993822 0.071493119 5.3430459e-39
0.71409667 0.072438225 0.068993114 1.7239507e-38
0.71409667 0.072438225 0.071493119 1.7974202e-38
0.71659672 0.06993822 0.068993114 5.7154102e-39
0.71659672 0.06993822 0.071493119 1.2905571e-38
0.71659672 0.072438225 0.071493119 1.9813413e-38
0.71659672 0.072438225 0.073993117 1.4926322e-38
0.71409667 0.074938223 0.068993114 2.3509886e-38
0.71409667 0.074938223 0.071493119 2.3509886e-38
0.71409667 0.07743822 0.068993114 2.3509158e-38
0.71409667 0.07743822 0.071493119 2.3509886e-38
0.71659672 0.074938223 0.071493119 1.9997444e-38
0.71659672 0.07743822 0.068993114 2.3504834e-38
0.71659672 0.07743822 0.071493119 1.8703077e-38
0.71409667 0.074938223 0.073993117 1.5292578e-38
0.71409667 0.07743822 0.073993117 1.5108186e-38
0.71659672 0.074938223 0.073993117 1.5202548e-38
0.71159667 0.079938225 0.061493114 1.3916833e-38
0.70909667 0.079938225 0.066493116 1.3178914e-38
0.70909667 0.082438223 0.063993119 1.5112505e-38
0.70909667 0.082438223 0.066493116 1.2993097e-38
0.71159667 0.079938225 0.063993119 1.2810132e-38
0.71159667 0.079938225 0.066493116 8.2961423e-39
0.71159667 0.082438223 0.063993119 1.4744076e-38
0.71159667 0.082438223 0.066493116 9.4946477e-39
0.70909667 0.084938221 0.061493114 1.3914315e-38
0.71159667 0.084938221 0.061493114 1.3821398e-38
0.71159667 0.087438226 0.058993116 1.2716491e-38
0.70909667 0.084938221 0.063993119 1.4834829e-38
0.70909667 0.084938221 0.066493116 1.2532084e-38
0.70909667 0.087438226 0.063993119 1.3175681e-38
0.70909667 0.087438226 0.066493116 1.243953e-38
0.71159667 0.084938221 0.063993119 1.465188e-38
0.71159667 0.084938221 0.066493116 7.7425706e-39
0.71159667 0.087438226 0.066493116 9.2148336e-39
0.71409667 0.079938225 0.061493114 1.3823564e-38
0.71409667 0.082438223 0.061493114 1.5022107e-38
0.71659672 0.079938225 0.058993116 1.3914678e-38
0.71659672 0.082438223 0.058993116 1.5021386e-38
0.71409667 0.079938225 0.063993119 1.29034e-38
0.71409667 0.079938225 0.066493116 1.2347362e-38
0.71409667 0.082438223 0.066493116 1.6587246e-38
0.71409667 0.084938221 0.061493114 1.4744432e-38
0.71409667 0.084938221 0.063993119 1.2438812e-38
0.71409667 0.084938221 0.066493116 1.5388704e-38
0.71409667 0.087438226 0.066493116 1.630888e-38
0.71659672 0.084938221 0.066493116 2.35088e-38
0.71159667 0.079938225 0.068993114 1.2805161e-38
0.71159667 0.082438223 0.068993114 1.6861669e-38
0.70909667 0.087438226 0.068993114 1.6767338e-38
0.71159667 0.084938221 0.068993114 1.4465684e-38
0.71159667 0.087438226 0.068993114 1.5388e-38
0.71159667 0.087438226 0.071493119 2.3508084e-38
0.71409667 0.079938225 0.068993114 2.3504837e-38
0.71409667 0.079938225 0.071493119 2.350592e-38
0.71409667 0.082438223 0.068993114 2.3508794e-38
0.71659672 0.079938225 0.068993114 2.3504484e-38
0.71409667 0.084938221 0.068993114 2.3509154e-38
0.71409667 0.087438226 0.068993114 2.3509157e-38
0.71659672 0.084938221 0.068993114 2.350736e-38
0.71909672 0.072438225 0.061493114 9.5875818e-39
0.70159668 0.089938223 0.061493114 9.6761901e-39
0.70159668 0.092438221 0.061493114 1.0692853e-38
0.70159668 0.089938223 0.063993119 1.0781089e-38
0.70159668 0.089938223 0.066493116 1.2716488e-38
0.70159668 0.092438221 0.063993119 1.1979273e-38
0.70159668 0.092438221 0.066493116 1.3454412e-38
0.70409667 0.089938223 0.061493114 1.0320125e-38
0.70409667 0.092438221 0.061493114 1.0416992e-38
0.70659667 0.089938223 0.058993116 9.3095656e-39
0.70659667 0.089938223 0.061493114 1.1240289e-38
0.70659667 0.092438221 0.058993116 1.06925e-38
0.70409667 0.089938223 0.063993119 1.0872578e-38
0.70409667 0.089938223 0.066493116 1.3177842e-38
0.70409667 0.092438221 0.063993119 1.1703765e-38
0.70409667 0.092438221 0.066493116 1.3362593e-38
0.70659667 0.089938223 0.063993119 1.3176381e-38
0.70659667 0.089938223 0.066493116 1.4277684e-38
0.70659667 0.092438221 0.063993119 1.3362593e-38
0.70659667 0.092438221 0.066493116 1.1054453e-38
0.70409667 0.094938226 0.061493114 1.336151e-38
0.70409667 0.097438224 0.061493114 1.5390167e-38
0.70659667 0.094938226 0.058993116 1.3545902e-38
0.70659667 0.094938226 0.061493114 1.3730297e-38
0.70659667 0.097438224 0.058993116 1.5205422e-38
0.70659667 0.097438224 0.061493114 1.5574913e-38
0.70409667 0.094938226 0.063993119 1.5204713e-38
0.70409667 0.094938226 0.066493116 1.3087092e-38
0.70659667 0.094938226 0.063993119 1.3637748e-38
0.70659667 0.094938226 0.066493116 9.125903e-39
0.70659667 0.097438224 0.063993119 1.4376372e-38
0.70659667 0.097438224 0.066493116 8.5698355e-39
0.70409667 0.089938223 0.068993114 1.1793446e-38
0.70659667 0.089938223 0.068993114 1.170125e-38
0.70659667 0.092438221 0.068993114 1.0778572e-38
0.70409667 0.099938221 0.061493114 1.483771e-38
0.70659667 0.099938221 0.058993116 1.4837363e-38
0.70659667 0.099938221 0.061493114 1.4561482e-38
0.70659667 0.10243823 0.058993116 1.4653332e-38
0.70659667 0.10243823 0.061493114 1.4561502e-38
0.70659667 0.099938221 0.063993119 1.3730647e-38
0.70659667 0.099938221 0.066493116 1.2350599e-38
0.70659667 0.10493822 0.058993116 1.5115025e-38
0.70659667 0.10493822 0.061493114 1.5297971e-38
0.71159667 0.089938223 0.058993116 1.2899788e-38
0.70909667 0.089938223 0.066493116 1.1884562e-38
0.70909667 0.092438221 0.066493116 1.0777143e-38
0.71159667 0.089938223 0.066493116 1.2162222e-38
0.71159667 0.092438221 0.066493116 1.4375639e-38
0.70909667 0.094938226 0.063993119 8.4805336e-39
0.70909667 0.094938226 0.066493116 9.7647886e-39
0.70909667 0.097438224 0.063993119 1.3085996e-38
0.70909667 0.097438224 0.066493116 8.6584761e-39
0.71159667 0.094938226 0.066493116 1.4831927e-38
0.71159667 0.097438224 0.066493116 1.2622127e-38
0.70909667 0.089938223 0.068993114 1.3266775e-38
0.70909667 0.092438221 0.068993114 1.4742264e-38
0.71159667 0.089938223 0.068993114 1.7321237e-38
0.71159667 0.089938223 0.071493119 2.3505923e-38
0.71159667 0.092438221 0.068993114 1.8058076e-38
0.71159667 0.092438221 0.071493119 2.2203615e-38
0.71159667 0.089938223 0.073993117 1.8439482e-38
0.71159667 0.092438221 0.073993117 2.1665973e-38
0.70909667 0.094938226 0.068993114 1.4831927e-38
0.70909667 0.097438224 0.068993114 1.3175301e-38
0.71159667 0.094938226 0.068993114 1.8151701e-38
0.71159667 0.094938226 0.071493119 2.1099425e-38
0.71159667 0.097438224 0.068993114 1.3449413e-38
0.71159667 0.097438224 0.071493119 1.7875503e-38
0.71159667 0.094938226 0.073993117 2.2399222e-38
0.71159667 0.097438224 0.073993117 2.3509886e-38
0.71409667 0.089938223 0.071493119 2.3508088e-38
0.71409667 0.092438221 0.071493119 2.3409679e-38
0.71659672 0.092438221 0.071493119 1.8163615e-38
0.71409667 0.089938223 0.073993117 1.2538711e-38
0.71409667 0.092438221 0.073993117 1.4567015e-38
0.71409667 0.094938226 0.071493119 2.2298687e-38
0.71409667 0.097438224 0.071493119 2.3505905e-38
0.71409667 0.094938226 0.073993117 1.861991e-38
0.71409667 0.094938226 0.076493114 1.3733577e-38
0.71409667 0.097438224 0.073993117 2.3509886e-38
0.71409667 0.097438224 0.076493114 2.0360076e-38
0.70909667 0.099938221 0.058993116 1.4561485e-38
0.70909667 0.099938221 0.061493114 1.3823561e-38
0.70909667 0.10243823 0.058993116 1.4561482e-38
0.70909667 0.10243823 0.061493114 1.3456574e-38
0.70909667 0.099938221 0.063993119 1.3823917e-38
0.70909667 0.099938221 0.066493116 1.2348784e-38
0.70909667 0.10243823 0.063993119 1.3639167e-38
0.70909667 0.10243823 0.066493116 1.3178545e-38
0.71159667 0.099938221 0.066493116 1.1793796e-38
0.71159667 0.10243823 0.063993119 1.3454412e-38
0.71159667 0.10243823 0.066493116 1.1240624e-38
0.70909667 0.10493822 0.058993116 1.5021751e-38
0.70909667 0.10493822 0.061493114 1.419307e-38
0.70909667 0.10743822 0.058993116 1.4928852e-38
0.70909667 0.10743822 0.061493114 1.4193441e-38
0.71159667 0.10743822 0.058993116 1.2810135e-38
0.71159667 0.10743822 0.061493114 1.2625744e-38
0.70909667 0.10493822 0.063993119 1.3363309e-38
0.70909667 0.10493822 0.066493116 1.3270746e-38
0.70909667 0.10743822 0.066493116 1.2440993e-38
0.71159667 0.10493822 0.063993119 1.3454412e-38
0.71159667 0.10493822 0.066493116 1.1332835e-38
0.71159667 0.10743822 0.063993119 1.3546621e-38
0.71159667 0.10743822 0.066493116 9.5807449e-39
0.71409667 0.10243823 0.066493116 1.0497319e-38
0.71409667 0.10493822 0.066493116 1.0957938e-38
0.71409667 0.10743822 0.063993119 1.2257315e-38
0.71409667 0.10743822 0.066493116 1.0316492e-38
0.70909667 0.099938221 0.068993114 1.1700897e-38
0.70909667 0.10243823 0.068993114 1.1516147e-38
0.71159667 0.099938221 0.068993114 1.2711042e-38
0.71159667 0.10243823 0.068993114 1.1420304e-38
0.71159667 0.099938221 0.073993117 2.3509886e-38
0.71159667 0.10243823 0.073993117 2.3509886e-38
0.71159667 0.10493822 0.068993114 1.0775345e-38
0.71159667 0.10743822 0.068993114 1.0867486e-38
0.71409667 0.099938221 0.071493119 2.3509149e-38
0.71409667 0.10243823 0.068993114 1.9813766e-38
0.71409667 0.10243823 0.071493119 2.3507708e-38
0.71409667 0.099938221 0.073993117 2.3509886e-38
0.71409667 0.099938221 0.076493114 1.4741535e-38
0.71409667 0.10243823 0.073993117 2.3509886e-38
0.71409667 0.10243823 0.076493114 1.4003611e-38
0.71409667 0.10493822 0.068993114 2.0552047e-38
0.71409667 0.10493822 0.071493119 2.3509866e-38
0.71409667 0.10743822 0.068993114 2.0921553e-38
0.71409667 0.10743822 0.071493119 2.3509863e-38
0.71659672 0.10743822 0.068993114 2.1474727e-38
0.71659672 0.10743822 0.071493119 2.3509886e-38
0.71409667 0.10493822 0.073993117 2.3509886e-38
0.71409667 0.10743822 0.073993117 2.3509844e-38
0.71659672 0.10743822 0.073993117 2.3509841e-38
0.70909667 0.10993822 0.061493114 1.2718293e-38
0.71159667 0.10993822 0.058993116 1.2074368e-38
0.71159667 0.10993822 0.061493114 1.2441702e-38
0.71159667 0.11243822 0.058993116 1.2901608e-38
0.71159667 0.11243822 0.061493114 1.013501e-38
0.71159667 0.10993822 0.063993119 1.1149873e-38
0.71159667 0.10993822 0.066493116 8.5731398e-39
0.71159667 0.11243822 0.063993119 9.5829379e-39
0.71159667 0.11243822 0.066493116 2.036877e-38
0.71159667 0.11493822 0.061493114 9.6747552e-39
0.71159667 0.11743822 0.061493114 8.6609788e-39
0.70909667 0.11743822 0.066493116 9.6697357e-39
0.71159667 0.11743822 0.066493116 2.3506281e-38
0.71409667 0.10993822 0.061493114 1.2809407e-38
0.71409667 0.11243822 0.061493114 1.2533897e-38
0.71409667 0.10993822 0.063993119 1.1149525e-38
0.71409667 0.10993822 0.066493116 1.1792839e-38
0.71409667 0.11243822 0.063993119 9.7669382e-39
0.71409667 0.11243822 0.066493116 1.5672203e-38
0.71659672 0.10993822 0.066493116 2.1842433e-38
0.71659672 0.11243822 0.063993119 1.4844253e-38
0.71659672 0.11243822 0.066493116 1.8798653e-38
0.71409667 0.11493822 0.061493114 1.2718287e-38
0.71409667 0.11743822 0.061493114 1.2719031e-38
0.71409667 0.11493822 0.063993119 8.8428519e-39
0.71409667 0.11493822 0.066493116 1.9542249e-38
0.71409667 0.11743822 0.063993119 8.8435708e-39
0.71409667 0.11743822 0.066493116 2.2122632e-38
0.71659672 0.11493822 0.063993119 1.9726645e-38
0.71659672 0.11493822 0.066493116 2.3507733e-38
0.71659672 0.11743822 0.063993119 2.2028998e-38
0.71659672 0.11743822 0.066493116 2.3509876e-38
0.70909667 0.11743822 0.068993114 2.3413004e-38
0.71159667 0.11743822 0.068993114 2.3509886e-38
0.71409667 0.10993822 0.068993114 2.0643556e-38
0.71409667 0.10993822 0.071493119 2.3500828e-38
0.71659672 0.10993822 0.068993114 2.0552793e-38
0.71659672 0.10993822 0.071493119 2.350263e-38
0.71659672 0.11243822 0.068993114 2.0276204e-38
0.71659672 0.11243822 0.071493119 2.026606e-38
0.71409667 0.10993822 0.073993117 2.3501219e-38
0.71659672 0.10993822 0.073993117 2.350157e-38
0.71409667 0.11743822 0.068993114 1.972158e-38
0.71409667 0.11743822 0.071493119 1.69539e-38
0.71659672 0.11493822 0.068993114 2.1198162e-38
0.71159667 0.11993822 0.061493114 7.7408148e-39
0.71159667 0.12243822 0.061493114 7.9223376e-39
0.70909667 0.11993822 0.066493116 9.7619314e-39
0.70909667 0.12243822 0.066493116 1.0221473e-38
0.71159667 0.11993822 0.063993119 9.7630132e-39
0.71159667 0.11993822 0.066493116 2.3509884e-38
0.71159667 0.12243822 0.063993119 9.9445275e-39
0.71159667 0.12243822 0.066493116 2.3509886e-38
0.71159667 0.12493822 0.061493114 7.0043077e-39
0.71159667 0.12743822 0.061493114 7.6468044e-39
0.71409667 0.11993822 0.061493114 1.2534981e-38
0.71409667 0.12243822 0.061493114 1.3088514e-38
0.71409667 0.11993822 0.063993119 9.4864235e-39
0.71409667 0.11993822 0.066493116 2.3413724e-38
0.71409667 0.12243822 0.063993119 1.022147e-38
0.71409667 0.12243822 0.066493116 2.3509886e-38
0.71659672 0.11993822 0.063993119 2.3412648e-38
0.71659672 0.11993822 0.066493116 2.3509886e-38
0.71659672 0.12243822 0.063993119 2.3509886e-38
0.71659672 0.12243822 0.066493116 2.3509886e-38
0.71409667 0.12493822 0.061493114 1.318071e-38
0.71409667 0.12743822 0.061493114 1.2813725e-38
0.71659672 0.12743822 0.058993116 7.2744248e-39
0.71409667 0.12493822 0.063993119 1.1143051e-38
0.71409667 0.12493822 0.066493116 2.3509886e-38
0.71409667 0.12743822 0.063993119 1.1511834e-38
0.71409667 0.12743822 0.066493116 2.3509884e-38
0.71659672 0.12493822 0.063993119 2.3509886e-38
0.71659672 0.12493822 0.066493116 2.3509886e-38
0.71659672 0.12743822 0.063993119 2.3509886e-38
0.71659672 0.12743822 0.066493116 2.3509886e-38
0.70909667 0.11993822 0.068993114 2.3508802e-38
0.71159667 0.11993822 0.068993114 2.3509886e-38
0.71159667 0.12243822 0.068993114 2.3509886e-38
0.71409667 0.11993822 0.068993114 1.9259864e-38
0.71409667 0.11993822 0.071493119 1.69539e-38
0.71909672 0.10743822 0.071493119 2.3509841e-38
0.71909672 0.11743822 0.063993119 2.3509877e-38
0.72159672 0.11493822 0.066493116 1.8798886e-38
0.71909672 0.10993822 0.068993114 2.3509872e-38
0.71909672 0.10993822 0.071493119 2.3500863e-38
0.71909672 0.11243822 0.068993114 2.0357893e-38
0.71909672 0.11493822 0.068993114 1.8430086e-38
0.71909672 0.12243822 0.063993119 2.3509886e-38
0.71409667 0.12993823 0.061493114 8.2918207e-39
0.71409667 0.13243823 0.061493114 7.8315488e-39
0.71659672 0.12993823 0.058993116 7.4616929e-39
0.71659672 0.12993823 0.061493114 1.142108e-38
0.71659672 0.13243823 0.058993116 7.5574885e-39
0.71659672 0.13243823 0.061493114 1.1606923e-38
0.71409667 0.12993823 0.063993119 1.1791295e-38
0.71409667 0.12993823 0.066493116 2.3509161e-38
0.71409667 0.13243823 0.063993119 1.225192e-38
0.71659672 0.12993823 0.063993119 2.350952e-38
0.71659672 0.13243823 0.063993119 2.3507005e-38
0.71409667 0.13493823 0.061493114 8.6613263e-39
0.71409667 0.13743822 0.061493114 9.8573542e-39
0.71659672 0.13493823 0.058993116 8.5691293e-39
0.71659672 0.13493823 0.061493114 1.2897286e-38
0.71659672 0.13743822 0.058993116 8.7531548e-39
0.71659672 0.13743822 0.061493114 1.345082e-38
0.71409667 0.13493823 0.063993119 1.2989485e-38
0.71409667 0.13743822 0.063993119 1.3911456e-38
0.71659672 0.13493823 0.063993119 2.3501954e-38
0.71659672 0.13493823 0.066493116 2.2305915e-38
0.71659672 0.13743822 0.063993119 2.3133172e-38
0.71659672 0.13743822 0.066493116 2.2580704e-38
0.71159667 0.13993822 0.058993116 1.409798e-38
0.71159667 0.14243822 0.058993116 1.4374567e-38
0.71409667 0.13993822 0.061493114 9.672237e-39
0.71409667 0.14243822 0.061493114 1.3178157e-38
0.71659672 0.13993822 0.058993116 1.0226137e-38
0.71659672 0.13993822 0.061493114 1.4188403e-38
0.71659672 0.14243822 0.058993116 1.022649e-38
0.71659672 0.14243822 0.061493114 1.5014567e-38
0.71409667 0.13993822 0.063993119 1.3912163e-38
0.71659672 0.13993822 0.063993119 2.3501951e-38
0.71659672 0.14493822 0.058993116 1.0689986e-38
0.71659672 0.14493822 0.061493114 1.6119827e-38
0.71659672 0.14743823 0.058993116 1.3362587e-38
0.71659672 0.14743823 0.061493114 1.7778988e-38
0.71659672 0.14993823 0.058993116 1.3639173e-38
0.71659672 0.14993823 0.061493114 1.8332162e-38
0.71909672 0.12993823 0.058993116 1.2066084e-38
0.71909672 0.12993823 0.061493114 2.3509881e-38
0.71909672 0.13243823 0.058993116 1.3083125e-38
0.71909672 0.13243823 0.061493114 2.3506646e-38
0.71909672 0.13493823 0.061493114 2.3502309e-38
0.71909672 0.13743822 0.061493114 2.3224642e-38
0.71909672 0.13993822 0.061493114 2.3502314e-38
0.71909672 0.14243822 0.061493114 2.340832e-38
0.71909672 0.13993822 0.063993119 2.2028972e-38
0.71909672 0.14243822 0.063993119 2.1843139e-38
0.71909672 0.14493822 0.061493114 2.3503399e-38
0.71909672 0.14743823 0.058993116 1.5935447e-38
0.71909672 0.14743823 0.061493114 2.3505198e-38
0.72159672 0.14743823 0.058993116 1.6855959e-38
0.72159672 0.14743823 0.061493114 2.1284554e-38
0.71909672 0.14993823 0.058993116 1.7131821e-38
0.71909672 0.14993823 0.061493114 2.3500512e-38
0.71909672 0.15243822 0.058993116 1.2164743e-38
0.71909672 0.15243822 0.061493114 2.3494031e-38
0.72159672 0.14993823 0.058993116 1.7132906e-38
0.72159672 0.14993823 0.061493114 2.1284554e-38
0.72159672 0.15243822 0.058993116 1.7318369e-38
0.71909672 0.15493822 0.058993116 1.262321e-38
0.71909672 0.15493822 0.061493114 2.1281333e-38
0.72159672 0.15493822 0.058993116 1.7689644e-38
0.72409672 0.15243822 0.058993116 2.3493317e-38
0.72409672 0.15493822 0.058993116 2.1097665e-38
0.72409672 0.15743822 0.058993116 2.072851e-38
