# .PCD v0.7 - Point Cloud Data file format
VERSION 0.7
FIELDS x y z rgb
SIZE 4 4 4 4
TYPE F F F F
COUNT 1 1 1 1
WIDTH 357
HEIGHT 1
VIEWPOINT 0 0 0 1 0 0 0
POINTS 357
DATA ascii
0.70659667 0.080933861 0.066493116 1.4744797e-38
0.70409667 0.085933864 0.063993119 1.2624295e-38
0.70659667 0.083433859 0.063993119 1.3914315e-38
0.70659667 0.083433859 0.066493116 1.4744797e-38
0.70659667 0.085933864 0.063993119 1.3544453e-38
0.70659667 0.085933864 0.066493116 1.5937201e-38
0.70909667 0.070933864 0.061493114 1.769502e-38
0.71159667 0.070933864 0.061493114 1.4193047e-38
0.70909667 0.070933864 0.066493116 1.3825337e-38
0.71159667 0.068433858 0.066493116 1.3821763e-38
0.71159667 0.070933864 0.063993119 1.4008283e-38
0.71159667 0.070933864 0.066493116 1.0232954e-38
0.70909667 0.073433861 0.061493114 1.7508121e-38
0.70909667 0.075933859 0.061493114 1.7600317e-38
0.71159667 0.073433861 0.061493114 1.4654751e-38
0.71159667 0.075933859 0.061493114 1.4654751e-38
0.70909667 0.073433861 0.066493116 1.3918278e-38
0.70909667 0.075933859 0.066493116 1.3273654e-38
0.71159667 0.073433861 0.063993119 1.3918628e-38
0.71159667 0.073433861 0.066493116 9.1266065e-39
0.71159667 0.075933859 0.063993119 1.3551644e-38
0.71159667 0.075933859 0.066493116 7.5581919e-39
0.71409667 0.070933864 0.061493114 1.3917186e-38
0.71409667 0.068433858 0.066493116 1.4097262e-38
0.71409667 0.070933864 0.063993119 1.2996675e-38
0.71409667 0.070933864 0.066493116 9.4936065e-39
0.71409667 0.073433861 0.061493114 1.4562554e-38
0.71409667 0.075933859 0.061493114 1.7417023e-38
0.71409667 0.073433861 0.063993119 1.3551644e-38
0.71409667 0.073433861 0.066493116 9.2173545e-39
0.71409667 0.075933859 0.063993119 1.3641688e-38
0.71409667 0.075933859 0.066493116 1.2440261e-38
0.71159667 0.073433861 0.068993114 1.2532823e-38
0.71159667 0.075933859 0.068993114 1.2259087e-38
0.71409667 0.070933864 0.068993114 5.7150571e-39
0.71409667 0.070933864 0.071493119 5.0675353e-39
0.71659672 0.070933864 0.068993114 5.439545e-39
0.71659672 0.070933864 0.071493119 1.5303746e-38
0.71409667 0.073433861 0.068993114 2.267473e-38
0.71409667 0.073433861 0.071493119 2.2860197e-38
0.71409667 0.075933859 0.068993114 2.3509886e-38
0.71409667 0.075933859 0.071493119 2.3509886e-38
0.71659672 0.073433861 0.071493119 2.0180038e-38
0.71659672 0.075933859 0.071493119 2.0180038e-38
0.70909667 0.078433864 0.061493114 1.6034815e-38
0.71159667 0.078433864 0.061493114 1.4006513e-38
0.71159667 0.080933861 0.061493114 1.4191988e-38
0.70909667 0.078433864 0.066493116 1.2812669e-38
0.70909667 0.080933861 0.063993119 1.4653679e-38
0.71159667 0.078433864 0.063993119 1.2537508e-38
0.71159667 0.078433864 0.066493116 6.9164253e-39
0.71159667 0.080933861 0.063993119 1.3085643e-38
0.71159667 0.080933861 0.066493116 1.0596737e-38
0.71159667 0.085933864 0.061493114 1.3913962e-38
0.70909667 0.083433859 0.063993119 1.4838066e-38
0.70909667 0.085933864 0.063993119 1.418946e-38
0.70909667 0.085933864 0.066493116 1.308309e-38
0.71159667 0.083433859 0.063993119 1.2992708e-38
0.71159667 0.083433859 0.066493116 1.1423216e-38
0.71159667 0.085933864 0.063993119 1.2899425e-38
0.71159667 0.085933864 0.066493116 1.1240975e-38
0.71409667 0.080933861 0.061493114 1.3548053e-38
0.71409667 0.078433864 0.063993119 1.2536794e-38
0.71409667 0.078433864 0.066493116 6.8256618e-39
0.71409667 0.080933861 0.063993119 1.3178198e-38
0.71409667 0.080933861 0.066493116 9.5825848e-39
0.71409667 0.083433859 0.066493116 1.7783995e-38
0.71409667 0.085933864 0.063993119 1.3267481e-38
0.71409667 0.085933864 0.066493116 1.6032298e-38
0.71159667 0.078433864 0.068993114 1.1890665e-38
0.71159667 0.080933861 0.068993114 1.4556871e-38
0.70909667 0.085933864 0.068993114 1.1699077e-38
0.71159667 0.083433859 0.068993114 1.695243e-38
0.71159667 0.085933864 0.068993114 1.6493275e-38
0.71409667 0.078433864 0.068993114 2.3506277e-38
0.71409667 0.078433864 0.071493119 2.3507362e-38
0.71409667 0.080933861 0.068993114 2.3504122e-38
0.71409667 0.083433859 0.068993114 2.3507355e-38
0.71409667 0.085933864 0.068993114 2.3508084e-38
0.71659672 0.083433859 0.068993114 2.3509154e-38
0.70159668 0.088433862 0.063993119 1.1240289e-38
0.70159668 0.090933859 0.063993119 1.1055893e-38
0.70159668 0.090933859 0.066493116 1.2900889e-38
0.70409667 0.090933859 0.061493114 1.0319762e-38
0.70659667 0.088433862 0.058993116 1.0135013e-38
0.70659667 0.088433862 0.061493114 1.2532078e-38
0.70659667 0.090933859 0.058993116 9.9513449e-39
0.70659667 0.090933859 0.061493114 1.2624648e-38
0.70409667 0.088433862 0.063993119 1.2256939e-38
0.70409667 0.088433862 0.066493116 1.3727753e-38
0.70409667 0.090933859 0.063993119 1.0687831e-38
0.70409667 0.090933859 0.066493116 1.2810857e-38
0.70659667 0.088433862 0.063993119 1.3268577e-38
0.70659667 0.088433862 0.066493116 1.4553551e-38
0.70659667 0.090933859 0.063993119 1.2993801e-38
0.70659667 0.090933859 0.066493116 1.1425383e-38
0.70409667 0.093433864 0.061493114 1.1978923e-38
0.70409667 0.095933862 0.061493114 1.5942616e-38
0.70659667 0.093433864 0.058993116 1.1242084e-38
0.70659667 0.093433864 0.061493114 1.3362213e-38
0.70659667 0.095933862 0.058993116 1.5389814e-38
0.70659667 0.095933862 0.061493114 1.5667121e-38
0.70409667 0.095933862 0.063993119 1.603518e-38
0.70659667 0.093433864 0.063993119 1.3638467e-38
0.70659667 0.093433864 0.066493116 1.087221e-38
0.70659667 0.095933862 0.063993119 1.483701e-38
0.70659667 0.095933862 0.066493116 8.479086e-39
0.70659667 0.088433862 0.068993114 1.2162576e-38
0.70659667 0.090933859 0.068993114 1.1423585e-38
0.70409667 0.09843386 0.061493114 1.5205051e-38
0.70659667 0.09843386 0.058993116 1.5021033e-38
0.70659667 0.09843386 0.061493114 1.483736e-38
0.70659667 0.10093386 0.058993116 1.4929556e-38
0.70659667 0.10093386 0.061493114 1.4837363e-38
0.70409667 0.09843386 0.063993119 1.5021388e-38
0.70659667 0.09843386 0.063993119 1.4465687e-38
0.70659667 0.10343386 0.058993116 1.5021388e-38
0.70659667 0.10343386 0.061493114 1.4836641e-38
0.70909667 0.090933859 0.058993116 1.0873282e-38
0.70909667 0.090933859 0.061493114 1.2443145e-38
0.71159667 0.088433862 0.058993116 1.2532828e-38
0.71159667 0.088433862 0.061493114 1.3360788e-38
0.70909667 0.088433862 0.063993119 1.3544794e-38
0.70909667 0.088433862 0.066493116 1.2068941e-38
0.70909667 0.090933859 0.063993119 1.3361159e-38
0.70909667 0.090933859 0.066493116 1.123919e-38
0.71159667 0.088433862 0.066493116 1.197856e-38
0.71159667 0.090933859 0.066493116 1.4099057e-38
0.70909667 0.093433864 0.058993116 1.216402e-38
0.70909667 0.093433864 0.061493114 1.2996319e-38
0.70909667 0.095933862 0.058993116 1.5389814e-38
0.70909667 0.093433864 0.063993119 9.9517176e-39
0.70909667 0.093433864 0.066493116 1.0870768e-38
0.70909667 0.095933862 0.063993119 1.3362943e-38
0.70909667 0.095933862 0.066493116 9.6715238e-39
0.71159667 0.093433864 0.066493116 1.5481991e-38
0.71159667 0.095933862 0.066493116 1.603157e-38
0.70909667 0.088433862 0.068993114 1.7505985e-38
0.70909667 0.090933859 0.068993114 1.778184e-38
0.71159667 0.088433862 0.068993114 1.741343e-38
0.71159667 0.088433862 0.071493119 2.3506283e-38
0.71159667 0.090933859 0.068993114 1.8058071e-38
0.71159667 0.090933859 0.071493119 2.3501558e-38
0.71159667 0.090933859 0.073993117 1.8439482e-38
0.70909667 0.093433864 0.068993114 1.8335014e-38
0.70909667 0.095933862 0.068993114 1.5757129e-38
0.71159667 0.093433864 0.068993114 1.8797048e-38
0.71159667 0.093433864 0.071493119 2.229545e-38
0.71159667 0.095933862 0.068993114 1.8704149e-38
0.71159667 0.095933862 0.071493119 1.9164389e-38
0.71159667 0.093433864 0.073993117 2.1573775e-38
0.71159667 0.095933862 0.073993117 2.3508809e-38
0.71409667 0.088433862 0.071493119 2.3507729e-38
0.71409667 0.090933859 0.071493119 2.3507279e-38
0.71409667 0.090933859 0.073993117 1.2631625e-38
0.71409667 0.093433864 0.071493119 2.3317486e-38
0.71409667 0.095933862 0.071493119 2.1469297e-38
0.71409667 0.093433864 0.073993117 1.4567733e-38
0.71409667 0.095933862 0.073993117 2.3509881e-38
0.71409667 0.095933862 0.076493114 1.8435921e-38
0.70909667 0.09843386 0.058993116 1.5850786e-38
0.70909667 0.09843386 0.061493114 1.3546972e-38
0.70909667 0.10093386 0.058993116 1.4653332e-38
0.70909667 0.10093386 0.061493114 1.3823561e-38
0.70909667 0.09843386 0.063993119 1.363917e-38
0.70909667 0.09843386 0.066493116 1.1147039e-38
0.70909667 0.10093386 0.063993119 1.4007957e-38
0.70909667 0.10093386 0.066493116 1.2440983e-38
0.71159667 0.09843386 0.066493116 1.4096187e-38
0.71159667 0.10093386 0.063993119 1.35477e-38
0.71159667 0.10093386 0.066493116 1.188564e-38
0.70909667 0.10343386 0.058993116 1.5021388e-38
0.70909667 0.10343386 0.061493114 1.4192344e-38
0.70909667 0.10593386 0.058993116 1.5482011e-38
0.70909667 0.10593386 0.061493114 1.4376382e-38
0.71159667 0.10343386 0.058993116 1.3825729e-38
0.71159667 0.10343386 0.061493114 1.4007232e-38
0.71159667 0.10593386 0.058993116 1.4560426e-38
0.71159667 0.10593386 0.061493114 1.391576e-38
0.70909667 0.10343386 0.063993119 1.3548772e-38
0.70909667 0.10343386 0.066493116 1.3639173e-38
0.70909667 0.10593386 0.063993119 1.4191991e-38
0.70909667 0.10593386 0.066493116 1.3638817e-38
0.71159667 0.10343386 0.063993119 1.3639173e-38
0.71159667 0.10343386 0.066493116 1.1700544e-38
0.71159667 0.10593386 0.063993119 1.3731368e-38
0.71159667 0.10593386 0.066493116 1.1883472e-38
0.71409667 0.10343386 0.066493116 1.1049058e-38
0.71409667 0.10593386 0.066493116 1.1420319e-38
0.71159667 0.09843386 0.068993114 1.4279195e-38
0.71159667 0.10093386 0.068993114 1.3449332e-38
0.70909667 0.10343386 0.068993114 1.1976405e-38
0.70909667 0.10593386 0.068993114 1.1606898e-38
0.71159667 0.10343386 0.068993114 1.0682077e-38
0.71159667 0.10593386 0.068993114 1.1420319e-38
0.71409667 0.09843386 0.071493119 2.350591e-38
0.71409667 0.10093386 0.068993114 1.9903416e-38
0.71409667 0.10093386 0.071493119 2.3509867e-38
0.71409667 0.09843386 0.073993117 2.3509886e-38
0.71409667 0.09843386 0.076493114 1.7318338e-38
0.71409667 0.10093386 0.073993117 2.3509886e-38
0.71409667 0.10093386 0.076493114 1.4741179e-38
0.71409667 0.10343386 0.068993114 1.9722289e-38
0.71409667 0.10343386 0.071493119 2.3508063e-38
0.71409667 0.10593386 0.068993114 2.1197419e-38
0.71409667 0.10593386 0.071493119 2.3509863e-38
0.71659672 0.10593386 0.068993114 2.1105587e-38
0.71659672 0.10593386 0.071493119 2.3509886e-38
0.71409667 0.10343386 0.073993117 2.3509886e-38
0.71409667 0.10593386 0.073993117 2.3509856e-38
0.71659672 0.10593386 0.073993117 2.3509855e-38
0.70909667 0.10843386 0.058993116 1.3084924e-38
0.70909667 0.10843386 0.061493114 1.3085643e-38
0.70909667 0.11093386 0.061493114 1.2441725e-38
0.71159667 0.10843386 0.058993116 1.2902699e-38
0.71159667 0.10843386 0.061493114 1.3085643e-38
0.71159667 0.11093386 0.058993116 1.2809407e-38
0.71159667 0.11093386 0.061493114 1.2809409e-38
0.70909667 0.10843386 0.063993119 1.3178192e-38
0.70909667 0.10843386 0.066493116 1.271829e-38
0.70909667 0.11093386 0.063993119 1.0504156e-38
0.70909667 0.11093386 0.066493116 1.0503803e-38
0.71159667 0.10843386 0.063993119 1.2992729e-38
0.71159667 0.10843386 0.066493116 1.0316145e-38
0.71159667 0.11093386 0.063993119 1.0872934e-38
0.71159667 0.11093386 0.066493116 1.6319019e-38
0.71159667 0.11343386 0.061493114 1.0410901e-38
0.71159667 0.11593386 0.061493114 1.013466e-38
0.70909667 0.11343386 0.066493116 9.7658872e-39
0.71159667 0.11343386 0.063993119 9.6733385e-39
0.71159667 0.11343386 0.066493116 2.0831543e-38
0.71159667 0.11593386 0.063993119 9.9520665e-39
0.71159667 0.11593386 0.066493116 2.1662373e-38
0.71409667 0.11093386 0.061493114 1.2809056e-38
0.71409667 0.10843386 0.066493116 1.1328123e-38
0.71409667 0.11093386 0.063993119 1.0870077e-38
0.71409667 0.11093386 0.066493116 1.6502331e-38
0.71659672 0.11093386 0.066493116 2.0274051e-38
0.71409667 0.11343386 0.061493114 1.225733e-38
0.71409667 0.11593386 0.061493114 1.2903053e-38
0.71659672 0.11593386 0.058993116 1.0319411e-38
0.71409667 0.11343386 0.063993119 9.9495624e-39
0.71409667 0.11343386 0.066493116 2.0831543e-38
0.71409667 0.11593386 0.063993119 1.0042117e-38
0.71409667 0.11593386 0.066493116 2.1662373e-38
0.71659672 0.11343386 0.066493116 2.3509886e-38
0.71659672 0.11593386 0.063993119 2.0923739e-38
0.71659672 0.11593386 0.066493116 2.3509886e-38
0.71159667 0.10843386 0.068993114 1.1512155e-38
0.71159667 0.11093386 0.068993114 1.9812431e-38
0.71159667 0.11343386 0.068993114 2.3509886e-38
0.71159667 0.11593386 0.068993114 2.3509881e-38
0.71409667 0.10843386 0.068993114 2.1658039e-38
0.71409667 0.10843386 0.071493119 2.3509866e-38
0.71409667 0.11093386 0.068993114 2.0181502e-38
0.71409667 0.11093386 0.071493119 1.9991996e-38
0.71659672 0.10843386 0.068993114 2.3509863e-38
0.71659672 0.10843386 0.071493119 2.3509886e-38
0.71659672 0.11093386 0.068993114 2.0458801e-38
0.71659672 0.11093386 0.071493119 2.3502281e-38
0.71409667 0.10843386 0.073993117 2.3509841e-38
0.71659672 0.10843386 0.073993117 2.3509849e-38
0.71409667 0.11343386 0.068993114 2.1013769e-38
0.71409667 0.11343386 0.071493119 1.7416657e-38
0.71659672 0.11343386 0.068993114 2.0829375e-38
0.71659672 0.11343386 0.071493119 1.769326e-38
0.71159667 0.11843386 0.061493114 9.6740419e-39
0.71159667 0.12093386 0.061493114 1.2442447e-38
0.70909667 0.12093386 0.066493116 1.1515434e-38
0.71159667 0.11843386 0.066493116 2.3506998e-38
0.71159667 0.12093386 0.066493116 2.3509886e-38
0.71159667 0.12343386 0.061493114 8.2025188e-39
0.71159667 0.12593386 0.061493114 9.1208681e-39
0.71409667 0.11843386 0.061493114 1.2903053e-38
0.71409667 0.12093386 0.061493114 1.253464e-38
0.71409667 0.11843386 0.063993119 1.0594919e-38
0.71409667 0.11843386 0.066493116 2.258469e-38
0.71409667 0.12093386 0.063993119 1.1882418e-38
0.71409667 0.12093386 0.066493116 2.3509886e-38
0.71659672 0.11843386 0.063993119 2.2583613e-38
0.71659672 0.11843386 0.066493116 2.3509886e-38
0.71659672 0.12093386 0.063993119 2.3509886e-38
0.71659672 0.12093386 0.066493116 2.3509886e-38
0.71409667 0.12343386 0.061493114 1.2536438e-38
0.71409667 0.12593386 0.061493114 1.4101946e-38
0.71659672 0.12343386 0.058993116 8.3872688e-39
0.71409667 0.12343386 0.063993119 1.188314e-38
0.71409667 0.12343386 0.066493116 2.3509886e-38
0.71409667 0.12593386 0.063993119 1.2435607e-38
0.71409667 0.12593386 0.066493116 2.3509886e-38
0.71659672 0.12343386 0.063993119 2.3509886e-38
0.71659672 0.12343386 0.066493116 2.3509886e-38
0.71659672 0.12593386 0.063993119 2.3509886e-38
0.71659672 0.12593386 0.066493116 2.3509886e-38
0.71159667 0.12093386 0.068993114 2.3509886e-38
0.71409667 0.12843387 0.061493114 9.0308235e-39
0.71409667 0.13093387 0.061493114 1.0504156e-38
0.71659672 0.12843387 0.058993116 8.9364741e-39
0.71659672 0.12843387 0.061493114 1.3266074e-38
0.71659672 0.13093387 0.058993116 8.9382691e-39
0.71659672 0.13093387 0.061493114 1.400436e-38
0.71409667 0.12843387 0.063993119 1.3451186e-38
0.71409667 0.12843387 0.066493116 2.3509886e-38
0.71409667 0.13093387 0.063993119 1.446569e-38
0.71409667 0.13093387 0.066493116 2.3508438e-38
0.71659672 0.12843387 0.063993119 2.3509886e-38
0.71659672 0.13093387 0.063993119 2.3509886e-38
0.71409667 0.13343386 0.061493114 1.041231e-38
0.71409667 0.13593386 0.061493114 1.1701969e-38
0.71409667 0.13343386 0.063993119 1.4650082e-38
0.71409667 0.13343386 0.066493116 2.3505197e-38
0.71409667 0.13593386 0.063993119 1.5111783e-38
0.71409667 0.13593386 0.066493116 2.3041329e-38
0.71659672 0.13343386 0.063993119 2.3505553e-38
0.71659672 0.13343386 0.066493116 2.3506276e-38
0.71659672 0.13593386 0.063993119 2.3134247e-38
0.71659672 0.13593386 0.066493116 2.2581426e-38
0.71159667 0.13843386 0.058993116 1.4189823e-38
0.71409667 0.13843386 0.061493114 1.1978204e-38
0.71409667 0.14093386 0.061493114 1.2163684e-38
0.71659672 0.14093386 0.058993116 1.1980007e-38
0.71659672 0.14093386 0.061493114 1.7135774e-38
0.71409667 0.13843386 0.063993119 1.6030511e-38
0.71409667 0.14093386 0.063993119 1.6858474e-38
0.71659672 0.13843386 0.063993119 2.3316843e-38
0.71659672 0.13843386 0.066493116 2.1936051e-38
0.71659672 0.14093386 0.063993119 2.3225373e-38
0.71659672 0.14093386 0.066493116 2.1934253e-38
0.71659672 0.14343385 0.058993116 1.3362587e-38
0.71659672 0.14343385 0.061493114 1.7411648e-38
0.71659672 0.14593387 0.058993116 1.3914678e-38
0.71659672 0.14593387 0.061493114 1.8148494e-38
0.71659672 0.14843386 0.061493114 1.842436e-38
0.71909672 0.11093386 0.068993114 1.9991996e-38
0.71909672 0.11343386 0.068993114 1.7692165e-38
0.71909672 0.12343386 0.063993119 2.3509886e-38
0.71909672 0.12593386 0.063993119 2.3509886e-38
0.71909672 0.12843387 0.061493114 2.3509886e-38
0.71909672 0.13093387 0.058993116 1.3912163e-38
0.71909672 0.12843387 0.063993119 2.3509886e-38
0.71909672 0.14093386 0.061493114 2.3499796e-38
0.71909672 0.14093386 0.063993119 2.1752388e-38
0.71909672 0.14343385 0.061493114 2.3506643e-38
0.71909672 0.14593387 0.058993116 1.8055932e-38
0.71909672 0.14593387 0.061493114 2.3504477e-38
0.72159672 0.14343385 0.061493114 2.1934259e-38
0.72159672 0.14593387 0.061493114 2.2483797e-38
0.71909672 0.14343385 0.063993119 2.1750237e-38
0.71909672 0.14843386 0.058993116 1.8516909e-38
0.71909672 0.14843386 0.061493114 2.3500515e-38
0.71909672 0.15093386 0.058993116 1.9162642e-38
0.71909672 0.15093386 0.061493114 2.3494754e-38
0.72159672 0.14843386 0.058993116 1.823925e-38
0.72159672 0.15093386 0.058993116 1.934739e-38
0.72159672 0.15343386 0.058993116 1.9531781e-38
0.72159672 0.15593386 0.058993116 1.9349892e-38
0.72409672 0.15593386 0.058993116 2.0913627e-38
