# .PCD v0.7 - Point Cloud Data file format
VERSION 0.7
FIELDS x y z rgb
SIZE 4 4 4 4
TYPE F F F F
COUNT 1 1 1 1
WIDTH 304
HEIGHT 1
VIEWPOINT 0 0 0 1 0 0 0
POINTS 304
DATA ascii
0.70669794 0.084054537 0.06296885 1.3638802e-38
0.71169794 0.069054537 0.065468848 1.4282021e-38
0.71169794 0.074054539 0.060468849 1.7600317e-38
0.71169794 0.071554534 0.06296885 1.3732057e-38
0.71169794 0.071554534 0.065468848 9.49431e-39
0.71169794 0.074054539 0.06296885 1.4745145e-38
0.71169794 0.074054539 0.065468848 9.125512e-39
0.71419799 0.069054537 0.065468848 1.409763e-38
0.71419799 0.071554534 0.060468849 1.3916088e-38
0.71419799 0.074054539 0.060468849 1.4837343e-38
0.71669799 0.071554534 0.060468849 1.409941e-38
0.71419799 0.071554534 0.06296885 1.3088498e-38
0.71419799 0.071554534 0.065468848 9.4950358e-39
0.71419799 0.074054539 0.06296885 1.3826433e-38
0.71419799 0.074054539 0.065468848 9.2170168e-39
0.71419799 0.069054537 0.067968845 1.1888875e-38
0.71419799 0.071554534 0.067968845 6.8177696e-39
0.71419799 0.071554534 0.07046885 5.0668136e-39
0.71419799 0.074054539 0.067968845 1.2809039e-38
0.71419799 0.074054539 0.07046885 2.2952024e-38
0.71669799 0.071554534 0.067968845 5.6228572e-39
0.71669799 0.074054539 0.07046885 1.9813776e-38
0.71169794 0.076554537 0.060468849 1.6771635e-38
0.71169794 0.079054534 0.060468849 1.5942966e-38
0.70919794 0.079054534 0.065468848 1.3178192e-38
0.71169794 0.076554537 0.06296885 1.4744076e-38
0.71169794 0.076554537 0.065468848 7.1947918e-39
0.71169794 0.079054534 0.06296885 1.3914315e-38
0.71169794 0.079054534 0.065468848 1.3085996e-38
0.70919794 0.08155454 0.065468848 1.3176026e-38
0.70919794 0.084054537 0.06296885 1.4006513e-38
0.70919794 0.084054537 0.065468848 1.3176026e-38
0.71169794 0.08155454 0.06296885 1.4653682e-38
0.71169794 0.08155454 0.065468848 1.3178192e-38
0.71169794 0.084054537 0.06296885 1.4837713e-38
0.71169794 0.084054537 0.065468848 1.3176026e-38
0.71419799 0.076554537 0.060468849 1.4745148e-38
0.71419799 0.079054534 0.060468849 1.382428e-38
0.71419799 0.076554537 0.06296885 1.3275064e-38
0.71419799 0.076554537 0.065468848 7.1937352e-39
0.71419799 0.079054534 0.06296885 1.2444943e-38
0.71419799 0.079054534 0.065468848 6.8253114e-39
0.71419799 0.08155454 0.060468849 1.4746597e-38
0.71419799 0.084054537 0.060468849 1.4190179e-38
0.71169794 0.079054534 0.067968845 9.3088649e-39
0.71169794 0.08155454 0.067968845 1.1423571e-38
0.71169794 0.084054537 0.067968845 1.6215962e-38
0.71169794 0.084054537 0.07046885 2.3508084e-38
0.71419799 0.076554537 0.067968845 1.2441681e-38
0.71419799 0.076554537 0.07046885 2.3509886e-38
0.71419799 0.079054534 0.067968845 1.2257289e-38
0.71419799 0.079054534 0.07046885 2.3506637e-38
0.71419799 0.08155454 0.067968845 1.4832384e-38
0.71419799 0.08155454 0.07046885 2.3505561e-38
0.71419799 0.084054537 0.067968845 1.7137177e-38
0.70169795 0.08905454 0.065468848 1.0872928e-38
0.70169795 0.091554537 0.065468848 1.2070756e-38
0.70669794 0.08905454 0.060468849 1.0964072e-38
0.70419794 0.08905454 0.06296885 1.114919e-38
0.70419794 0.08905454 0.065468848 1.2164741e-38
0.70669794 0.086554535 0.06296885 1.2624648e-38
0.70669794 0.08905454 0.06296885 1.2899437e-38
0.70669794 0.08905454 0.065468848 1.3452608e-38
0.70419794 0.094054535 0.060468849 1.3729215e-38
0.70669794 0.091554537 0.060468849 1.068854e-38
0.70669794 0.094054535 0.060468849 1.3637748e-38
0.70419794 0.091554537 0.06296885 1.0872565e-38
0.70419794 0.091554537 0.065468848 1.2993801e-38
0.70419794 0.094054535 0.06296885 1.3545902e-38
0.70419794 0.094054535 0.065468848 1.3730297e-38
0.70669794 0.091554537 0.06296885 1.2900886e-38
0.70669794 0.091554537 0.065468848 1.3545552e-38
0.70669794 0.094054535 0.06296885 1.363882e-38
0.70669794 0.094054535 0.065468848 1.3363678e-38
0.70669794 0.08905454 0.067968845 1.3727034e-38
0.70669794 0.091554537 0.067968845 1.1423601e-38
0.70419794 0.09655454 0.060468849 1.5296899e-38
0.70419794 0.099054538 0.060468849 1.492884e-38
0.70669794 0.09655454 0.060468849 1.5390167e-38
0.70669794 0.099054538 0.060468849 1.492919e-38
0.70419794 0.09655454 0.06296885 1.5205422e-38
0.70419794 0.09655454 0.065468848 1.5112505e-38
0.70419794 0.099054538 0.06296885 1.4929187e-38
0.70419794 0.099054538 0.065468848 1.4098353e-38
0.70669794 0.09655454 0.06296885 1.4837363e-38
0.70669794 0.09655454 0.065468848 1.3730662e-38
0.70669794 0.099054538 0.06296885 1.4191622e-38
0.70669794 0.099054538 0.065468848 1.3546619e-38
0.70669794 0.10155454 0.060468849 1.4929556e-38
0.70669794 0.10405454 0.060468849 1.4836638e-38
0.70669794 0.10155454 0.06296885 1.4284542e-38
0.70669794 0.10155454 0.065468848 1.3823564e-38
0.70669794 0.10405454 0.06296885 1.4007957e-38
0.70669794 0.10405454 0.065468848 1.3364381e-38
0.70919794 0.086554535 0.06296885 1.3451905e-38
0.70919794 0.086554535 0.065468848 1.5293637e-38
0.70919794 0.08905454 0.06296885 1.3268577e-38
0.70919794 0.08905454 0.065468848 1.1884191e-38
0.71169794 0.086554535 0.06296885 1.5385833e-38
0.71169794 0.086554535 0.065468848 1.2899069e-38
0.70919794 0.091554537 0.060468849 1.0872215e-38
0.70919794 0.094054535 0.060468849 1.1978204e-38
0.71169794 0.091554537 0.060468849 1.2901239e-38
0.71169794 0.094054535 0.060468849 1.3454412e-38
0.70919794 0.094054535 0.06296885 1.318036e-38
0.70919794 0.094054535 0.065468848 9.3088649e-39
0.71419799 0.086554535 0.060468849 1.3913243e-38
0.70919794 0.086554535 0.07046885 1.6585823e-38
0.70919794 0.08905454 0.067968845 1.2437365e-38
0.70919794 0.08905454 0.07046885 1.7413433e-38
0.71169794 0.086554535 0.067968845 1.2068207e-38
0.71169794 0.086554535 0.07046885 2.3508441e-38
0.71169794 0.08905454 0.067968845 1.1886006e-38
0.71169794 0.08905454 0.07046885 2.3507365e-38
0.71169794 0.08905454 0.072968848 2.3508451e-38
0.70919794 0.091554537 0.067968845 1.133067e-38
0.70919794 0.091554537 0.07046885 1.8058076e-38
0.70919794 0.094054535 0.067968845 1.0039948e-38
0.70919794 0.094054535 0.07046885 1.8705581e-38
0.71169794 0.091554537 0.067968845 1.5112855e-38
0.71169794 0.091554537 0.07046885 2.350157e-38
0.71169794 0.094054535 0.067968845 1.5572757e-38
0.71169794 0.094054535 0.07046885 2.027003e-38
0.71169794 0.091554537 0.072968848 2.3506936e-38
0.71169794 0.091554537 0.075468846 1.2723089e-38
0.71169794 0.094054535 0.072968848 2.2031519e-38
0.71169794 0.094054535 0.075468846 1.8619554e-38
0.71419799 0.086554535 0.067968845 1.640071e-38
0.71419799 0.08905454 0.07046885 2.3508808e-38
0.71419799 0.08905454 0.072968848 1.650122e-38
0.71419799 0.091554537 0.07046885 2.313347e-38
0.71419799 0.094054535 0.07046885 2.2298331e-38
0.71419799 0.091554537 0.072968848 1.8162536e-38
0.70919794 0.09655454 0.060468849 1.5389816e-38
0.71169794 0.09655454 0.060468849 1.4561132e-38
0.70919794 0.09655454 0.06296885 1.318036e-38
0.70919794 0.09655454 0.065468848 8.2025188e-39
0.70919794 0.099054538 0.06296885 1.3363662e-38
0.70919794 0.099054538 0.065468848 1.0874377e-38
0.71169794 0.09655454 0.06296885 8.8478882e-39
0.70919794 0.10155454 0.060468849 1.483736e-38
0.70919794 0.10405454 0.060468849 1.4928837e-38
0.70919794 0.10155454 0.06296885 1.3823564e-38
0.70919794 0.10155454 0.065468848 1.3823561e-38
0.70919794 0.10405454 0.06296885 1.3823561e-38
0.70919794 0.10405454 0.065468848 1.3731366e-38
0.70919794 0.09655454 0.067968845 9.4871451e-39
0.70919794 0.09655454 0.07046885 1.8428286e-38
0.70919794 0.099054538 0.067968845 1.1238866e-38
0.71169794 0.09655454 0.067968845 1.8520484e-38
0.71169794 0.09655454 0.07046885 1.9255878e-38
0.71169794 0.099054538 0.067968845 1.4372401e-38
0.71169794 0.099054538 0.07046885 1.8613777e-38
0.71169794 0.09655454 0.072968848 2.1560766e-38
0.71169794 0.09655454 0.075468846 2.3509524e-38
0.71169794 0.099054538 0.072968848 2.3509886e-38
0.71169794 0.099054538 0.075468846 2.3509886e-38
0.70919794 0.10155454 0.067968845 1.3546609e-38
0.70919794 0.10405454 0.067968845 1.3546619e-38
0.71169794 0.10155454 0.067968845 1.1609405e-38
0.71169794 0.10155454 0.07046885 1.9720101e-38
0.71169794 0.10405454 0.067968845 1.1607982e-38
0.71169794 0.10405454 0.07046885 1.9813036e-38
0.71169794 0.10155454 0.072968848 2.3509886e-38
0.71169794 0.10155454 0.075468846 2.3509886e-38
0.71419799 0.09655454 0.07046885 2.1560766e-38
0.71419799 0.099054538 0.07046885 2.3506618e-38
0.71419799 0.09655454 0.075468846 1.8711782e-38
0.71419799 0.099054538 0.072968848 2.3509886e-38
0.71419799 0.099054538 0.075468846 1.6764804e-38
0.71419799 0.10155454 0.07046885 2.3508783e-38
0.71419799 0.10405454 0.067968845 1.9997078e-38
0.71419799 0.10405454 0.07046885 2.3508418e-38
0.71419799 0.10155454 0.072968848 2.3509886e-38
0.71419799 0.10155454 0.075468846 1.4279109e-38
0.71419799 0.10405454 0.072968848 2.3509886e-38
0.71419799 0.10405454 0.075468846 1.2258722e-38
0.70669794 0.10655454 0.060468849 1.5482023e-38
0.70669794 0.10655454 0.06296885 1.4376032e-38
0.70669794 0.10655454 0.065468848 1.4006879e-38
0.70919794 0.10655454 0.060468849 1.5481663e-38
0.70919794 0.10905454 0.060468849 1.3269687e-38
0.71169794 0.10655454 0.060468849 1.4559347e-38
0.71169794 0.10905454 0.060468849 1.3177488e-38
0.70919794 0.10655454 0.06296885 1.3915407e-38
0.70919794 0.10655454 0.065468848 1.3823567e-38
0.70919794 0.10905454 0.06296885 1.3177842e-38
0.70919794 0.10905454 0.065468848 1.1794895e-38
0.71169794 0.10905454 0.06296885 1.2993448e-38
0.71169794 0.10905454 0.065468848 1.2625744e-38
0.70919794 0.11155453 0.060468849 1.2993803e-38
0.71169794 0.11155453 0.060468849 1.2993798e-38
0.71169794 0.11405454 0.060468849 1.2809053e-38
0.70919794 0.11155453 0.06296885 1.2625727e-38
0.70919794 0.11155453 0.065468848 1.0871156e-38
0.71169794 0.11155453 0.06296885 1.0872934e-38
0.71169794 0.11155453 0.065468848 1.0779661e-38
0.71169794 0.11405454 0.06296885 1.0226507e-38
0.71169794 0.11405454 0.065468848 2.0831543e-38
0.71419799 0.10905454 0.065468848 1.2436779e-38
0.71419799 0.11405454 0.060468849 1.2901608e-38
0.71419799 0.11155453 0.06296885 1.0778582e-38
0.71419799 0.11155453 0.065468848 1.6777476e-38
0.71419799 0.11405454 0.06296885 9.9470443e-39
0.71419799 0.11405454 0.065468848 2.1014139e-38
0.70919794 0.10655454 0.067968845 1.3823567e-38
0.71169794 0.10655454 0.067968845 1.1699081e-38
0.71169794 0.10655454 0.07046885 2.1380732e-38
0.71169794 0.10905454 0.067968845 9.3114279e-39
0.71169794 0.11155453 0.067968845 1.6317222e-38
0.71419799 0.10655454 0.067968845 2.1473283e-38
0.71419799 0.10655454 0.07046885 2.3509866e-38
0.71419799 0.10905454 0.067968845 1.105295e-38
0.71419799 0.10905454 0.07046885 2.3509886e-38
0.71669799 0.10905454 0.067968845 2.1749872e-38
0.71669799 0.10905454 0.07046885 2.3503365e-38
0.71419799 0.10655454 0.072968848 2.3509886e-38
0.71419799 0.10655454 0.075468846 1.1798829e-38
0.71419799 0.10905454 0.072968848 2.3502632e-38
0.71669799 0.10905454 0.072968848 2.3509858e-38
0.71419799 0.11155453 0.067968845 1.9443651e-38
0.71419799 0.11155453 0.07046885 1.9807253e-38
0.71419799 0.11405454 0.067968845 2.3509886e-38
0.71669799 0.11155453 0.067968845 2.0366246e-38
0.71669799 0.11155453 0.07046885 2.0266793e-38
0.71669799 0.11405454 0.067968845 2.0736824e-38
0.71669799 0.11405454 0.07046885 1.7969841e-38
0.71169794 0.11905453 0.060468849 1.2260201e-38
0.71169794 0.11655454 0.06296885 9.8598709e-39
0.71169794 0.11905453 0.06296885 9.3063482e-39
0.71169794 0.12155454 0.060468849 1.2444593e-38
0.71169794 0.12155454 0.06296885 8.8453701e-39
0.71169794 0.12405454 0.06296885 8.3869128e-39
0.71419799 0.11655454 0.060468849 1.3178911e-38
0.71419799 0.11905453 0.060468849 1.3086715e-38
0.71669799 0.11655454 0.060468849 1.013431e-38
0.71419799 0.11655454 0.06296885 1.0502003e-38
0.71419799 0.11655454 0.065468848 2.1569459e-38
0.71419799 0.11905453 0.06296885 1.1239219e-38
0.71419799 0.11905453 0.065468848 2.350664e-38
0.71669799 0.11655454 0.06296885 2.1844969e-38
0.71669799 0.11655454 0.065468848 2.3509886e-38
0.71669799 0.11905453 0.06296885 2.2859481e-38
0.71669799 0.11905453 0.065468848 2.3509884e-38
0.71419799 0.12155454 0.060468849 1.2627192e-38
0.71419799 0.12405454 0.060468849 1.3365104e-38
0.71669799 0.12405454 0.060468849 8.751378e-39
0.71419799 0.12155454 0.06296885 1.1423251e-38
0.71419799 0.12155454 0.065468848 2.3509886e-38
0.71419799 0.12405454 0.06296885 1.2251564e-38
0.71669799 0.12155454 0.06296885 2.3509886e-38
0.71669799 0.12155454 0.065468848 2.3509886e-38
0.71669799 0.12405454 0.06296885 2.3509886e-38
0.71669799 0.12405454 0.065468848 2.3509886e-38
0.71419799 0.11655454 0.067968845 2.3509879e-38
0.71419799 0.12655453 0.060468849 1.3364403e-38
0.71419799 0.12905453 0.060468849 9.0326382e-39
0.71669799 0.12655453 0.060468849 8.844277e-39
0.71669799 0.12905453 0.060468849 9.0308235e-39
0.71419799 0.12655453 0.06296885 1.2897639e-38
0.71419799 0.12905453 0.06296885 1.3543387e-38
0.71669799 0.12655453 0.06296885 2.3509886e-38
0.71669799 0.12655453 0.065468848 2.3509886e-38
0.71419799 0.13155454 0.060468849 1.0504156e-38
0.71419799 0.13405454 0.060468849 1.041196e-38
0.71669799 0.13155454 0.060468849 1.4554294e-38
0.71419799 0.13155454 0.06296885 1.4464615e-38
0.71419799 0.13155454 0.065468848 2.3504844e-38
0.71419799 0.13405454 0.06296885 1.4649006e-38
0.71419799 0.13405454 0.065468848 2.3503033e-38
0.71669799 0.13405454 0.06296885 2.3505557e-38
0.71169794 0.13655454 0.057968847 1.4283093e-38
0.71169794 0.13905454 0.057968847 1.437529e-38
0.71169794 0.14155453 0.057968847 1.418946e-38
0.71419799 0.13655454 0.060468849 1.3270368e-38
0.71419799 0.13905454 0.060468849 1.3362564e-38
0.71419799 0.13655454 0.06296885 1.5294381e-38
0.71419799 0.13655454 0.065468848 2.2857664e-38
0.71419799 0.13905454 0.06296885 1.6308527e-38
0.71669799 0.13655454 0.06296885 2.331684e-38
0.71669799 0.13655454 0.065468848 2.2305928e-38
0.71669799 0.13905454 0.06296885 2.3501231e-38
0.71669799 0.13905454 0.065468848 2.2027898e-38
0.71419799 0.14155453 0.060468849 1.2532825e-38
0.71669799 0.14155453 0.060468849 1.3362587e-38
0.71669799 0.14405453 0.060468849 1.3639173e-38
0.71419799 0.14155453 0.06296885 1.7042874e-38
0.71669799 0.14155453 0.06296885 2.3499436e-38
0.71669799 0.14155453 0.065468848 2.1658042e-38
0.71669799 0.14655453 0.060468849 1.4007957e-38
0.71919799 0.12905453 0.06296885 2.3509886e-38
0.71919799 0.13155454 0.060468849 1.3911456e-38
0.71919799 0.13905454 0.06296885 2.202897e-38
0.71919799 0.14155453 0.06296885 2.3504478e-38
0.71919799 0.14405453 0.06296885 2.350268e-38
0.71919799 0.14655453 0.060468849 1.8332165e-38
0.71919799 0.14905454 0.060468849 1.8977534e-38
0.72169799 0.14905454 0.057968847 1.8977529e-38
0.71919799 0.14655453 0.06296885 2.3505561e-38
0.71919799 0.15155454 0.060468849 1.934739e-38
0.72169799 0.15155454 0.057968847 1.9531781e-38
0.72169799 0.15405454 0.057968847 1.9349892e-38
0.72419798 0.15405454 0.057968847 2.349295e-38
0.72169799 0.15655454 0.057968847 1.9349892e-38
