# .PCD v0.7 - Point Cloud Data file format
VERSION 0.7
FIELDS x y z rgb
SIZE 4 4 4 4
TYPE F F F F
COUNT 1 1 1 1
WIDTH 302
HEIGHT 1
VIEWPOINT 0 0 0 1 0 0 0
POINTS 302
DATA ascii
0.71169794 0.069950216 0.060468849 1.7971604e-38
0.71169794 0.072450221 0.060468849 1.7324092e-38
0.71169794 0.074950218 0.060468849 1.760032e-38
0.71169794 0.077450216 0.060468849 1.6679811e-38
0.71419799 0.072450221 0.060468849 1.7878332e-38
0.71419799 0.074950218 0.060468849 1.7325531e-38
0.71419799 0.077450216 0.060468849 1.6588336e-38
0.71169794 0.079950221 0.060468849 1.4744094e-38
0.70419794 0.084950216 0.065468848 1.3913596e-38
0.70419794 0.087450221 0.065468848 1.3269293e-38
0.70669794 0.087450221 0.065468848 1.3452964e-38
0.70669794 0.087450221 0.067968845 1.4278403e-38
0.70919794 0.069950216 0.06296885 1.8248193e-38
0.70919794 0.072450221 0.06296885 1.7602471e-38
0.71169794 0.069950216 0.06296885 1.3547322e-38
0.71169794 0.069950216 0.065468848 9.3102943e-39
0.71169794 0.072450221 0.06296885 1.4008659e-38
0.71169794 0.072450221 0.065468848 9.863468e-39
0.71169794 0.072450221 0.07046885 1.6962924e-38
0.70919794 0.074950218 0.06296885 1.741808e-38
0.70919794 0.077450216 0.06296885 1.6312454e-38
0.71169794 0.074950218 0.06296885 1.4561835e-38
0.71169794 0.074950218 0.065468848 1.3734237e-38
0.71169794 0.077450216 0.06296885 1.4651877e-38
0.71169794 0.077450216 0.065468848 1.3183214e-38
0.71169794 0.074950218 0.067968845 1.2532823e-38
0.71169794 0.074950218 0.07046885 2.3509886e-38
0.71419799 0.069950216 0.06296885 1.2904122e-38
0.71419799 0.069950216 0.065468848 1.409763e-38
0.71419799 0.072450221 0.06296885 1.3733884e-38
0.71419799 0.072450221 0.065468848 1.004784e-38
0.71419799 0.069950216 0.067968845 1.1888875e-38
0.71419799 0.069950216 0.07046885 5.0675353e-39
0.71419799 0.072450221 0.067968845 1.096839e-38
0.71419799 0.072450221 0.07046885 1.7790892e-38
0.71419799 0.074950218 0.067968845 1.2439555e-38
0.71419799 0.074950218 0.07046885 2.3509884e-38
0.71419799 0.077450216 0.067968845 1.2440977e-38
0.71419799 0.077450216 0.07046885 2.3509886e-38
0.71169794 0.074950218 0.072968848 1.7786163e-38
0.71169794 0.074950218 0.075468846 1.4558612e-38
0.71169794 0.077450216 0.072968848 1.6679455e-38
0.71169794 0.077450216 0.075468846 1.4282024e-38
0.71419799 0.072450221 0.072968848 1.548813e-38
0.71419799 0.074950218 0.072968848 1.8519765e-38
0.71419799 0.077450216 0.072968848 1.7689644e-38
0.70919794 0.082450218 0.06296885 1.3914668e-38
0.70919794 0.082450218 0.065468848 1.4929187e-38
0.71169794 0.079950221 0.06296885 1.3823917e-38
0.71169794 0.079950221 0.065468848 1.3270746e-38
0.71169794 0.082450218 0.06296885 1.4561479e-38
0.71169794 0.082450218 0.065468848 1.3084905e-38
0.70919794 0.084950216 0.06296885 1.3822119e-38
0.70919794 0.084950216 0.065468848 1.5478031e-38
0.70919794 0.087450221 0.06296885 1.3361141e-38
0.70919794 0.087450221 0.065468848 1.547875e-38
0.71169794 0.084950216 0.06296885 1.4838066e-38
0.71169794 0.084950216 0.065468848 1.2992708e-38
0.71169794 0.087450221 0.06296885 1.557059e-38
0.71169794 0.087450221 0.065468848 1.299127e-38
0.70919794 0.087450221 0.067968845 1.2068952e-38
0.70919794 0.087450221 0.07046885 1.6676587e-38
0.71169794 0.084950216 0.067968845 1.1513966e-38
0.71169794 0.087450221 0.067968845 1.2068941e-38
0.71169794 0.087450221 0.07046885 2.3509161e-38
0.71419799 0.079950221 0.06296885 1.2810132e-38
0.71419799 0.079950221 0.065468848 1.2620425e-38
0.71419799 0.082450218 0.065468848 1.8058777e-38
0.71419799 0.079950221 0.067968845 1.3081037e-38
0.71419799 0.079950221 0.07046885 2.3506281e-38
0.71419799 0.082450218 0.067968845 1.8152052e-38
0.71669799 0.079950221 0.067968845 2.3503762e-38
0.71669799 0.082450218 0.067968845 2.3507715e-38
0.71419799 0.084950216 0.067968845 1.6769117e-38
0.71419799 0.087450221 0.067968845 1.6585467e-38
0.71169794 0.087450221 0.072968848 2.3509886e-38
0.70669794 0.094950221 0.060468849 1.5021386e-38
0.70669794 0.097450219 0.060468849 1.5390167e-38
0.70669794 0.099950217 0.060468849 1.483736e-38
0.70669794 0.10245022 0.060468849 1.483736e-38
0.70669794 0.10495022 0.060468849 1.5389811e-38
0.70919794 0.094950221 0.060468849 1.4470385e-38
0.70919794 0.097450219 0.060468849 1.4836638e-38
0.71419799 0.092450216 0.060468849 1.1607977e-38
0.71419799 0.094950221 0.060468849 9.8598681e-39
0.71419799 0.097450219 0.060468849 8.7538807e-39
0.70919794 0.10245022 0.060468849 1.4929205e-38
0.70919794 0.10495022 0.060468849 1.5298319e-38
0.70919794 0.10745022 0.060468849 1.5205798e-38
0.71169794 0.10745022 0.060468849 1.3453708e-38
0.70419794 0.089950219 0.065468848 1.3270043e-38
0.70419794 0.092450216 0.065468848 1.3638467e-38
0.70669794 0.089950219 0.065468848 1.3452964e-38
0.70669794 0.092450216 0.06296885 1.3546974e-38
0.70669794 0.092450216 0.065468848 1.1056246e-38
0.70669794 0.089950219 0.067968845 1.1793092e-38
0.70669794 0.092450216 0.067968845 1.1147723e-38
0.70419794 0.094950221 0.06296885 1.5297618e-38
0.70419794 0.094950221 0.065468848 1.483701e-38
0.70419794 0.097450219 0.06296885 1.5942631e-38
0.70419794 0.097450219 0.065468848 1.5020307e-38
0.70669794 0.094950221 0.06296885 1.3638817e-38
0.70669794 0.094950221 0.065468848 8.3872688e-39
0.70669794 0.097450219 0.06296885 1.5112502e-38
0.70669794 0.097450219 0.065468848 8.2954235e-39
0.70669794 0.099950217 0.06296885 1.4191988e-38
0.70669794 0.10245022 0.06296885 1.4007957e-38
0.70669794 0.10495022 0.06296885 1.4100874e-38
0.70919794 0.089950219 0.06296885 1.3177842e-38
0.70919794 0.089950219 0.065468848 1.1793092e-38
0.70919794 0.092450216 0.06296885 1.3546624e-38
0.70919794 0.092450216 0.065468848 1.123992e-38
0.71169794 0.092450216 0.06296885 1.1238842e-38
0.70919794 0.089950219 0.067968845 1.1976755e-38
0.70919794 0.089950219 0.07046885 1.7414155e-38
0.70919794 0.092450216 0.067968845 1.0777849e-38
0.70919794 0.092450216 0.07046885 1.8427212e-38
0.71169794 0.089950219 0.07046885 2.3506643e-38
0.71169794 0.092450216 0.07046885 2.2295097e-38
0.70919794 0.094950221 0.06296885 1.3548069e-38
0.70919794 0.094950221 0.065468848 9.4932576e-39
0.70919794 0.097450219 0.06296885 1.3271113e-38
0.70919794 0.097450219 0.065468848 9.3970949e-39
0.71169794 0.094950221 0.06296885 9.9520665e-39
0.71169794 0.097450219 0.06296885 9.0304704e-39
0.70919794 0.094950221 0.067968845 9.6715182e-39
0.70919794 0.094950221 0.07046885 1.8705226e-38
0.70919794 0.097450219 0.067968845 9.5797135e-39
0.70919794 0.097450219 0.07046885 1.7598941e-38
0.71169794 0.094950221 0.067968845 1.6215596e-38
0.71169794 0.094950221 0.07046885 2.0178911e-38
0.71169794 0.097450219 0.067968845 1.4647198e-38
0.71169794 0.097450219 0.07046885 1.7692558e-38
0.71419799 0.094950221 0.07046885 2.2207215e-38
0.71419799 0.097450219 0.07046885 2.350591e-38
0.71169794 0.089950219 0.072968848 2.3508448e-38
0.71169794 0.089950219 0.075468846 1.2539071e-38
0.71169794 0.092450216 0.072968848 2.2949429e-38
0.71169794 0.092450216 0.075468846 1.4384062e-38
0.71169794 0.094950221 0.072968848 2.146965e-38
0.71169794 0.094950221 0.075468846 1.8896136e-38
0.71169794 0.097450219 0.072968848 2.0461652e-38
0.71169794 0.097450219 0.075468846 2.3509886e-38
0.71419799 0.094950221 0.075468846 1.8160766e-38
0.71419799 0.097450219 0.072968848 2.3509886e-38
0.71419799 0.097450219 0.075468846 2.0176761e-38
0.70919794 0.099950217 0.06296885 1.3823564e-38
0.70919794 0.099950217 0.065468848 1.3178192e-38
0.70919794 0.10245022 0.06296885 1.3823564e-38
0.70919794 0.10245022 0.065468848 1.3823561e-38
0.71169794 0.099950217 0.06296885 1.3361507e-38
0.71169794 0.099950217 0.065468848 1.3176394e-38
0.71169794 0.10245022 0.06296885 1.3731366e-38
0.71169794 0.10245022 0.065468848 1.3546619e-38
0.71169794 0.099950217 0.067968845 1.188564e-38
0.71169794 0.099950217 0.07046885 1.9442806e-38
0.71169794 0.10245022 0.067968845 1.1609052e-38
0.71169794 0.10245022 0.07046885 1.9627557e-38
0.70919794 0.10495022 0.06296885 1.4192697e-38
0.70919794 0.10495022 0.065468848 1.3823917e-38
0.70919794 0.10745022 0.06296885 1.3177842e-38
0.71169794 0.10495022 0.06296885 1.363917e-38
0.71169794 0.10495022 0.065468848 1.3546619e-38
0.71169794 0.10745022 0.06296885 1.3269311e-38
0.71169794 0.10745022 0.065468848 1.2809409e-38
0.71169794 0.10495022 0.067968845 1.1423951e-38
0.71169794 0.10495022 0.07046885 2.0735359e-38
0.71419799 0.099950217 0.067968845 1.9350598e-38
0.71419799 0.099950217 0.07046885 2.3509151e-38
0.71419799 0.10245022 0.067968845 1.1051211e-38
0.71419799 0.10245022 0.07046885 2.3508431e-38
0.71419799 0.10745022 0.06296885 1.2809056e-38
0.71419799 0.10745022 0.065468848 1.1052262e-38
0.71419799 0.10495022 0.067968845 2.0827908e-38
0.71419799 0.10495022 0.07046885 2.3509866e-38
0.71419799 0.10745022 0.067968845 1.1051894e-38
0.71419799 0.10745022 0.07046885 2.3509872e-38
0.71669799 0.10495022 0.067968845 2.0920109e-38
0.71669799 0.10745022 0.067968845 2.165732e-38
0.71669799 0.10745022 0.07046885 2.3509886e-38
0.71169794 0.099950217 0.075468846 2.3509886e-38
0.71169794 0.10245022 0.075468846 2.3509886e-38
0.71419799 0.099950217 0.072968848 2.3509886e-38
0.71419799 0.099950217 0.075468846 1.4465669e-38
0.71419799 0.10245022 0.072968848 2.3509886e-38
0.71419799 0.10245022 0.075468846 1.4005049e-38
0.71419799 0.10495022 0.072968848 2.3509886e-38
0.71419799 0.10495022 0.075468846 1.1612623e-38
0.71419799 0.10745022 0.072968848 2.3509886e-38
0.71669799 0.10745022 0.072968848 2.3509841e-38
0.71169794 0.10995021 0.060468849 1.2993798e-38
0.71169794 0.11245022 0.060468849 1.2440983e-38
0.71169794 0.11495022 0.060468849 1.3270043e-38
0.71169794 0.11745021 0.060468849 1.3177488e-38
0.71419799 0.10995021 0.060468849 1.2810488e-38
0.71419799 0.11245022 0.060468849 1.2072583e-38
0.71419799 0.11495022 0.060468849 1.2533921e-38
0.71419799 0.11745021 0.060468849 1.290305e-38
0.71419799 0.11995022 0.060468849 1.2444593e-38
0.71419799 0.12245022 0.060468849 1.2997764e-38
0.71669799 0.12245022 0.060468849 8.8435736e-39
0.71419799 0.12495022 0.060468849 1.2905568e-38
0.71419799 0.12745021 0.060468849 8.7538807e-39
0.71669799 0.12745021 0.060468849 8.7531772e-39
0.71169794 0.10995021 0.06296885 1.2439185e-38
0.71169794 0.10995021 0.065468848 1.1607642e-38
0.71169794 0.11245022 0.06296885 1.1148446e-38
0.71169794 0.11245022 0.065468848 9.58114e-39
0.71169794 0.11495022 0.06296885 9.5829379e-39
0.71169794 0.11745021 0.06296885 9.5829351e-39
0.71419799 0.10995021 0.06296885 1.1978557e-38
0.71419799 0.10995021 0.065468848 9.9560771e-39
0.71419799 0.11245022 0.06296885 1.0041398e-38
0.71419799 0.11245022 0.065468848 2.0830468e-38
0.71669799 0.11245022 0.065468848 1.9443295e-38
0.71419799 0.10995021 0.067968845 1.2437132e-38
0.71419799 0.10995021 0.07046885 2.3501184e-38
0.71669799 0.10995021 0.067968845 2.0642836e-38
0.71669799 0.10995021 0.07046885 2.3503723e-38
0.71669799 0.11245022 0.067968845 2.0550993e-38
0.71669799 0.11245022 0.07046885 2.0450103e-38
0.71419799 0.11495022 0.06296885 1.0041398e-38
0.71419799 0.11495022 0.065468848 2.0923023e-38
0.71419799 0.11745021 0.06296885 1.0411257e-38
0.71419799 0.11745021 0.065468848 2.2676882e-38
0.71669799 0.11495022 0.06296885 2.0831543e-38
0.71669799 0.11495022 0.065468848 2.3509164e-38
0.71669799 0.11745021 0.06296885 2.1662376e-38
0.71669799 0.11745021 0.065468848 2.3509886e-38
0.71669799 0.11495022 0.067968845 2.1288914e-38
0.71669799 0.11745021 0.067968845 2.046022e-38
0.71669799 0.10995021 0.072968848 2.350158e-38
0.71169794 0.11995022 0.06296885 8.6634955e-39
0.71419799 0.11995022 0.06296885 1.0962623e-38
0.71419799 0.11995022 0.065468848 2.3506643e-38
0.71419799 0.12245022 0.06296885 1.1882771e-38
0.71669799 0.11995022 0.06296885 2.350736e-38
0.71669799 0.11995022 0.065468848 2.3509886e-38
0.71669799 0.12245022 0.06296885 2.3509886e-38
0.71669799 0.12245022 0.065468848 2.3509886e-38
0.71419799 0.12495022 0.06296885 1.2251552e-38
0.71419799 0.12745021 0.06296885 1.3357188e-38
0.71669799 0.12495022 0.06296885 2.3509886e-38
0.71669799 0.12495022 0.065468848 2.3509886e-38
0.71669799 0.12745021 0.06296885 2.3509886e-38
0.71669799 0.12745021 0.065468848 2.3509886e-38
0.71919799 0.11245022 0.067968845 1.98998e-38
0.71919799 0.11245022 0.07046885 2.0542289e-38
0.71919799 0.11495022 0.067968845 1.842938e-38
0.71419799 0.12995023 0.060468849 9.3988942e-39
0.71419799 0.13245022 0.060468849 1.0229008e-38
0.71669799 0.12995023 0.060468849 1.3358987e-38
0.71669799 0.13245022 0.060468849 1.0227209e-38
0.71419799 0.13495022 0.060468849 1.1057324e-38
0.71419799 0.13745022 0.060468849 1.2161872e-38
0.71669799 0.13745022 0.060468849 1.1702693e-38
0.71169794 0.13995022 0.057968847 1.4282021e-38
0.71169794 0.14245021 0.057968847 1.446569e-38
0.71419799 0.13995022 0.060468849 1.2254068e-38
0.71419799 0.14245021 0.060468849 1.3084905e-38
0.71669799 0.13995022 0.060468849 1.20704e-38
0.71669799 0.14245021 0.060468849 1.225552e-38
0.71669799 0.14495021 0.060468849 1.3178195e-38
0.71669799 0.14745022 0.060468849 1.8332162e-38
0.71419799 0.12995023 0.06296885 1.3821047e-38
0.71419799 0.13245022 0.06296885 1.409763e-38
0.71419799 0.13245022 0.065468848 2.3505916e-38
0.71669799 0.12995023 0.06296885 2.3509884e-38
0.71669799 0.13245022 0.06296885 2.3508077e-38
0.71419799 0.13495022 0.06296885 1.4835192e-38
0.71419799 0.13495022 0.065468848 2.3503388e-38
0.71419799 0.13745022 0.06296885 1.5848268e-38
0.71669799 0.13495022 0.06296885 2.3041329e-38
0.71669799 0.13495022 0.065468848 2.2305562e-38
0.71669799 0.13745022 0.06296885 2.331684e-38
0.71669799 0.13745022 0.065468848 2.2121168e-38
0.71419799 0.13995022 0.06296885 1.6124862e-38
0.71419799 0.14245021 0.06296885 1.7227617e-38
0.71669799 0.13995022 0.06296885 2.3502312e-38
0.71669799 0.13995022 0.065468848 2.1752744e-38
0.71669799 0.14245021 0.06296885 2.3506279e-38
0.71669799 0.14245021 0.065468848 2.1934259e-38
0.71669799 0.14995022 0.060468849 1.8885336e-38
0.71919799 0.12995023 0.060468849 1.4003639e-38
0.71919799 0.14495021 0.060468849 1.7872259e-38
0.71919799 0.14745022 0.060468849 1.851619e-38
0.71919799 0.12995023 0.06296885 2.3509886e-38
0.71919799 0.13995022 0.06296885 2.2028972e-38
0.71919799 0.14245021 0.06296885 2.3316121e-38
0.71919799 0.14495021 0.06296885 2.3503393e-38
0.71919799 0.14745022 0.06296885 2.3500877e-38
0.72169799 0.14495021 0.06296885 2.285294e-38
0.71919799 0.14995022 0.060468849 1.9069364e-38
0.71919799 0.15245022 0.060468849 1.962398e-38
0.72169799 0.14995022 0.057968847 1.8977531e-38
0.72169799 0.15245022 0.057968847 1.9622179e-38
0.72169799 0.15245022 0.060468849 2.3495109e-38
0.72169799 0.15495022 0.057968847 1.9257343e-38
0.72169799 0.15495022 0.060468849 2.1006176e-38
0.72419798 0.15245022 0.057968847 2.3492233e-38
0.72419798 0.15495022 0.057968847 2.091434e-38
0.71919799 0.14995022 0.06296885 2.3500877e-38
