# .PCD v0.7 - Point Cloud Data file format
VERSION 0.7
FIELDS x y z rgb
SIZE 4 4 4 4
TYPE F F F F
COUNT 1 1 1 1
WIDTH 396
HEIGHT 1
VIEWPOINT 0 0 0 1 0 0 0
POINTS 396
DATA ascii
0.72919798 -0.072549783 0.067968845 1.8707746e-38
0.72919798 -0.072549783 0.07046885 1.7509219e-38
0.73419797 -0.072549783 0.07046885 1.7136843e-38
0.73669797 -0.07504978 0.067968845 1.7784008e-38
0.73669797 -0.072549783 0.067968845 1.8244986e-38
0.73669797 -0.072549783 0.07046885 1.6958173e-38
0.73669797 -0.072549783 0.072968848 1.3650326e-38
0.72419798 -0.06754978 0.065468848 1.6311397e-38
0.72669798 -0.06754978 0.065468848 1.723119e-38
0.72419798 -0.06754978 0.067968845 1.7507768e-38
0.72669798 -0.070049785 0.067968845 1.7877281e-38
0.72669798 -0.070049785 0.07046885 1.7784376e-38
0.72669798 -0.06754978 0.067968845 1.7600695e-38
0.72669798 -0.06754978 0.07046885 1.7416655e-38
0.72419798 -0.065049782 0.06296885 1.5111056e-38
0.72419798 -0.065049782 0.065468848 1.6312801e-38
0.72419798 -0.062549785 0.06296885 9.4925177e-39
0.72419798 -0.062549785 0.065468848 1.8340078e-38
0.72669798 -0.065049782 0.06296885 1.5387277e-38
0.72669798 -0.065049782 0.065468848 1.6863454e-38
0.72669798 -0.062549785 0.06296885 9.4903499e-39
0.72669798 -0.062549785 0.065468848 1.8891084e-38
0.72419798 -0.065049782 0.067968845 1.8153474e-38
0.72419798 -0.062549785 0.067968845 1.9075848e-38
0.72669798 -0.065049782 0.067968845 1.8707391e-38
0.72669798 -0.065049782 0.07046885 1.8707391e-38
0.72669798 -0.062549785 0.067968845 1.907368e-38
0.72669798 -0.062549785 0.07046885 1.8064178e-38
0.72669798 -0.065049782 0.072968848 1.4467091e-38
0.72669798 -0.062549785 0.072968848 1.2995599e-38
0.72419798 -0.060049783 0.06296885 8.4812398e-39
0.72419798 -0.060049783 0.065468848 1.8985447e-38
0.72419798 -0.057549782 0.06296885 1.2169438e-38
0.72419798 -0.057549782 0.065468848 1.9629371e-38
0.72669798 -0.060049783 0.06296885 1.1795242e-38
0.72669798 -0.060049783 0.065468848 1.9720484e-38
0.72669798 -0.057549782 0.06296885 1.4189883e-38
0.72669798 -0.057549782 0.065468848 1.9351706e-38
0.72419798 -0.060049783 0.067968845 1.9721217e-38
0.72419798 -0.060049783 0.07046885 1.6126985e-38
0.72419798 -0.057549782 0.067968845 1.9444255e-38
0.72419798 -0.057549782 0.07046885 1.4836246e-38
0.72669798 -0.060049783 0.067968845 1.9257711e-38
0.72669798 -0.060049783 0.07046885 1.7879428e-38
0.72669798 -0.057549782 0.067968845 1.6768036e-38
0.72669798 -0.057549782 0.07046885 1.4929854e-38
0.72419798 -0.055049781 0.06296885 1.8982201e-38
0.72419798 -0.055049781 0.065468848 1.9813036e-38
0.72419798 -0.052549783 0.06296885 1.8981482e-38
0.72419798 -0.052549783 0.065468848 1.8431885e-38
0.72669798 -0.055049781 0.06296885 1.8889649e-38
0.72669798 -0.055049781 0.065468848 1.9996357e-38
0.72669798 -0.052549783 0.06296885 1.8246787e-38
0.72669798 -0.052549783 0.065468848 1.8799236e-38
0.72419798 -0.055049781 0.067968845 1.9076172e-38
0.72419798 -0.055049781 0.07046885 1.4278409e-38
0.72419798 -0.052549783 0.067968845 1.8063118e-38
0.72419798 -0.052549783 0.07046885 1.3545157e-38
0.72669798 -0.055049781 0.067968845 1.4190173e-38
0.72669798 -0.055049781 0.07046885 1.4095462e-38
0.72669798 -0.052549783 0.067968845 1.4282725e-38
0.72669798 -0.052549783 0.07046885 1.4005063e-38
0.72669798 -0.060049783 0.072968848 1.3176379e-38
0.72669798 -0.057549782 0.072968848 1.354516e-38
0.72669798 -0.055049781 0.072968848 1.8797809e-38
0.72669798 -0.052549783 0.072968848 1.9355299e-38
0.72919798 -0.070049785 0.065468848 1.7786176e-38
0.72919798 -0.06754978 0.065468848 1.7138994e-38
0.72919798 -0.070049785 0.067968845 1.7601414e-38
0.72919798 -0.070049785 0.07046885 1.6865649e-38
0.72919798 -0.06754978 0.067968845 1.7323755e-38
0.72919798 -0.06754978 0.07046885 1.7506715e-38
0.73169798 -0.06754978 0.07046885 1.4834473e-38
0.72919798 -0.065049782 0.065468848 1.806056e-38
0.72919798 -0.062549785 0.065468848 1.8799589e-38
0.72919798 -0.065049782 0.067968845 1.8891059e-38
0.72919798 -0.065049782 0.07046885 1.5295782e-38
0.73419797 -0.070049785 0.06296885 1.7876575e-38
0.73419797 -0.070049785 0.065468848 1.7599992e-38
0.73419797 -0.070049785 0.067968845 1.7415954e-38
0.73419797 -0.070049785 0.07046885 1.5937228e-38
0.73669797 -0.070049785 0.067968845 1.714009e-38
0.73669797 -0.070049785 0.07046885 1.547769e-38
0.72919798 -0.070049785 0.072968848 1.7508147e-38
0.72919798 -0.06754978 0.072968848 1.5760379e-38
0.72919798 -0.06754978 0.075468846 1.5936501e-38
0.73169798 -0.06754978 0.072968848 1.3911444e-38
0.72919798 -0.065049782 0.072968848 1.4742614e-38
0.72919798 -0.065049782 0.075468846 1.6217834e-38
0.72919798 -0.062549785 0.072968848 1.2989132e-38
0.72919798 -0.062549785 0.075468846 1.8346915e-38
0.73169798 -0.065049782 0.072968848 1.3454056e-38
0.73169798 -0.065049782 0.075468846 2.3136061e-38
0.73169798 -0.062549785 0.072968848 1.7791593e-38
0.73169798 -0.062549785 0.075468846 2.2125499e-38
0.73169798 -0.065049782 0.077968851 2.3509886e-38
0.73169798 -0.062549785 0.077968851 2.3509873e-38
0.73419797 -0.06754978 0.072968848 2.3508809e-38
0.73419797 -0.06754978 0.075468846 2.3509886e-38
0.73669797 -0.070049785 0.072968848 2.2582166e-38
0.73669797 -0.06754978 0.075468846 2.3509886e-38
0.73419797 -0.06754978 0.080468848 2.3509886e-38
0.73669797 -0.06754978 0.077968851 2.3509886e-38
0.73419797 -0.065049782 0.072968848 2.3508451e-38
0.73419797 -0.065049782 0.075468846 2.3509886e-38
0.73419797 -0.062549785 0.075468846 2.3509876e-38
0.73669797 -0.065049782 0.075468846 2.3509886e-38
0.73669797 -0.062549785 0.075468846 2.3509886e-38
0.73419797 -0.065049782 0.077968851 2.3509886e-38
0.73419797 -0.065049782 0.080468848 2.3509886e-38
0.73419797 -0.062549785 0.077968851 2.3509886e-38
0.73419797 -0.062549785 0.080468848 2.3509886e-38
0.73669797 -0.065049782 0.077968851 2.3509886e-38
0.73669797 -0.065049782 0.080468848 2.0829375e-38
0.73669797 -0.062549785 0.077968851 2.3509886e-38
0.73669797 -0.062549785 0.080468848 2.1662023e-38
0.72919798 -0.060049783 0.065468848 1.9720122e-38
0.72919798 -0.060049783 0.067968845 1.7879784e-38
0.72919798 -0.060049783 0.07046885 1.1797057e-38
0.72919798 -0.057549782 0.07046885 1.8155741e-38
0.72919798 -0.055049781 0.07046885 2.0368795e-38
0.72919798 -0.052549783 0.067968845 1.3637355e-38
0.72919798 -0.052549783 0.07046885 2.3507687e-38
0.73169798 -0.055049781 0.07046885 2.3509886e-38
0.73169798 -0.052549783 0.07046885 2.3509886e-38
0.73669797 -0.055049781 0.07046885 2.3509886e-38
0.73669797 -0.052549783 0.07046885 2.3509765e-38
0.72919798 -0.060049783 0.072968848 1.3818892e-38
0.72919798 -0.060049783 0.075468846 2.3509886e-38
0.72919798 -0.057549782 0.072968848 1.6679852e-38
0.72919798 -0.057549782 0.075468846 2.3509886e-38
0.73169798 -0.060049783 0.072968848 2.2954191e-38
0.73169798 -0.060049783 0.075468846 2.3509886e-38
0.73169798 -0.057549782 0.072968848 2.3509886e-38
0.73169798 -0.057549782 0.075468846 2.2484561e-38
0.72919798 -0.055049781 0.072968848 2.0459912e-38
0.72919798 -0.052549783 0.072968848 2.3507342e-38
0.73169798 -0.055049781 0.072968848 2.3509886e-38
0.73169798 -0.052549783 0.072968848 2.3509886e-38
0.73419797 -0.060049783 0.072968848 2.3509886e-38
0.73419797 -0.060049783 0.075468846 2.3509877e-38
0.73419797 -0.057549782 0.072968848 2.3509886e-38
0.73419797 -0.057549782 0.075468846 1.9906693e-38
0.73669797 -0.060049783 0.072968848 2.3509886e-38
0.73669797 -0.060049783 0.075468846 2.3509886e-38
0.73669797 -0.057549782 0.072968848 2.303445e-38
0.73669797 -0.057549782 0.075468846 1.3085296e-38
0.73419797 -0.060049783 0.077968851 2.3509886e-38
0.73419797 -0.060049783 0.080468848 2.3509886e-38
0.73419797 -0.057549782 0.077968851 1.3081735e-38
0.73669797 -0.060049783 0.077968851 2.3509886e-38
0.73669797 -0.060049783 0.080468848 2.3228986e-38
0.73669797 -0.057549782 0.077968851 1.2990243e-38
0.73669797 -0.057549782 0.080468848 1.4922371e-38
0.73419797 -0.055049781 0.072968848 2.3509886e-38
0.73419797 -0.055049781 0.075468846 1.8799181e-38
0.73419797 -0.052549783 0.072968848 2.3509768e-38
0.73419797 -0.052549783 0.075468846 1.676878e-38
0.73669797 -0.055049781 0.072968848 2.2481278e-38
0.73669797 -0.055049781 0.075468846 1.5484487e-38
0.73669797 -0.052549783 0.072968848 1.9719005e-38
0.73669797 -0.052549783 0.075468846 1.6680181e-38
0.73669797 -0.055049781 0.077968851 1.8519425e-38
0.73669797 -0.052549783 0.077968851 1.8702018e-38
0.72919798 -0.04754978 0.060468849 1.5206852e-38
0.72919798 -0.045049783 0.060468849 1.5944417e-38
0.72919798 -0.042549782 0.060468849 1.6400354e-38
0.72919798 -0.04004978 0.060468849 1.5110353e-38
0.72919798 -0.037549783 0.060468849 1.5035443e-38
0.72919798 -0.035049781 0.060468849 2.2586485e-38
0.72919798 -0.032549784 0.060468849 2.3509886e-38
0.72669798 -0.050049782 0.06296885 9.8627646e-39
0.72669798 -0.050049782 0.065468848 1.0416642e-38
0.72669798 -0.04754978 0.06296885 1.4466764e-38
0.72669798 -0.04754978 0.065468848 1.5022105e-38
0.72669798 -0.050049782 0.067968845 1.3176028e-38
0.72669798 -0.050049782 0.07046885 1.2708995e-38
0.72669798 -0.04754978 0.067968845 1.1802843e-38
0.72419798 -0.042549782 0.065468848 1.6308159e-38
0.72669798 -0.045049783 0.06296885 1.4466764e-38
0.72669798 -0.045049783 0.065468848 1.5944417e-38
0.72669798 -0.042549782 0.06296885 1.4465711e-38
0.72669798 -0.042549782 0.065468848 1.667694e-38
0.72419798 -0.042549782 0.067968845 1.5204682e-38
0.72419798 -0.04004978 0.06296885 1.6222818e-38
0.72419798 -0.04004978 0.065468848 1.4742999e-38
0.72419798 -0.037549783 0.06296885 1.7878727e-38
0.72669798 -0.04004978 0.06296885 1.5391275e-38
0.72669798 -0.04004978 0.065468848 1.5111059e-38
0.72669798 -0.037549783 0.06296885 1.6682705e-38
0.72669798 -0.037549783 0.065468848 1.1440537e-38
0.72419798 -0.04004978 0.067968845 1.428634e-38
0.72669798 -0.04004978 0.067968845 2.3509886e-38
0.72419798 -0.032549784 0.06296885 1.5479493e-38
0.72669798 -0.035049781 0.06296885 1.6403224e-38
0.72669798 -0.032549784 0.06296885 1.4653344e-38
0.72919798 -0.050049782 0.065468848 1.3364363e-38
0.72919798 -0.04754978 0.065468848 1.2446413e-38
0.73169798 -0.04754978 0.06296885 1.4562551e-38
0.72919798 -0.050049782 0.067968845 1.3260012e-38
0.72919798 -0.050049782 0.07046885 2.0088175e-38
0.72919798 -0.04754978 0.067968845 1.7415646e-38
0.72919798 -0.04754978 0.07046885 2.3509886e-38
0.73169798 -0.050049782 0.067968845 2.248454e-38
0.73169798 -0.050049782 0.07046885 2.3496147e-38
0.73169798 -0.04754978 0.067968845 2.3509886e-38
0.73169798 -0.04754978 0.07046885 2.3141434e-38
0.72919798 -0.045049783 0.065468848 1.4752743e-38
0.72919798 -0.042549782 0.065468848 1.5297956e-38
0.73169798 -0.045049783 0.06296885 1.5761095e-38
0.73169798 -0.045049783 0.065468848 2.2034386e-38
0.73169798 -0.042549782 0.06296885 1.5112853e-38
0.73169798 -0.042549782 0.065468848 2.3509886e-38
0.72919798 -0.045049783 0.067968845 2.0642491e-38
0.72919798 -0.042549782 0.067968845 2.3509886e-38
0.73169798 -0.045049783 0.067968845 2.3509886e-38
0.73169798 -0.045049783 0.07046885 2.3509886e-38
0.73169798 -0.042549782 0.067968845 2.3509886e-38
0.73419797 -0.050049782 0.067968845 2.3400341e-38
0.73419797 -0.050049782 0.07046885 1.7957193e-38
0.73419797 -0.04754978 0.067968845 2.3049238e-38
0.73419797 -0.04754978 0.07046885 1.4286337e-38
0.73669797 -0.050049782 0.07046885 2.1560769e-38
0.73669797 -0.04754978 0.067968845 1.4652602e-38
0.73669797 -0.04754978 0.07046885 1.3913551e-38
0.73419797 -0.045049783 0.067968845 2.3509886e-38
0.73419797 -0.045049783 0.07046885 1.797561e-38
0.73419797 -0.042549782 0.067968845 2.3509886e-38
0.73669797 -0.045049783 0.067968845 1.7050777e-38
0.73669797 -0.045049783 0.07046885 1.6956007e-38
0.72919798 -0.04004978 0.065468848 1.4101946e-38
0.72919798 -0.037549783 0.065468848 1.6592404e-38
0.73169798 -0.04004978 0.06296885 1.4100871e-38
0.73169798 -0.04004978 0.065468848 2.3509886e-38
0.73169798 -0.037549783 0.06296885 1.9357913e-38
0.72919798 -0.04004978 0.067968845 2.3509886e-38
0.72919798 -0.035049781 0.065468848 2.3509886e-38
0.72919798 -0.032549784 0.065468848 2.3509886e-38
0.73169798 -0.035049781 0.06296885 2.3509886e-38
0.73169798 -0.032549784 0.06296885 2.3509886e-38
0.73919797 -0.082549781 0.067968845 1.9166948e-38
0.73919797 -0.082549781 0.07046885 1.658437e-38
0.74169797 -0.082549781 0.07046885 1.5569851e-38
0.74419796 -0.082549781 0.065468848 1.9535003e-38
0.74419796 -0.082549781 0.067968845 1.5662397e-38
0.74669796 -0.082549781 0.07046885 1.4738996e-38
0.73919797 -0.082549781 0.072968848 1.4463854e-38
0.74169797 -0.082549781 0.072968848 1.9812707e-38
0.74169797 -0.080049783 0.065468848 1.8152437e-38
0.74169797 -0.077549785 0.06296885 1.8522645e-38
0.74169797 -0.077549785 0.065468848 1.8062027e-38
0.73919797 -0.080049783 0.067968845 1.704609e-38
0.73919797 -0.080049783 0.07046885 1.5386186e-38
0.73919797 -0.077549785 0.067968845 1.5945506e-38
0.73919797 -0.077549785 0.07046885 1.299847e-38
0.74169797 -0.080049783 0.07046885 1.5293266e-38
0.74169797 -0.077549785 0.067968845 1.6590875e-38
0.74169797 -0.077549785 0.07046885 1.4551396e-38
0.73919797 -0.07504978 0.065468848 1.7876556e-38
0.74169797 -0.07504978 0.06296885 1.7969828e-38
0.74169797 -0.07504978 0.065468848 1.879814e-38
0.74169797 -0.072549783 0.06296885 1.769326e-38
0.73919797 -0.07504978 0.067968845 1.8888541e-38
0.73919797 -0.07504978 0.07046885 1.2266317e-38
0.73919797 -0.072549783 0.067968845 1.6589758e-38
0.73919797 -0.072549783 0.07046885 1.3833641e-38
0.74169797 -0.07504978 0.067968845 1.7513144e-38
0.74419796 -0.080049783 0.065468848 1.7046092e-38
0.74419796 -0.077549785 0.06296885 1.8615198e-38
0.74419796 -0.077549785 0.065468848 1.6036629e-38
0.74669796 -0.080049783 0.06296885 1.7784008e-38
0.74419796 -0.077549785 0.067968845 1.2445296e-38
0.74419796 -0.077549785 0.07046885 1.4829062e-38
0.74419796 -0.07504978 0.06296885 1.8061674e-38
0.74419796 -0.07504978 0.065468848 1.7513147e-38
0.74419796 -0.07504978 0.067968845 1.2635445e-38
0.74669796 -0.07504978 0.07046885 2.3509886e-38
0.74669796 -0.072549783 0.07046885 2.3509886e-38
0.73919797 -0.080049783 0.072968848 1.4928837e-38
0.73919797 -0.077549785 0.072968848 2.1751351e-38
0.74169797 -0.080049783 0.072968848 1.9909199e-38
0.74169797 -0.080049783 0.075468846 2.0458801e-38
0.74169797 -0.077549785 0.072968848 2.2765862e-38
0.74169797 -0.077549785 0.075468846 2.3508809e-38
0.73919797 -0.07504978 0.072968848 1.5111887e-38
0.73919797 -0.072549783 0.072968848 2.3509886e-38
0.73919797 -0.072549783 0.075468846 2.3509886e-38
0.74169797 -0.07504978 0.072968848 2.3509886e-38
0.74169797 -0.07504978 0.075468846 2.3509886e-38
0.74169797 -0.072549783 0.075468846 2.3509886e-38
0.74169797 -0.07504978 0.077968851 1.9261308e-38
0.74169797 -0.072549783 0.077968851 2.0183263e-38
0.74419796 -0.077549785 0.075468846 2.3509886e-38
0.74419796 -0.07504978 0.075468846 2.3509886e-38
0.74419796 -0.072549783 0.075468846 2.0275093e-38
0.74919796 -0.080049783 0.07046885 2.3509886e-38
0.74919796 -0.077549785 0.07046885 2.3509886e-38
0.74919796 -0.077549785 0.072968848 2.3503962e-38
0.73919797 -0.070049785 0.060468849 1.7693963e-38
0.73919797 -0.070049785 0.075468846 2.3509886e-38
0.73919797 -0.06754978 0.077968851 1.9447873e-38
0.74169797 -0.06754978 0.077968851 1.787909e-38
0.73919797 -0.065049782 0.077968851 1.999889e-38
0.74169797 -0.065049782 0.077968851 1.8063854e-38
0.74169797 -0.062549785 0.077968851 1.8892551e-38
0.73919797 -0.052549783 0.07046885 1.7135376e-38
0.74669796 -0.052549783 0.07046885 1.8794572e-38
0.73919797 -0.060049783 0.075468846 2.3509886e-38
0.73919797 -0.057549782 0.075468846 1.2349835e-38
0.73919797 -0.060049783 0.080468848 1.9353173e-38
0.73919797 -0.057549782 0.080468848 1.3362195e-38
0.73919797 -0.055049781 0.075468846 1.5484487e-38
0.73919797 -0.052549783 0.072968848 1.7321956e-38
0.73919797 -0.052549783 0.075468846 1.7230837e-38
0.74169797 -0.052549783 0.075468846 1.8885689e-38
0.73919797 -0.055049781 0.077968851 1.8427229e-38
0.73919797 -0.055049781 0.080468848 1.6036224e-38
0.73919797 -0.052549783 0.077968851 1.9901656e-38
0.74169797 -0.055049781 0.077968851 1.5943673e-38
0.74669796 -0.052549783 0.072968848 2.2575685e-38
0.74919796 -0.052549783 0.07046885 2.248277e-38
0.73919797 -0.050049782 0.07046885 1.6403931e-38
0.73919797 -0.04754978 0.067968845 1.3178154e-38
0.73919797 -0.04754978 0.07046885 1.7690704e-38
0.74169797 -0.050049782 0.07046885 1.723443e-38
0.74169797 -0.04754978 0.07046885 1.704967e-38
0.73919797 -0.045049783 0.067968845 1.6497197e-38
0.73919797 -0.045049783 0.07046885 1.8520464e-38
0.74169797 -0.045049783 0.07046885 1.7694683e-38
0.74419796 -0.050049782 0.07046885 1.7235158e-38
0.74419796 -0.04754978 0.07046885 1.704967e-38
0.74669796 -0.050049782 0.07046885 1.6772733e-38
0.74669796 -0.04754978 0.07046885 1.6495427e-38
0.73919797 -0.050049782 0.072968848 1.7142604e-38
0.73919797 -0.04754978 0.072968848 1.7324462e-38
0.74169797 -0.050049782 0.072968848 1.6680534e-38
0.74169797 -0.050049782 0.075468846 1.8702357e-38
0.74169797 -0.04754978 0.072968848 1.6771298e-38
0.73919797 -0.045049783 0.072968848 1.8523378e-38
0.74419796 -0.050049782 0.072968848 1.9256244e-38
0.74419796 -0.050049782 0.075468846 2.2668231e-38
0.74669796 -0.050049782 0.072968848 2.2391644e-38
0.74919796 -0.050049782 0.07046885 2.2391644e-38
0.74919796 -0.050049782 0.072968848 1.9625774e-38
0.71669799 -0.015049782 0.060468849 1.6771651e-38
0.71919799 -0.022549782 0.060468849 1.4741562e-38
0.72169799 -0.025049781 0.060468849 1.6215962e-38
0.72169799 -0.022549782 0.060468849 1.5482023e-38
0.72669798 -0.027549781 0.060468849 1.5216598e-38
0.71919799 -0.020049782 0.060468849 1.30943e-38
0.71919799 -0.017549781 0.060468849 1.6044561e-38
0.72169799 -0.020049782 0.060468849 1.6131053e-38
0.72169799 -0.017549781 0.060468849 2.3509863e-38
0.71919799 -0.015049782 0.060468849 2.3509874e-38
0.71919799 -0.012549782 0.060468849 2.3509886e-38
0.72169799 -0.015049782 0.060468849 2.3509886e-38
0.72169799 -0.012549782 0.060468849 2.3509886e-38
0.72919798 -0.030049782 0.060468849 2.3509886e-38
0.71919799 -0.022549782 0.06296885 1.6219929e-38
0.71919799 -0.022549782 0.065468848 2.3509886e-38
0.72169799 -0.025049781 0.06296885 2.3508439e-38
0.72169799 -0.025049781 0.065468848 2.3509886e-38
0.72169799 -0.022549782 0.06296885 1.5021757e-38
0.72169799 -0.022549782 0.065468848 2.3509886e-38
0.72419798 -0.030049782 0.06296885 1.511035e-38
0.72419798 -0.027549781 0.06296885 1.5402428e-38
0.72669798 -0.030049782 0.06296885 1.6036279e-38
0.72669798 -0.027549781 0.06296885 1.8528883e-38
0.72669798 -0.027549781 0.065468848 2.3509886e-38
0.72419798 -0.025049781 0.06296885 2.1662726e-38
0.72419798 -0.025049781 0.065468848 2.3509886e-38
0.72419798 -0.022549782 0.06296885 2.3509886e-38
0.72669798 -0.025049781 0.06296885 2.3509886e-38
0.72669798 -0.025049781 0.065468848 2.3509886e-38
0.71919799 -0.020049782 0.06296885 1.6684224e-38
0.71919799 -0.020049782 0.065468848 2.3509886e-38
0.71919799 -0.017549781 0.065468848 2.3509886e-38
0.72169799 -0.020049782 0.06296885 1.6591676e-38
0.72169799 -0.020049782 0.065468848 2.3509886e-38
0.72169799 -0.017549781 0.06296885 1.9634492e-38
0.72169799 -0.017549781 0.065468848 2.3509886e-38
0.71919799 -0.015049782 0.06296885 2.3509873e-38
0.71919799 -0.012549782 0.06296885 2.3509886e-38
0.72169799 -0.015049782 0.06296885 2.3509886e-38
0.72169799 -0.012549782 0.06296885 2.3509886e-38
0.72419798 -0.020049782 0.06296885 2.3509886e-38
0.72419798 -0.017549781 0.06296885 2.3509886e-38
0.72919798 -0.030049782 0.065468848 2.3509886e-38
0.72919798 -0.027549781 0.065468848 2.3509886e-38
0.73169798 -0.030049782 0.06296885 2.3509886e-38
0.73169798 -0.027549781 0.06296885 2.3509886e-38
0.71919799 -0.010049782 0.060468849 2.3509886e-38
0.72169799 -0.010049782 0.060468849 2.3509886e-38
0.72419798 -0.010049782 0.060468849 2.3509886e-38
0.71919799 -0.010049782 0.06296885 2.3509886e-38
0.72169799 -0.010049782 0.06296885 2.3509886e-38
