# .PCD v0.7 - Point Cloud Data file format
VERSION 0.7
FIELDS x y z rgb
SIZE 4 4 4 4
TYPE F F F F
COUNT 1 1 1 1
WIDTH 321
HEIGHT 1
VIEWPOINT 0 0 0 1 0 0 0
POINTS 321
DATA ascii
0.71709102 -0.02025619 0.06147353 1.21763e-38
0.71959102 -0.022756191 0.06147353 1.4373881e-38
0.71959102 -0.02025619 0.06147353 1.3083142e-38
0.71709102 -0.01775619 0.06147353 1.5587898e-38
0.71709102 -0.015256191 0.06147353 1.5389448e-38
0.71959102 -0.01775619 0.06147353 1.4845657e-38
0.71709102 -0.01275619 0.06147353 1.4281656e-38
0.71709102 -0.010256191 0.06147353 2.3509886e-38
0.71959102 -0.010256191 0.06147353 2.3509886e-38
0.71459103 -0.015256191 0.063973531 2.3509884e-38
0.71959102 -0.022756191 0.063973531 2.3509886e-38
0.71959102 -0.022756191 0.066473529 2.3509886e-38
0.71959102 -0.02025619 0.063973531 1.4833785e-38
0.71959102 -0.02025619 0.066473529 2.3509886e-38
0.71709102 -0.01775619 0.066473529 2.350988e-38
0.71709102 -0.015256191 0.066473529 2.3509886e-38
0.71959102 -0.01775619 0.063973531 2.3509879e-38
0.71959102 -0.01775619 0.066473529 2.3509886e-38
0.71959102 -0.015256191 0.063973531 2.3509881e-38
0.71459103 -0.01275619 0.063973531 2.3509886e-38
0.71709102 -0.01275619 0.066473529 2.3509886e-38
0.71959102 -0.01275619 0.063973531 2.3509886e-38
0.71959102 -0.010256191 0.063973531 2.3509886e-38
0.72709101 -0.065256193 0.06147353 9.7633691e-39
0.72959101 -0.065256193 0.06147353 1.6588689e-38
0.72459102 -0.067756191 0.066473529 1.7231193e-38
0.72459102 -0.065256193 0.063973531 1.5203982e-38
0.72459102 -0.065256193 0.066473529 1.7140051e-38
0.72459102 -0.065256193 0.071473531 1.8521926e-38
0.72709101 -0.067756191 0.066473529 1.6312124e-38
0.72709101 -0.065256193 0.063973531 1.538942e-38
0.72709101 -0.065256193 0.066473529 1.7046783e-38
0.72959101 -0.067756191 0.066473529 1.8429027e-38
0.72959101 -0.065256193 0.063973531 1.824567e-38
0.72959101 -0.065256193 0.066473529 1.8799589e-38
0.72709101 -0.067756191 0.068973534 1.7602136e-38
0.72709101 -0.067756191 0.071473531 1.723119e-38
0.72709101 -0.065256193 0.068973534 1.7324825e-38
0.72709101 -0.065256193 0.071473531 1.4652586e-38
0.72959101 -0.067756191 0.068973534 1.6403597e-38
0.72959101 -0.067756191 0.071473531 1.5575263e-38
0.72959101 -0.065256193 0.068973534 1.741702e-38
0.72959101 -0.065256193 0.071473531 1.382247e-38
0.72959101 -0.065256193 0.073973529 1.419307e-38
0.73959106 -0.080256194 0.068973534 1.5570574e-38
0.73959106 -0.077756189 0.068973534 1.2261996e-38
0.73959106 -0.080256194 0.073973529 2.0737515e-38
0.73959106 -0.077756189 0.073973529 2.1844622e-38
0.73209101 -0.067756191 0.063973531 1.7323386e-38
0.73209101 -0.065256193 0.063973531 1.7877266e-38
0.73209101 -0.067756191 0.071473531 1.3729548e-38
0.73209101 -0.065256193 0.071473531 1.1980375e-38
0.73209101 -0.065256193 0.073973529 2.1569446e-38
0.73209101 -0.065256193 0.076473534 2.3505204e-38
0.73459101 -0.065256193 0.073973529 2.1568012e-38
0.73459101 -0.065256193 0.076473534 2.3509883e-38
0.73459101 -0.065256193 0.078973532 2.350988e-38
0.737091 -0.065256193 0.076473534 2.3509886e-38
0.737091 -0.065256193 0.078973532 1.9261674e-38
0.72459102 -0.060256191 0.06147353 9.588679e-39
0.72459102 -0.057756189 0.06147353 1.2446745e-38
0.72709101 -0.062756188 0.06147353 9.214133e-39
0.72709101 -0.047756191 0.06147353 1.4283093e-38
0.72709101 -0.04525619 0.06147353 1.4373516e-38
0.72459102 -0.062756188 0.063973531 9.1208681e-39
0.72459102 -0.062756188 0.066473529 1.7602513e-38
0.72459102 -0.060256191 0.063973531 1.0872225e-38
0.72459102 -0.060256191 0.066473529 1.7785828e-38
0.72459102 -0.062756188 0.071473531 1.7971623e-38
0.72459102 -0.060256191 0.071473531 1.7787232e-38
0.72209102 -0.055256192 0.066473529 2.0180741e-38
0.72459102 -0.057756189 0.063973531 1.2900946e-38
0.72459102 -0.057756189 0.066473529 1.8338996e-38
0.72459102 -0.055256192 0.063973531 1.6309975e-38
0.72459102 -0.055256192 0.066473529 1.8430476e-38
0.72459102 -0.057756189 0.071473531 1.4561086e-38
0.72459102 -0.055256192 0.068973534 1.7969122e-38
0.72709101 -0.062756188 0.063973531 1.7232654e-38
0.72709101 -0.062756188 0.066473529 1.7600714e-38
0.72709101 -0.060256191 0.063973531 1.7785828e-38
0.72709101 -0.060256191 0.066473529 1.8428679e-38
0.72959101 -0.062756188 0.063973531 1.9352078e-38
0.72709101 -0.062756188 0.068973534 1.6865649e-38
0.72709101 -0.062756188 0.071473531 1.1705961e-38
0.72709101 -0.060256191 0.068973534 1.723119e-38
0.72709101 -0.060256191 0.071473531 1.0415222e-38
0.72959101 -0.062756188 0.068973534 1.8247124e-38
0.72959101 -0.062756188 0.071473531 1.1884601e-38
0.72959101 -0.060256191 0.068973534 1.6681253e-38
0.72959101 -0.060256191 0.071473531 1.234558e-38
0.72709101 -0.057756189 0.068973534 1.492594e-38
0.72709101 -0.057756189 0.071473531 1.2161522e-38
0.72709101 -0.055256192 0.068973534 1.3454056e-38
0.72709101 -0.055256192 0.071473531 1.2624319e-38
0.72959101 -0.057756189 0.071473531 1.5847217e-38
0.72959101 -0.055256192 0.071473531 1.8149626e-38
0.72959101 -0.062756188 0.073973529 1.6134235e-38
0.72959101 -0.060256191 0.073973529 2.3509886e-38
0.72959101 -0.057756189 0.073973529 2.3509886e-38
0.72959101 -0.055256192 0.073973529 2.3509886e-38
0.72209102 -0.05275619 0.066473529 1.6958566e-38
0.72209102 -0.050256189 0.066473529 1.0418441e-38
0.72459102 -0.05275619 0.063973531 1.7415966e-38
0.72459102 -0.05275619 0.066473529 1.8523731e-38
0.72459102 -0.050256189 0.063973531 9.7680494e-39
0.72459102 -0.050256189 0.066473529 9.7712724e-39
0.72459102 -0.05275619 0.068973534 1.6680903e-38
0.72459102 -0.050256189 0.068973534 1.1705583e-38
0.72209102 -0.047756191 0.066473529 1.2262352e-38
0.72459102 -0.047756191 0.063973531 1.2902699e-38
0.72459102 -0.047756191 0.066473529 1.1522989e-38
0.72459102 -0.04525619 0.063973531 1.3361141e-38
0.72459102 -0.04525619 0.066473529 1.4928837e-38
0.72459102 -0.047756191 0.068973534 1.3549494e-38
0.72709101 -0.05275619 0.068973534 1.2162954e-38
0.72709101 -0.05275619 0.071473531 1.7880908e-38
0.72709101 -0.050256189 0.068973534 1.2346632e-38
0.72709101 -0.050256189 0.071473531 1.9258418e-38
0.72959101 -0.05275619 0.071473531 2.3501228e-38
0.72959101 -0.050256189 0.068973534 2.045552e-38
0.72959101 -0.050256189 0.071473531 2.2481634e-38
0.72709101 -0.047756191 0.063973531 1.2445665e-38
0.72709101 -0.047756191 0.066473529 1.4839145e-38
0.72709101 -0.04525619 0.063973531 1.594514e-38
0.72709101 -0.04525619 0.066473529 1.9730218e-38
0.72709101 -0.047756191 0.068973534 1.2531025e-38
0.72709101 -0.047756191 0.071473531 2.1193454e-38
0.72709101 -0.04525619 0.068973534 1.3919758e-38
0.72709101 -0.04525619 0.071473531 2.3509886e-38
0.72959101 -0.047756191 0.068973534 2.1286721e-38
0.72959101 -0.047756191 0.071473531 2.1283091e-38
0.72959101 -0.04525619 0.068973534 2.0733605e-38
0.72959101 -0.04525619 0.071473531 2.3509866e-38
0.73209101 -0.060256191 0.071473531 2.1020604e-38
0.73209101 -0.057756189 0.071473531 2.3509886e-38
0.73209101 -0.055256192 0.071473531 2.3509886e-38
0.73459101 -0.057756189 0.071473531 2.3509886e-38
0.73459101 -0.055256192 0.071473531 2.3509886e-38
0.737091 -0.060256191 0.071473531 2.3509886e-38
0.737091 -0.057756189 0.071473531 2.1099438e-38
0.737091 -0.055256192 0.071473531 2.0731014e-38
0.73209101 -0.062756188 0.073973529 2.0924795e-38
0.73209101 -0.062756188 0.076473534 2.2219134e-38
0.73209101 -0.060256191 0.073973529 2.3509877e-38
0.73459101 -0.062756188 0.073973529 2.0464539e-38
0.73459101 -0.062756188 0.076473534 2.3506972e-38
0.73459101 -0.060256191 0.073973529 2.3509514e-38
0.73459101 -0.060256191 0.076473534 2.350988e-38
0.73459101 -0.062756188 0.078973532 2.3509886e-38
0.73459101 -0.060256191 0.078973532 2.3509886e-38
0.73459101 -0.060256191 0.081473529 2.1843897e-38
0.73209101 -0.057756189 0.073973529 2.3509886e-38
0.73459101 -0.057756189 0.073973529 2.1651205e-38
0.73459101 -0.055256192 0.073973529 1.9258705e-38
0.73459101 -0.057756189 0.078973532 1.3174289e-38
0.737091 -0.062756188 0.076473534 2.3509886e-38
0.737091 -0.060256191 0.073973529 2.3509886e-38
0.737091 -0.060256191 0.076473534 2.3509886e-38
0.73959106 -0.060256191 0.073973529 2.3509886e-38
0.737091 -0.062756188 0.078973532 2.0186174e-38
0.737091 -0.060256191 0.078973532 2.1661304e-38
0.737091 -0.060256191 0.081473529 1.7878772e-38
0.737091 -0.057756189 0.073973529 1.898179e-38
0.737091 -0.057756189 0.076473534 1.1517992e-38
0.737091 -0.055256192 0.073973529 1.7783247e-38
0.737091 -0.055256192 0.076473534 1.5668515e-38
0.73959106 -0.057756189 0.073973529 1.133426e-38
0.73959106 -0.057756189 0.076473534 1.1975336e-38
0.73959106 -0.055256192 0.073973529 1.4284521e-38
0.73959106 -0.055256192 0.076473534 1.5480211e-38
0.737091 -0.057756189 0.078973532 1.335722e-38
0.737091 -0.057756189 0.081473529 1.2718684e-38
0.737091 -0.055256192 0.078973532 1.298806e-38
0.737091 -0.055256192 0.081473529 1.2256223e-38
0.73209101 -0.05275619 0.071473531 2.3509886e-38
0.73209101 -0.050256189 0.068973534 2.3497937e-38
0.73209101 -0.050256189 0.071473531 2.3490742e-38
0.73459101 -0.05275619 0.071473531 2.3509775e-38
0.73459101 -0.050256189 0.071473531 2.1283832e-38
0.73209101 -0.047756191 0.068973534 2.3048885e-38
0.73209101 -0.047756191 0.071473531 1.6298043e-38
0.73209101 -0.04525619 0.068973534 2.3509886e-38
0.73459101 -0.047756191 0.068973534 1.3269311e-38
0.73459101 -0.04525619 0.068973534 1.5574562e-38
0.737091 -0.05275619 0.071473531 2.350975e-38
0.737091 -0.050256189 0.071473531 1.98098e-38
0.73959106 -0.05275619 0.071473531 1.7137174e-38
0.73959106 -0.050256189 0.071473531 1.5112853e-38
0.737091 -0.047756191 0.068973534 1.7956112e-38
0.737091 -0.047756191 0.071473531 1.5015268e-38
0.737091 -0.04525619 0.068973534 1.6956395e-38
0.737091 -0.04525619 0.071473531 1.5481262e-38
0.73959106 -0.047756191 0.068973534 1.6773083e-38
0.73959106 -0.047756191 0.071473531 1.5758222e-38
0.73959106 -0.04525619 0.071473531 1.8429365e-38
0.737091 -0.05275619 0.073973529 1.5754637e-38
0.737091 -0.05275619 0.076473534 1.9162632e-38
0.737091 -0.050256189 0.073973529 1.5668923e-38
0.73959106 -0.05275619 0.073973529 1.6124862e-38
0.73959106 -0.05275619 0.076473534 1.7687872e-38
0.73959106 -0.050256189 0.073973529 1.5574559e-38
0.73959106 -0.050256189 0.076473534 1.8702721e-38
0.737091 -0.05275619 0.078973532 2.0085321e-38
0.737091 -0.047756191 0.073973529 1.5761118e-38
0.73959106 -0.047756191 0.073973529 1.5482364e-38
0.73959106 -0.04525619 0.073973529 1.6957144e-38
0.74459106 -0.077756189 0.06147353 1.8615198e-38
0.74459106 -0.075256191 0.06147353 1.8245339e-38
0.74709105 -0.077756189 0.06147353 1.842938e-38
0.74709105 -0.075256191 0.06147353 1.9165127e-38
0.74459106 -0.082756191 0.063973531 1.8707058e-38
0.74459106 -0.080256194 0.066473529 1.6678755e-38
0.74209106 -0.080256194 0.071473531 1.5293968e-38
0.74459106 -0.082756191 0.068973534 1.5298303e-38
0.74209106 -0.077756189 0.063973531 1.8246418e-38
0.74209106 -0.075256191 0.063973531 1.9074007e-38
0.74459106 -0.077756189 0.063973531 1.7694336e-38
0.74459106 -0.077756189 0.066473529 1.5760415e-38
0.74459106 -0.075256191 0.063973531 1.9165848e-38
0.74459106 -0.075256191 0.066473529 1.2452855e-38
0.74209106 -0.077756189 0.071473531 1.4000039e-38
0.74459106 -0.077756189 0.068973534 1.4922356e-38
0.74459106 -0.077756189 0.071473531 2.2950971e-38
0.74459106 -0.075256191 0.068973534 1.5112941e-38
0.74459106 -0.075256191 0.071473531 2.3509886e-38
0.74709105 -0.082756191 0.066473529 1.7045344e-38
0.74709105 -0.082756191 0.068973534 1.4739715e-38
0.74709105 -0.075256191 0.066473529 1.2819489e-38
0.74709105 -0.075256191 0.068973534 2.3509886e-38
0.74209106 -0.080256194 0.073973529 1.9998173e-38
0.74209106 -0.077756189 0.073973529 2.3509886e-38
0.74709105 -0.077756189 0.073973529 2.3509527e-38
0.74709105 -0.075256191 0.073973529 1.944533e-38
0.74209106 -0.055256192 0.078973532 1.5944394e-38
0.74209106 -0.047756191 0.071473531 1.668089e-38
0.74459106 -0.047756191 0.068973534 1.714261e-38
0.74459106 -0.047756191 0.071473531 1.6495074e-38
0.74709105 -0.05275619 0.071473531 2.2668599e-38
0.74709105 -0.050256189 0.071473531 2.2760426e-38
0.74209106 -0.05275619 0.073973529 1.7595676e-38
0.74209106 -0.05275619 0.076473534 2.0915806e-38
0.74209106 -0.050256189 0.073973529 1.7228317e-38
0.74209106 -0.050256189 0.076473534 2.1008353e-38
0.72459102 -0.040256191 0.06147353 1.2997419e-38
0.72459102 -0.03775619 0.06147353 1.6956418e-38
0.72459102 -0.035256192 0.06147353 1.6125934e-38
0.72709101 -0.042756189 0.06147353 1.4373516e-38
0.72709101 -0.040256191 0.06147353 1.5853685e-38
0.72959101 -0.042756189 0.06147353 1.6308512e-38
0.72959101 -0.040256191 0.06147353 1.4834845e-38
0.72709101 -0.03775619 0.06147353 1.6683774e-38
0.72709101 -0.035256192 0.06147353 1.5388369e-38
0.72959101 -0.03775619 0.06147353 1.5126923e-38
0.72959101 -0.035256192 0.06147353 2.2586485e-38
0.72459102 -0.032756191 0.06147353 1.4098356e-38
0.72459102 -0.030256191 0.06147353 1.3360791e-38
0.72209102 -0.02525619 0.06147353 1.4559328e-38
0.72459102 -0.02775619 0.06147353 1.2729111e-38
0.72459102 -0.02525619 0.06147353 2.1478695e-38
0.72709101 -0.032756191 0.06147353 1.4376369e-38
0.72709101 -0.030256191 0.06147353 1.6496156e-38
0.72959101 -0.032756191 0.06147353 2.3509886e-38
0.72709101 -0.02775619 0.06147353 1.3925863e-38
0.72959101 -0.02775619 0.06147353 2.3509886e-38
0.72959101 -0.02525619 0.06147353 2.3509886e-38
0.72209102 -0.040256191 0.063973531 1.3087092e-38
0.72459102 -0.042756189 0.063973531 1.3269314e-38
0.72459102 -0.042756189 0.066473529 1.5203252e-38
0.72459102 -0.040256191 0.063973531 1.4100527e-38
0.72459102 -0.040256191 0.066473529 1.3913965e-38
0.72459102 -0.03775619 0.063973531 1.5577076e-38
0.72459102 -0.03775619 0.066473529 1.6409085e-38
0.72459102 -0.035256192 0.063973531 1.5021739e-38
0.72709101 -0.042756189 0.063973531 1.6126284e-38
0.72709101 -0.042756189 0.066473529 2.0378103e-38
0.72709101 -0.040256191 0.063973531 1.2069346e-38
0.72709101 -0.040256191 0.066473529 2.3509886e-38
0.72959101 -0.042756189 0.063973531 1.5388719e-38
0.72959101 -0.042756189 0.066473529 2.3048907e-38
0.72959101 -0.040256191 0.063973531 1.4193073e-38
0.72959101 -0.040256191 0.066473529 2.3509886e-38
0.72709101 -0.042756189 0.068973534 2.3509158e-38
0.72709101 -0.040256191 0.068973534 2.3509886e-38
0.72959101 -0.042756189 0.068973534 2.3509886e-38
0.72959101 -0.040256191 0.068973534 2.3509886e-38
0.72709101 -0.03775619 0.063973531 1.0332394e-38
0.72709101 -0.03775619 0.066473529 1.6868265e-38
0.72709101 -0.035256192 0.063973531 2.000536e-38
0.72709101 -0.035256192 0.066473529 2.3509886e-38
0.72959101 -0.03775619 0.063973531 1.7234938e-38
0.72959101 -0.03775619 0.066473529 2.3509886e-38
0.72959101 -0.035256192 0.063973531 2.3048529e-38
0.72959101 -0.035256192 0.066473529 2.3509886e-38
0.72709101 -0.03775619 0.068973534 2.3509886e-38
0.72459102 -0.032756191 0.063973531 1.3637397e-38
0.72459102 -0.030256191 0.063973531 1.4928136e-38
0.72209102 -0.02525619 0.063973531 1.8256883e-38
0.72209102 -0.02525619 0.066473529 2.3509886e-38
0.72459102 -0.02775619 0.063973531 1.7053748e-38
0.72459102 -0.02525619 0.063973531 2.2307377e-38
0.72459102 -0.02525619 0.066473529 2.3509886e-38
0.72709101 -0.032756191 0.063973531 2.2863064e-38
0.72709101 -0.032756191 0.066473529 2.3509886e-38
0.72709101 -0.030256191 0.063973531 2.3509886e-38
0.72959101 -0.032756191 0.063973531 2.3509886e-38
0.72959101 -0.030256191 0.063973531 2.3509886e-38
0.72709101 -0.02775619 0.063973531 2.3509886e-38
0.72709101 -0.02525619 0.063973531 2.3509886e-38
0.72959101 -0.02775619 0.063973531 2.3509886e-38
0.73209101 -0.040256191 0.063973531 1.3825016e-38
0.73209101 -0.03775619 0.063973531 1.9358993e-38
0.73209101 -0.035256192 0.063973531 2.3509886e-38
0.73209101 -0.032756191 0.063973531 2.3509886e-38
0.73209101 -0.030256191 0.063973531 2.3509886e-38
0.73209101 -0.02775619 0.063973531 2.3509886e-38
0.72209102 -0.022756191 0.063973531 2.3509886e-38
0.72209102 -0.022756191 0.066473529 2.3509886e-38
0.72209102 -0.02025619 0.063973531 2.3509886e-38
0.72209102 -0.02025619 0.066473529 2.3509886e-38
0.72209102 -0.01775619 0.063973531 2.3509886e-38
0.72209102 -0.01775619 0.066473529 2.3509886e-38
