# .PCD v0.7 - Point Cloud Data file format
VERSION 0.7
FIELDS x y z rgb
SIZE 4 4 4 4
TYPE F F F F
COUNT 1 1 1 1
WIDTH 296
HEIGHT 1
VIEWPOINT 0 0 0 1 0 0 0
POINTS 296
DATA ascii
0.72537631 -0.064812012 0.062236097 1.4280596e-38
0.72537631 -0.062312014 0.062236097 9.027218e-39
0.72537631 -0.059812013 0.062236097 9.4918087e-39
0.72787631 -0.064812012 0.062236097 1.4004009e-38
0.7303763 -0.064812012 0.062236097 1.5574167e-38
0.72537631 -0.067312017 0.067236096 1.6955697e-38
0.72537631 -0.064812012 0.064736098 1.6399612e-38
0.72537631 -0.064812012 0.067236096 1.769074e-38
0.72287631 -0.062312014 0.064736098 9.3045307e-39
0.72287631 -0.059812013 0.064736098 1.15165e-38
0.72537631 -0.062312014 0.064736098 1.713901e-38
0.72537631 -0.062312014 0.067236096 1.815244e-38
0.72537631 -0.059812013 0.064736098 1.8245717e-38
0.72537631 -0.059812013 0.067236096 1.8429748e-38
0.72537631 -0.059812013 0.069736093 1.5205392e-38
0.72537631 -0.059812013 0.072236098 1.2713607e-38
0.72787631 -0.069812015 0.067236096 1.640036e-38
0.72787631 -0.069812015 0.069736093 1.6493272e-38
0.72787631 -0.069812015 0.072236098 1.6955714e-38
0.7303763 -0.069812015 0.069736093 1.6584038e-38
0.7303763 -0.069812015 0.072236098 1.4184785e-38
0.73287636 -0.069812015 0.072236098 1.409619e-38
0.72787631 -0.067312017 0.064736098 1.6399277e-38
0.72787631 -0.067312017 0.067236096 1.7229405e-38
0.72787631 -0.064812012 0.064736098 1.6954232e-38
0.72787631 -0.064812012 0.067236096 1.7784361e-38
0.72787631 -0.067312017 0.069736093 1.7230837e-38
0.72787631 -0.067312017 0.072236098 1.5203997e-38
0.72787631 -0.064812012 0.069736093 1.7692162e-38
0.72787631 -0.064812012 0.072236098 1.437312e-38
0.7303763 -0.067312017 0.069736093 1.6584038e-38
0.7303763 -0.067312017 0.072236098 1.3541585e-38
0.7303763 -0.064812012 0.069736093 1.5111388e-38
0.7303763 -0.064812012 0.072236098 1.2898721e-38
0.72787631 -0.062312014 0.064736098 1.8060967e-38
0.72787631 -0.062312014 0.067236096 1.8059168e-38
0.72787631 -0.062312014 0.069736093 1.6957114e-38
0.72787631 -0.062312014 0.072236098 1.2712175e-38
0.72787631 -0.059812013 0.069736093 1.6680887e-38
0.72787631 -0.059812013 0.072236098 1.3173513e-38
0.7303763 -0.062312014 0.069736093 1.1518315e-38
0.7303763 -0.062312014 0.072236098 1.6684166e-38
0.7303763 -0.059812013 0.072236098 2.3509886e-38
0.73287636 -0.067312017 0.072236098 1.3358623e-38
0.73287636 -0.064812012 0.072236098 1.5109323e-38
0.73287636 -0.062312014 0.072236098 2.3509879e-38
0.73287636 -0.059812013 0.072236098 2.3509886e-38
0.7303763 -0.064812012 0.074736096 1.5478104e-38
0.7303763 -0.062312014 0.074736096 1.8065286e-38
0.7303763 -0.059812013 0.074736096 2.3509869e-38
0.73287636 -0.064812012 0.074736096 2.202718e-38
0.73287636 -0.064812012 0.077236094 2.3509872e-38
0.73537636 -0.064812012 0.074736096 2.3501951e-38
0.73537636 -0.064812012 0.077236094 2.3509886e-38
0.73537636 -0.064812012 0.079736099 2.350988e-38
0.73287636 -0.062312014 0.074736096 2.0832597e-38
0.73287636 -0.062312014 0.077236094 2.3507325e-38
0.73537636 -0.062312014 0.074736096 2.3509873e-38
0.73537636 -0.062312014 0.077236094 2.3509886e-38
0.73537636 -0.059812013 0.074736096 2.3508431e-38
0.73537636 -0.059812013 0.077236094 2.3508451e-38
0.73537636 -0.062312014 0.079736099 2.2119398e-38
0.73537636 -0.059812013 0.079736099 2.275865e-38
0.74537635 -0.079812013 0.062236097 1.7229761e-38
0.74037635 -0.082312018 0.069736093 1.5937932e-38
0.74037635 -0.079812013 0.069736093 1.4647193e-38
0.74037635 -0.079812013 0.072236098 1.4830847e-38
0.74287635 -0.082312018 0.064736098 1.824286e-38
0.74287635 -0.079812013 0.064736098 1.6030164e-38
0.74537635 -0.082312018 0.067236096 1.4650079e-38
0.74537635 -0.079812013 0.064736098 1.5939022e-38
0.74537635 -0.079812013 0.067236096 1.4831927e-38
0.74537635 -0.082312018 0.069736093 1.390746e-38
0.74037635 -0.082312018 0.074736096 2.0450866e-38
0.74037635 -0.079812013 0.074736096 1.9904516e-38
0.74287635 -0.079812013 0.077236094 2.3509886e-38
0.74787635 -0.079812013 0.064736098 1.5022473e-38
0.74787635 -0.079812013 0.067236096 1.4739365e-38
0.74787635 -0.082312018 0.072236098 1.9715803e-38
0.74537635 -0.077312015 0.062236097 1.7414505e-38
0.74537635 -0.074812017 0.062236097 1.8057705e-38
0.74037635 -0.077312015 0.069736093 1.1892128e-38
0.74037635 -0.077312015 0.072236098 1.3534007e-38
0.74287635 -0.077312015 0.064736098 1.4928855e-38
0.74537635 -0.077312015 0.064736098 1.5022473e-38
0.74537635 -0.077312015 0.067236096 1.1892475e-38
0.74537635 -0.074812017 0.064736098 1.6681238e-38
0.74537635 -0.074812017 0.067236096 1.1801747e-38
0.74537635 -0.074812017 0.069736093 2.3509886e-38
0.74037635 -0.077312015 0.074736096 2.0183305e-38
0.74037635 -0.074812017 0.074736096 2.3509886e-38
0.74287635 -0.077312015 0.077236094 2.3506653e-38
0.74287635 -0.074812017 0.077236094 2.3500885e-38
0.73787636 -0.064812012 0.072236098 2.350988e-38
0.73787636 -0.062312014 0.072236098 2.350949e-38
0.73787636 -0.059812013 0.072236098 2.3507711e-38
0.73787636 -0.064812012 0.074736096 2.3509886e-38
0.73787636 -0.064812012 0.077236094 2.3509844e-38
0.74037635 -0.064812012 0.077236094 2.3325812e-38
0.73787636 -0.064812012 0.079736099 1.9812317e-38
0.73787636 -0.062312014 0.074736096 2.3509886e-38
0.73787636 -0.062312014 0.077236094 2.3509886e-38
0.73787636 -0.059812013 0.074736096 2.3506298e-38
0.73787636 -0.059812013 0.077236094 2.3504146e-38
0.73787636 -0.062312014 0.079736099 2.0920855e-38
0.73787636 -0.062312014 0.082236096 1.8613085e-38
0.73787636 -0.059812013 0.079736099 2.3493692e-38
0.73787636 -0.059812013 0.082236096 1.8338649e-38
0.74787635 -0.077312015 0.064736098 1.5576007e-38
0.74787635 -0.077312015 0.067236096 1.362728e-38
0.74787635 -0.074812017 0.064736098 1.6589042e-38
0.72537631 -0.057312015 0.062236097 1.1431164e-38
0.72537631 -0.054812014 0.062236097 1.5574925e-38
0.72537631 -0.049812015 0.062236097 1.2162267e-38
0.72537631 -0.047312014 0.062236097 1.3544809e-38
0.72537631 -0.044812012 0.062236097 1.3636652e-38
0.72287631 -0.042312015 0.062236097 1.354735e-38
0.72287631 -0.039812014 0.062236097 1.5483458e-38
0.72537631 -0.042312015 0.062236097 1.3085631e-38
0.72537631 -0.039812014 0.062236097 1.5667121e-38
0.72287631 -0.057312015 0.064736098 1.3819659e-38
0.72287631 -0.057312015 0.067236096 1.8428308e-38
0.72287631 -0.054812014 0.064736098 1.7783289e-38
0.72287631 -0.054812014 0.067236096 1.8797089e-38
0.72537631 -0.057312015 0.064736098 1.8521225e-38
0.72537631 -0.057312015 0.067236096 1.8244633e-38
0.72537631 -0.054812014 0.064736098 1.9074033e-38
0.72537631 -0.054812014 0.067236096 1.7876562e-38
0.72537631 -0.057312015 0.069736093 1.3729901e-38
0.72537631 -0.057312015 0.072236098 1.2897639e-38
0.72537631 -0.054812014 0.069736093 1.3176028e-38
0.72537631 -0.054812014 0.072236098 1.7691109e-38
0.72287631 -0.052312013 0.064736098 1.7690743e-38
0.72287631 -0.052312013 0.067236096 1.7323758e-38
0.72287631 -0.049812015 0.064736098 9.5829407e-39
0.72287631 -0.049812015 0.067236096 1.0229727e-38
0.72537631 -0.052312013 0.064736098 1.7325551e-38
0.72537631 -0.052312013 0.067236096 1.7046838e-38
0.72537631 -0.049812015 0.064736098 1.0321922e-38
0.72537631 -0.049812015 0.067236096 1.1150592e-38
0.72537631 -0.052312013 0.069736093 1.3819233e-38
0.72537631 -0.052312013 0.072236098 1.8891803e-38
0.72537631 -0.049812015 0.069736093 1.2530659e-38
0.72287631 -0.047312014 0.064736098 1.3452261e-38
0.72287631 -0.044812012 0.064736098 1.3544456e-38
0.72537631 -0.047312014 0.064736098 1.4007232e-38
0.72537631 -0.047312014 0.067236096 1.4098709e-38
0.72537631 -0.044812012 0.064736098 1.4744797e-38
0.72537631 -0.044812012 0.067236096 1.5298316e-38
0.72287631 -0.042312015 0.064736098 1.3636302e-38
0.72287631 -0.039812014 0.064736098 1.5299067e-38
0.72537631 -0.042312015 0.064736098 1.5570597e-38
0.72537631 -0.042312015 0.067236096 1.4282374e-38
0.72537631 -0.039812014 0.064736098 1.2620708e-38
0.72537631 -0.039812014 0.067236096 1.4007962e-38
0.72787631 -0.057312015 0.069736093 1.3914297e-38
0.72787631 -0.057312015 0.072236098 1.6765575e-38
0.72787631 -0.054812014 0.069736093 1.3540125e-38
0.72787631 -0.054812014 0.072236098 2.1003377e-38
0.7303763 -0.057312015 0.069736093 1.8699563e-38
0.7303763 -0.057312015 0.072236098 2.3509886e-38
0.7303763 -0.054812014 0.069736093 2.0820062e-38
0.7303763 -0.054812014 0.072236098 2.3509886e-38
0.72787631 -0.052312013 0.069736093 1.3450087e-38
0.72787631 -0.052312013 0.072236098 2.3500851e-38
0.72787631 -0.049812015 0.069736093 1.2521361e-38
0.72787631 -0.049812015 0.072236098 2.3032637e-38
0.7303763 -0.052312013 0.069736093 2.3501572e-38
0.7303763 -0.052312013 0.072236098 2.3509886e-38
0.7303763 -0.049812015 0.069736093 2.2940814e-38
0.7303763 -0.049812015 0.072236098 2.3488569e-38
0.73287636 -0.057312015 0.072236098 2.3509886e-38
0.73287636 -0.054812014 0.072236098 2.3509886e-38
0.73537636 -0.054812014 0.069736093 2.3509886e-38
0.73287636 -0.052312013 0.072236098 2.3509782e-38
0.73287636 -0.049812015 0.072236098 2.3489299e-38
0.73537636 -0.052312013 0.069736093 2.3509394e-38
0.73537636 -0.049812015 0.069736093 2.0269324e-38
0.73537636 -0.057312015 0.074736096 2.2111091e-38
0.73537636 -0.057312015 0.077236094 1.2255182e-38
0.73537636 -0.054812014 0.074736096 2.1374936e-38
0.73537636 -0.054812014 0.077236094 1.4468893e-38
0.73537636 -0.057312015 0.079736099 1.390787e-38
0.72787631 -0.044812012 0.064736098 1.4651883e-38
0.72787631 -0.044812012 0.067236096 1.4377837e-38
0.72787631 -0.047312014 0.069736093 1.731913e-38
0.72787631 -0.047312014 0.072236098 2.1665916e-38
0.72787631 -0.044812012 0.069736093 2.0084999e-38
0.72787631 -0.044812012 0.072236098 2.3509859e-38
0.7303763 -0.047312014 0.069736093 2.1666637e-38
0.7303763 -0.044812012 0.069736093 2.3509859e-38
0.72787631 -0.042312015 0.067236096 2.0929477e-38
0.72787631 -0.039812014 0.067236096 2.3509886e-38
0.72787631 -0.042312015 0.069736093 2.3509886e-38
0.7303763 -0.042312015 0.069736093 2.3509886e-38
0.73537636 -0.047312014 0.067236096 2.1758481e-38
0.73537636 -0.044812012 0.067236096 2.3509869e-38
0.73287636 -0.047312014 0.072236098 1.3822117e-38
0.73287636 -0.044812012 0.072236098 1.5942616e-38
0.73537636 -0.047312014 0.069736093 1.3912516e-38
0.73537636 -0.044812012 0.069736093 1.5940821e-38
0.72287631 -0.037312016 0.062236097 1.7323035e-38
0.72537631 -0.037312016 0.062236097 1.7138641e-38
0.72537631 -0.034812015 0.062236097 1.6860612e-38
0.72537631 -0.032312013 0.062236097 1.4741925e-38
0.72537631 -0.029812014 0.062236097 1.3912163e-38
0.71787632 -0.019812014 0.062236097 1.1893589e-38
0.72037631 -0.022312013 0.062236097 1.4557912e-38
0.72037631 -0.019812014 0.062236097 1.1618447e-38
0.72287631 -0.024812015 0.062236097 1.5111053e-38
0.72537631 -0.027312014 0.059736095 1.4568335e-38
0.72537631 -0.027312014 0.062236097 1.4200272e-38
0.72787631 -0.037312016 0.062236097 1.4660547e-38
0.72787631 -0.034812015 0.062236097 1.9913518e-38
0.72787631 -0.032312013 0.062236097 1.5201422e-38
0.72787631 -0.029812014 0.062236097 1.6034929e-38
0.7303763 -0.032312013 0.062236097 2.3509886e-38
0.7303763 -0.029812014 0.062236097 2.3509886e-38
0.72787631 -0.027312014 0.062236097 2.3509886e-38
0.72787631 -0.024812015 0.062236097 2.3509886e-38
0.7303763 -0.027312014 0.062236097 2.3509886e-38
0.7303763 -0.024812015 0.062236097 2.3509886e-38
0.72287631 -0.037312016 0.064736098 1.5850423e-38
0.72537631 -0.037312016 0.064736098 1.14337e-38
0.72537631 -0.037312016 0.067236096 1.5666182e-38
0.72537631 -0.034812015 0.064736098 1.9913886e-38
0.72537631 -0.032312013 0.064736098 2.3509886e-38
0.72537631 -0.029812014 0.064736098 2.3509886e-38
0.72037631 -0.024812015 0.064736098 2.139009e-38
0.71787632 -0.022312013 0.064736098 1.4834136e-38
0.71787632 -0.019812014 0.064736098 1.5481761e-38
0.72037631 -0.022312013 0.064736098 2.3509886e-38
0.72037631 -0.019812014 0.064736098 2.3509886e-38
0.72287631 -0.024812015 0.064736098 2.2767616e-38
0.72287631 -0.022312013 0.064736098 2.3509886e-38
0.72287631 -0.019812014 0.064736098 2.3509886e-38
0.72787631 -0.037312016 0.064736098 1.7326056e-38
0.72787631 -0.037312016 0.067236096 2.3509886e-38
0.72787631 -0.034812015 0.064736098 2.2864501e-38
0.72787631 -0.034812015 0.067236096 2.3509886e-38
0.72787631 -0.032312013 0.064736098 2.3509886e-38
0.72787631 -0.029812014 0.064736098 2.3509886e-38
0.73787636 -0.057312015 0.072236098 2.1467485e-38
0.73787636 -0.054812014 0.072236098 2.1282735e-38
0.73787636 -0.049812015 0.067236096 1.6850135e-38
0.73787636 -0.052312013 0.069736093 1.612195e-38
0.73787636 -0.052312013 0.072236098 1.8887819e-38
0.73787636 -0.049812015 0.069736093 1.5383314e-38
0.73787636 -0.049812015 0.072236098 1.6312124e-38
0.74037635 -0.052312013 0.072236098 1.6491121e-38
0.74037635 -0.049812015 0.069736093 1.5943675e-38
0.74037635 -0.049812015 0.072236098 1.6128096e-38
0.73787636 -0.057312015 0.074736096 1.1426437e-38
0.73787636 -0.057312015 0.077236094 1.2159058e-38
0.73787636 -0.054812014 0.074736096 1.4193384e-38
0.73787636 -0.054812014 0.077236094 1.603231e-38
0.74037635 -0.057312015 0.077236094 1.087043e-38
0.74037635 -0.054812014 0.077236094 1.575607e-38
0.73787636 -0.057312015 0.079736099 1.3448671e-38
0.73787636 -0.057312015 0.082236096 1.363667e-38
0.73787636 -0.054812014 0.079736099 1.7505631e-38
0.74037635 -0.057312015 0.079736099 1.2992336e-38
0.74037635 -0.054812014 0.079736099 1.5388719e-38
0.73787636 -0.052312013 0.074736096 1.5757153e-38
0.73787636 -0.052312013 0.077236094 1.768679e-38
0.73787636 -0.049812015 0.074736096 1.6310676e-38
0.74037635 -0.052312013 0.074736096 1.6033738e-38
0.74037635 -0.052312013 0.077236094 1.7779339e-38
0.74037635 -0.049812015 0.074736096 1.6126287e-38
0.73787636 -0.052312013 0.079736099 1.897826e-38
0.74287635 -0.052312013 0.077236094 2.1467895e-38
0.74287635 -0.049812015 0.074736096 2.1285299e-38
0.74287635 -0.049812015 0.077236094 2.1468243e-38
0.73787636 -0.047312014 0.067236096 1.3822119e-38
0.73787636 -0.047312014 0.069736093 1.3359299e-38
0.73787636 -0.044812012 0.069736093 1.6217722e-38
0.73787636 -0.044812012 0.072236098 1.7689995e-38
0.74037635 -0.047312014 0.069736093 1.6399962e-38
0.74037635 -0.047312014 0.072236098 1.6309578e-38
0.74287635 -0.047312014 0.072236098 1.58479e-38
0.73787636 -0.047312014 0.074736096 1.5757153e-38
0.74037635 -0.047312014 0.074736096 1.5755707e-38
0.71787632 -0.017312014 0.062236097 1.5120436e-38
0.71787632 -0.014812014 0.062236097 1.6491471e-38
0.72037631 -0.017312014 0.062236097 1.4845294e-38
0.72037631 -0.014812014 0.062236097 2.2675789e-38
0.71787632 -0.012312014 0.062236097 1.5200382e-38
0.71787632 -0.0098120142 0.062236097 1.5572144e-38
0.72037631 -0.012312014 0.062236097 2.3509886e-38
0.72037631 -0.0098120142 0.062236097 2.3509886e-38
0.71787632 -0.017312014 0.064736098 2.3507705e-38
0.71787632 -0.014812014 0.064736098 2.3509877e-38
0.72037631 -0.017312014 0.064736098 2.3509886e-38
0.71787632 -0.012312014 0.064736098 2.3509886e-38
0.71787632 -0.0098120142 0.064736098 2.3509886e-38
0.72287631 -0.017312014 0.064736098 2.3509886e-38
