# .PCD v0.7 - Point Cloud Data file format
VERSION 0.7
FIELDS x y z rgb
SIZE 4 4 4 4
TYPE F F F F
COUNT 1 1 1 1
WIDTH 268
HEIGHT 1
VIEWPOINT 0 0 0 1 0 0 0
POINTS 268
DATA ascii
0.72212255 -0.056256212 0.067362837 1.8980404e-38
0.72212255 -0.053756215 0.067362837 1.9164797e-38
0.72462255 -0.063756213 0.062362835 9.2123351e-39
0.72462255 -0.063756213 0.064862832 9.2116148e-39
0.72712255 -0.06625621 0.062362835 1.6124104e-38
0.72712255 -0.06625621 0.064862832 1.6491474e-38
0.72712255 -0.063756213 0.062362835 9.4889276e-39
0.72712255 -0.063756213 0.064862832 1.7600348e-38
0.73212254 -0.068756215 0.062362835 1.5293281e-38
0.72962254 -0.06625621 0.062362835 1.6122694e-38
0.72962254 -0.06625621 0.064862832 1.6398922e-38
0.72962254 -0.063756213 0.064862832 1.8058777e-38
0.73212254 -0.06625621 0.062362835 1.621561e-38
0.73462254 -0.068756215 0.062362835 1.6953531e-38
0.72712255 -0.068756215 0.067362837 1.6494721e-38
0.72712255 -0.068756215 0.069862835 1.6585114e-38
0.72462255 -0.063756213 0.067362837 1.8429027e-38
0.72712255 -0.06625621 0.067362837 1.695425e-38
0.72712255 -0.06625621 0.069862835 1.501777e-38
0.72712255 -0.063756213 0.067362837 1.8059509e-38
0.72712255 -0.063756213 0.069862835 1.3820299e-38
0.72962254 -0.068756215 0.067362837 1.6861331e-38
0.72962254 -0.068756215 0.069862835 1.6860982e-38
0.72962254 -0.06625621 0.067362837 1.7045724e-38
0.72962254 -0.06625621 0.069862835 1.6584035e-38
0.72962254 -0.063756213 0.067362837 1.7600323e-38
0.72962254 -0.063756213 0.069862835 1.3636258e-38
0.72962254 -0.06625621 0.072362833 1.2623576e-38
0.72962254 -0.06625621 0.074862838 1.5017493e-38
0.72962254 -0.063756213 0.072362833 1.3267128e-38
0.72962254 -0.063756213 0.074862838 1.5386635e-38
0.73212254 -0.06625621 0.072362833 1.326463e-38
0.73212254 -0.063756213 0.074862838 2.2211215e-38
0.73462254 -0.06625621 0.074862838 2.3134971e-38
0.73462254 -0.063756213 0.074862838 2.3509886e-38
0.73462254 -0.063756213 0.077362835 2.3509886e-38
0.73462254 -0.063756213 0.079862833 2.350988e-38
0.73712254 -0.063756213 0.077362835 2.3509886e-38
0.73712254 -0.063756213 0.079862833 1.9537894e-38
0.72462255 -0.061256215 0.062362835 1.1425036e-38
0.72462255 -0.061256215 0.064862832 1.1422512e-38
0.72462255 -0.058756214 0.062362835 1.2713678e-38
0.72462255 -0.058756214 0.064862832 1.2437819e-38
0.72712255 -0.061256215 0.064862832 1.8429748e-38
0.72712255 -0.058756214 0.064862832 1.8428674e-38
0.72462255 -0.056256212 0.062362835 1.4468934e-38
0.72462255 -0.056256212 0.064862832 1.6583669e-38
0.72462255 -0.053756215 0.064862832 1.7966604e-38
0.72462255 -0.051256213 0.064862832 1.234195e-38
0.72462255 -0.048756212 0.062362835 1.2164416e-38
0.72462255 -0.048756212 0.064862832 1.1979671e-38
0.72462255 -0.046256214 0.062362835 1.3636652e-38
0.72462255 -0.046256214 0.064862832 1.4376019e-38
0.72462255 -0.043756213 0.062362835 1.3635948e-38
0.72462255 -0.043756213 0.064862832 1.3635948e-38
0.72712255 -0.046256214 0.062362835 1.3636652e-38
0.72712255 -0.046256214 0.064862832 1.4929193e-38
0.72712255 -0.043756213 0.062362835 1.3451557e-38
0.72712255 -0.043756213 0.064862832 1.6123766e-38
0.72962254 -0.046256214 0.064862832 1.4288155e-38
0.72962254 -0.043756213 0.064862832 1.437494e-38
0.72462255 -0.061256215 0.067362837 1.8521947e-38
0.72462255 -0.058756214 0.067362837 1.8797804e-38
0.72462255 -0.058756214 0.069862835 1.538763e-38
0.72712255 -0.061256215 0.067362837 1.861162e-38
0.72712255 -0.061256215 0.069862835 1.6863849e-38
0.72712255 -0.058756214 0.067362837 1.7229745e-38
0.72712255 -0.058756214 0.069862835 1.4836975e-38
0.72712255 -0.058756214 0.072362833 1.2988763e-38
0.72462255 -0.056256212 0.067362837 1.8429011e-38
0.72462255 -0.056256212 0.069862835 1.3637358e-38
0.72462255 -0.053756215 0.067362837 1.824462e-38
0.72462255 -0.053756215 0.069862835 1.3451889e-38
0.72712255 -0.056256212 0.067362837 1.3729921e-38
0.72712255 -0.056256212 0.069862835 1.2990914e-38
0.72712255 -0.053756215 0.067362837 1.3176747e-38
0.72712255 -0.053756215 0.069862835 1.2898718e-38
0.72712255 -0.056256212 0.072362833 1.3357917e-38
0.72712255 -0.053756215 0.072362833 1.7783307e-38
0.72962254 -0.061256215 0.067362837 1.6956751e-38
0.72962254 -0.061256215 0.069862835 1.1149891e-38
0.72962254 -0.061256215 0.072362833 1.3264274e-38
0.72962254 -0.058756214 0.072362833 1.4000772e-38
0.73212254 -0.061256215 0.072362833 2.1662376e-38
0.73212254 -0.058756214 0.072362833 2.3509886e-38
0.72962254 -0.056256212 0.069862835 1.8791052e-38
0.72962254 -0.053756215 0.069862835 2.35005e-38
0.73212254 -0.053756215 0.069862835 2.3509886e-38
0.72962254 -0.056256212 0.072362833 1.860916e-38
0.72962254 -0.053756215 0.072362833 2.0453072e-38
0.73212254 -0.056256212 0.072362833 2.3509886e-38
0.73212254 -0.053756215 0.072362833 2.3509886e-38
0.72462255 -0.051256213 0.067362837 1.3266781e-38
0.72462255 -0.051256213 0.069862835 1.2622127e-38
0.72462255 -0.048756212 0.067362837 1.2349876e-38
0.72712255 -0.051256213 0.067362837 1.2255867e-38
0.72712255 -0.051256213 0.069862835 1.2068232e-38
0.72712255 -0.048756212 0.067362837 1.2624648e-38
0.72712255 -0.048756212 0.069862835 1.4089766e-38
0.72462255 -0.046256214 0.067362837 1.3823917e-38
0.72462255 -0.043756213 0.067362837 1.4282009e-38
0.72712255 -0.046256214 0.067362837 1.1246422e-38
0.72712255 -0.046256214 0.069862835 1.6766676e-38
0.72712255 -0.043756213 0.067362837 1.7702267e-38
0.72712255 -0.043756213 0.069862835 2.3509879e-38
0.72962254 -0.051256213 0.069862835 2.3501221e-38
0.72962254 -0.048756212 0.069862835 2.1652259e-38
0.73212254 -0.051256213 0.069862835 2.3509886e-38
0.73212254 -0.048756212 0.069862835 1.7217826e-38
0.72962254 -0.051256213 0.072362833 2.3501922e-38
0.73212254 -0.051256213 0.072362833 2.3509886e-38
0.72962254 -0.046256214 0.067362837 1.9900254e-38
0.72962254 -0.046256214 0.069862835 2.3048907e-38
0.72962254 -0.043756213 0.067362837 2.1662708e-38
0.72962254 -0.043756213 0.069862835 2.3509886e-38
0.73212254 -0.046256214 0.069862835 1.3637724e-38
0.73212254 -0.043756213 0.067362837 2.3509886e-38
0.73462254 -0.061256215 0.074862838 2.3509876e-38
0.73462254 -0.058756214 0.072362833 2.3509886e-38
0.73462254 -0.058756214 0.074862838 2.3507712e-38
0.73712254 -0.061256215 0.072362833 2.3509846e-38
0.73712254 -0.058756214 0.072362833 2.3508079e-38
0.73712254 -0.056256212 0.069862835 2.3509886e-38
0.73712254 -0.053756215 0.069862835 2.3509765e-38
0.73462254 -0.056256212 0.072362833 2.3509886e-38
0.73462254 -0.056256212 0.074862838 2.1558601e-38
0.73462254 -0.053756215 0.072362833 2.3509886e-38
0.73462254 -0.053756215 0.074862838 2.1557529e-38
0.73712254 -0.056256212 0.072362833 2.1374933e-38
0.73712254 -0.053756215 0.072362833 1.8795979e-38
0.73962253 -0.058756214 0.074862838 2.3507374e-38
0.73962253 -0.056256212 0.074862838 1.1243143e-38
0.73962253 -0.053756215 0.072362833 1.6123416e-38
0.73962253 -0.053756215 0.074862838 1.6215613e-38
0.74212259 -0.053756215 0.074862838 1.7872256e-38
0.73462254 -0.061256215 0.079862833 2.2027916e-38
0.73462254 -0.058756214 0.079862833 2.2943038e-38
0.73712254 -0.061256215 0.077362835 2.3509886e-38
0.73712254 -0.061256215 0.079862833 2.2029363e-38
0.73712254 -0.058756214 0.077362835 2.3507016e-38
0.73712254 -0.058756214 0.079862833 2.2943394e-38
0.73712254 -0.061256215 0.082362831 1.8613438e-38
0.73712254 -0.058756214 0.082362831 1.824645e-38
0.73712254 -0.056256212 0.077362835 1.0409452e-38
0.73712254 -0.056256212 0.079862833 1.3356475e-38
0.73712254 -0.053756215 0.077362835 1.6032664e-38
0.73712254 -0.053756215 0.079862833 1.759855e-38
0.73962253 -0.061256215 0.077362835 1.8520541e-38
0.73962253 -0.056256212 0.077362835 1.7505278e-38
0.73962253 -0.053756215 0.077362835 1.9162642e-38
0.74212259 -0.053756215 0.077362835 1.8978976e-38
0.73462254 -0.048756212 0.067362837 2.183446e-38
0.73462254 -0.048756212 0.069862835 1.7125655e-38
0.73712254 -0.051256213 0.069862835 2.3509741e-38
0.73712254 -0.048756212 0.067362837 1.7034513e-38
0.73712254 -0.048756212 0.069862835 1.5474063e-38
0.73462254 -0.051256213 0.072362833 2.3509743e-38
0.73712254 -0.051256213 0.072362833 1.612195e-38
0.73712254 -0.048756212 0.072362833 1.6310695e-38
0.73462254 -0.046256214 0.067362837 2.1574442e-38
0.73462254 -0.046256214 0.069862835 1.345369e-38
0.73462254 -0.043756213 0.067362837 2.3509853e-38
0.73462254 -0.043756213 0.069862835 1.7051115e-38
0.73712254 -0.046256214 0.069862835 1.2805058e-38
0.73712254 -0.043756213 0.069862835 1.649689e-38
0.73462254 -0.046256214 0.072362833 1.6217013e-38
0.73712254 -0.046256214 0.072362833 1.7689995e-38
0.73962253 -0.051256213 0.069862835 1.6214502e-38
0.73962253 -0.048756212 0.069862835 1.612447e-38
0.73962253 -0.051256213 0.072362833 1.6307808e-38
0.73962253 -0.051256213 0.074862838 1.6491477e-38
0.73962253 -0.048756212 0.072362833 1.6219929e-38
0.73962253 -0.048756212 0.074862838 1.6123413e-38
0.74212259 -0.051256213 0.074862838 1.7964089e-38
0.74212259 -0.048756212 0.072362833 1.6496158e-38
0.73962253 -0.046256214 0.069862835 1.6398893e-38
0.73962253 -0.046256214 0.072362833 1.6308878e-38
0.73962253 -0.046256214 0.074862838 1.5572038e-38
0.74212259 -0.046256214 0.072362833 1.6401424e-38
0.74212259 -0.051256213 0.077362835 2.1008353e-38
0.72212255 -0.041256212 0.062362835 1.336259e-38
0.72212255 -0.038756214 0.062362835 1.5667121e-38
0.71962255 -0.023756213 0.062362835 1.4189122e-38
0.71962255 -0.023756213 0.064862832 2.3509886e-38
0.72212255 -0.026256213 0.062362835 1.8808256e-38
0.72212255 -0.023756213 0.062362835 1.4835545e-38
0.72212255 -0.023756213 0.064862832 2.1389734e-38
0.71962255 -0.023756213 0.067362837 2.3509886e-38
0.71712255 -0.021256214 0.062362835 1.3636302e-38
0.71712255 -0.018756213 0.062362835 1.1984706e-38
0.71712255 -0.016256213 0.062362835 1.6215243e-38
0.71712255 -0.013756214 0.062362835 1.4831958e-38
0.71962255 -0.021256214 0.062362835 1.4368844e-38
0.71962255 -0.021256214 0.064862832 1.4834842e-38
0.71962255 -0.018756213 0.062362835 1.2352415e-38
0.71962255 -0.018756213 0.064862832 1.5481052e-38
0.72212255 -0.021256214 0.064862832 2.3509886e-38
0.72212255 -0.018756213 0.062362835 1.8155434e-38
0.72212255 -0.018756213 0.064862832 2.3509886e-38
0.71962255 -0.016256213 0.062362835 2.0371256e-38
0.71962255 -0.016256213 0.064862832 2.3507339e-38
0.71962255 -0.013756214 0.062362835 2.3509168e-38
0.71962255 -0.013756214 0.064862832 2.3509886e-38
0.72212255 -0.016256213 0.062362835 2.3507337e-38
0.72212255 -0.016256213 0.064862832 2.3509886e-38
0.71712255 -0.011256213 0.062362835 2.3509886e-38
0.71962255 -0.011256213 0.062362835 2.3509886e-38
0.71962255 -0.011256213 0.064862832 2.3509886e-38
0.71962255 -0.0087562138 0.062362835 2.3509886e-38
0.71962255 -0.0087562138 0.064862832 2.3509886e-38
0.71712255 -0.021256214 0.067362837 2.3509886e-38
0.71712255 -0.018756213 0.067362837 2.3509886e-38
0.71962255 -0.021256214 0.067362837 2.3509886e-38
0.71962255 -0.018756213 0.067362837 2.3509886e-38
0.72462255 -0.041256212 0.062362835 1.44686e-38
0.72462255 -0.041256212 0.064862832 1.4282764e-38
0.72462255 -0.038756214 0.062362835 1.7138641e-38
0.72462255 -0.038756214 0.064862832 1.5573503e-38
0.72712255 -0.041256212 0.062362835 1.4651893e-38
0.72712255 -0.041256212 0.064862832 1.4096911e-38
0.72712255 -0.038756214 0.062362835 1.0973797e-38
0.72712255 -0.038756214 0.064862832 1.2806172e-38
0.72462255 -0.036256213 0.062362835 1.7414505e-38
0.72462255 -0.033756215 0.062362835 1.547875e-38
0.72712255 -0.036256213 0.062362835 1.5666025e-38
0.72712255 -0.036256213 0.064862832 1.4200288e-38
0.72712255 -0.033756215 0.062362835 1.5476246e-38
0.72712255 -0.033756215 0.064862832 2.3413354e-38
0.72962254 -0.041256212 0.064862832 1.2810113e-38
0.72962254 -0.038756214 0.064862832 1.5666535e-38
0.72962254 -0.036256213 0.064862832 1.7417174e-38
0.72962254 -0.033756215 0.064862832 2.3509886e-38
0.72462255 -0.031256214 0.062362835 1.4740853e-38
0.72462255 -0.028756214 0.062362835 1.2079067e-38
0.72712255 -0.031256214 0.062362835 2.3509886e-38
0.72712255 -0.031256214 0.064862832 2.3509886e-38
0.72712255 -0.028756214 0.062362835 1.6035301e-38
0.72712255 -0.028756214 0.064862832 2.3509886e-38
0.72712255 -0.026256213 0.059862833 1.4477232e-38
0.72462255 -0.026256213 0.062362835 1.410988e-38
0.72462255 -0.026256213 0.064862832 2.2583594e-38
0.72712255 -0.026256213 0.062362835 1.7418235e-38
0.72712255 -0.026256213 0.064862832 2.3509886e-38
0.72962254 -0.031256214 0.064862832 2.3509886e-38
0.72962254 -0.028756214 0.064862832 2.3509886e-38
0.73212254 -0.031256214 0.062362835 2.3509886e-38
0.73212254 -0.028756214 0.062362835 2.3509886e-38
0.72962254 -0.026256213 0.062362835 2.3509886e-38
0.73212254 -0.026256213 0.062362835 2.3509886e-38
0.72462255 -0.041256212 0.067362837 1.3176397e-38
0.72462255 -0.038756214 0.067362837 1.4282743e-38
0.72712255 -0.041256212 0.067362837 2.3509886e-38
0.72712255 -0.041256212 0.069862835 2.3509886e-38
0.72712255 -0.038756214 0.067362837 2.3509886e-38
0.72962254 -0.041256212 0.067362837 2.3509886e-38
0.74462259 -0.081256211 0.064862832 1.5938669e-38
0.74462259 -0.078756213 0.064862832 1.4836657e-38
0.74712259 -0.081256211 0.064862832 1.4923054e-38
0.74712259 -0.078756213 0.064862832 1.1983239e-38
0.74462259 -0.076256216 0.062362835 1.7321953e-38
0.74462259 -0.076256216 0.064862832 1.5574222e-38
0.74712259 -0.076256216 0.062362835 1.704609e-38
0.74712259 -0.076256216 0.064862832 1.6958173e-38
0.74712259 -0.081256211 0.067362837 1.4739011e-38
0.74712259 -0.081256211 0.069862835 1.9904877e-38
0.74712259 -0.078756213 0.067362837 1.36262e-38
0.74462259 -0.051256213 0.074862838 2.1376063e-38
0.74712259 -0.051256213 0.072362833 1.7964436e-38
