# .PCD v0.7 - Point Cloud Data file format
VERSION 0.7
FIELDS x y z rgb
SIZE 4 4 4 4
TYPE F F F F
COUNT 1 1 1 1
WIDTH 441
HEIGHT 1
VIEWPOINT 0 0 0 1 0 0 0
POINTS 441
DATA ascii
0.6388728 -0.025181813 0.101634 1.2071864e-38
0.6413728 -0.025181813 0.101634 1.244063e-38
0.6413728 -0.025181813 0.10413399 1.3451186e-38
0.6388728 -0.022681814 0.101634 1.1334299e-38
0.6388728 -0.020181812 0.101634 1.3270012e-38
0.6413728 -0.022681814 0.101634 1.3639173e-38
0.6413728 -0.020181812 0.101634 1.3728106e-38
0.6413728 -0.022681814 0.10413399 1.4096555e-38
0.6413728 -0.0076818131 0.106634 1.4004693e-38
0.6413728 -0.0051818131 0.106634 1.3635911e-38
0.6413728 -0.0051818131 0.109134 2.1380735e-38
0.6413728 -0.0051818131 0.11163399 2.3502326e-38
0.6413728 -0.0051818131 0.114134 2.3509886e-38
0.66137278 -0.045181815 0.096634001 1.7324827e-38
0.67887276 -0.080181815 0.096634001 1.1703046e-38
0.68137282 -0.080181815 0.096634001 1.4466037e-38
0.68137282 -0.080181815 0.099133998 2.0376686e-38
0.67887276 -0.07768181 0.096634001 1.3727387e-38
0.67887276 -0.075181812 0.096634001 1.2072567e-38
0.68137282 -0.07768181 0.096634001 1.3178901e-38
0.67887276 -0.07768181 0.099133998 2.3509886e-38
0.67887276 -0.075181812 0.099133998 2.3509886e-38
0.68137282 -0.07768181 0.099133998 2.3509886e-38
0.68137282 -0.075181812 0.099133998 2.3509886e-38
0.67637277 -0.072681814 0.096634001 1.4373476e-38
0.67637277 -0.070181809 0.096634001 1.5571296e-38
0.67637277 -0.072681814 0.101634 2.3509886e-38
0.67637277 -0.070181809 0.101634 2.3509886e-38
0.67387277 -0.065181814 0.096634001 1.5202185e-38
0.67637277 -0.067681812 0.096634001 1.5292538e-38
0.67637277 -0.065181814 0.096634001 1.3267497e-38
0.67637277 -0.067681812 0.101634 2.3509886e-38
0.67637277 -0.065181814 0.099133998 2.0285206e-38
0.67637277 -0.065181814 0.101634 2.3509886e-38
0.67887276 -0.072681814 0.096634001 1.4189457e-38
0.67887276 -0.070181809 0.096634001 1.4652952e-38
0.67887276 -0.072681814 0.099133998 1.7330242e-38
0.67887276 -0.072681814 0.101634 2.3509886e-38
0.67887276 -0.070181809 0.099133998 1.9541138e-38
0.67887276 -0.070181809 0.101634 2.3509886e-38
0.68137282 -0.072681814 0.099133998 2.3509886e-38
0.67887276 -0.067681812 0.096634001 1.779086e-38
0.67887276 -0.067681812 0.099133998 2.1569815e-38
0.67887276 -0.067681812 0.101634 2.3509876e-38
0.67887276 -0.065181814 0.099133998 2.3509886e-38
0.67887276 -0.065181814 0.101634 2.3509866e-38
0.66637278 -0.055181812 0.096634001 1.7784711e-38
0.66887277 -0.060181811 0.096634001 1.7419527e-38
0.67137277 -0.062681817 0.096634001 1.6404341e-38
0.67137277 -0.060181811 0.096634001 1.742062e-38
0.67137277 -0.060181811 0.099133998 1.3635558e-38
0.67137277 -0.060181811 0.101634 2.3509886e-38
0.66887277 -0.057681814 0.096634001 1.787909e-38
0.66887277 -0.055181812 0.096634001 1.8153494e-38
0.67137277 -0.057681814 0.096634001 1.6958919e-38
0.66887277 -0.055181812 0.099133998 1.7416966e-38
0.66887277 -0.055181812 0.101634 1.8159296e-38
0.67137277 -0.057681814 0.099133998 1.3912144e-38
0.67137277 -0.057681814 0.101634 2.3509886e-38
0.67137277 -0.055181812 0.099133998 1.4649712e-38
0.67137277 -0.055181812 0.101634 2.3509886e-38
0.66387278 -0.050181814 0.096634001 1.6495442e-38
0.66637278 -0.052681811 0.096634001 1.5850073e-38
0.66637278 -0.050181814 0.096634001 1.6310692e-38
0.66637278 -0.052681811 0.099133998 1.5662394e-38
0.66637278 -0.052681811 0.101634 1.9265624e-38
0.66637278 -0.050181814 0.099133998 1.5202536e-38
0.66637278 -0.050181814 0.101634 2.0377399e-38
0.66387278 -0.047681812 0.096634001 1.6495442e-38
0.66387278 -0.045181815 0.096634001 1.7601767e-38
0.66637278 -0.047681812 0.096634001 1.6402888e-38
0.66637278 -0.045181815 0.096634001 1.6958213e-38
0.66387278 -0.047681812 0.101634 1.2807614e-38
0.66387278 -0.045181815 0.099133998 1.7511721e-38
0.66387278 -0.045181815 0.101634 1.3915777e-38
0.66637278 -0.047681812 0.099133998 1.4741559e-38
0.66637278 -0.047681812 0.101634 2.0469954e-38
0.66637278 -0.045181815 0.099133998 1.2990561e-38
0.66637278 -0.045181815 0.101634 2.3509886e-38
0.66887277 -0.052681811 0.096634001 1.7411985e-38
0.66887277 -0.052681811 0.099133998 1.5847144e-38
0.66887277 -0.052681811 0.101634 2.0924089e-38
0.66887277 -0.050181814 0.099133998 1.3911797e-38
0.66887277 -0.050181814 0.101634 2.3509886e-38
0.67137277 -0.052681811 0.099133998 1.7419917e-38
0.67137277 -0.052681811 0.101634 2.3509886e-38
0.67137277 -0.050181814 0.101634 2.3509886e-38
0.66887277 -0.047681812 0.099133998 1.345082e-38
0.66887277 -0.047681812 0.101634 2.3509886e-38
0.66887277 -0.045181815 0.099133998 2.3509886e-38
0.66887277 -0.045181815 0.101634 2.3509886e-38
0.67137277 -0.047681812 0.101634 2.3509886e-38
0.67387277 -0.062681817 0.096634001 1.2898716e-38
0.67387277 -0.060181811 0.096634001 1.4008678e-38
0.67637277 -0.062681817 0.096634001 2.0655068e-38
0.67637277 -0.060181811 0.096634001 2.3509886e-38
0.67387277 -0.062681817 0.099133998 1.2534981e-38
0.67387277 -0.062681817 0.101634 2.3509886e-38
0.67387277 -0.060181811 0.099133998 1.4101946e-38
0.67387277 -0.060181811 0.101634 2.3509886e-38
0.67637277 -0.062681817 0.099133998 2.1207165e-38
0.67637277 -0.060181811 0.099133998 2.3509886e-38
0.67637277 -0.060181811 0.101634 2.3505558e-38
0.67387277 -0.057681814 0.099133998 1.6130247e-38
0.67387277 -0.057681814 0.101634 2.3509886e-38
0.67387277 -0.055181812 0.099133998 2.3509886e-38
0.67387277 -0.055181812 0.101634 2.3509886e-38
0.67637277 -0.057681814 0.099133998 2.3509886e-38
0.67637277 -0.055181812 0.099133998 2.3509886e-38
0.67887276 -0.062681817 0.099133998 2.3509886e-38
0.67887276 -0.060181811 0.099133998 2.3509886e-38
0.67887276 -0.057681814 0.099133998 2.3509886e-38
0.67887276 -0.055181812 0.099133998 2.3509886e-38
0.67387277 -0.052681811 0.101634 2.3509886e-38
0.66637278 -0.050181814 0.10413399 2.3509886e-38
0.66637278 -0.047681812 0.10413399 2.3509886e-38
0.66637278 -0.045181815 0.10413399 2.3509886e-38
0.66887277 -0.052681811 0.10413399 2.3509886e-38
0.66887277 -0.050181814 0.10413399 2.3509886e-38
0.66887277 -0.047681812 0.10413399 2.3509886e-38
0.66887277 -0.045181815 0.10413399 2.294626e-38
0.65137279 -0.037681814 0.096634001 1.4374937e-38
0.65137279 -0.035181813 0.096634001 1.4560038e-38
0.65137279 -0.035181813 0.099133998 1.3730997e-38
0.65137279 -0.035181813 0.101634 1.3913949e-38
0.6438728 -0.030181812 0.101634 1.6770584e-38
0.6463728 -0.030181812 0.099133998 1.6125584e-38
0.6463728 -0.030181812 0.101634 1.686461e-38
0.6463728 -0.027681813 0.096634001 1.9442049e-38
0.6463728 -0.025181813 0.096634001 1.2256586e-38
0.6438728 -0.027681813 0.101634 1.9444258e-38
0.6438728 -0.025181813 0.099133998 1.3452576e-38
0.6438728 -0.025181813 0.101634 1.5569129e-38
0.6463728 -0.027681813 0.099133998 1.9352072e-38
0.6463728 -0.027681813 0.101634 1.9169861e-38
0.6463728 -0.025181813 0.099133998 1.4277645e-38
0.6463728 -0.025181813 0.101634 1.760067e-38
0.64887279 -0.032681812 0.096634001 1.465153e-38
0.64887279 -0.030181812 0.096634001 8.0102648e-39
0.65137279 -0.032681812 0.096634001 1.3821766e-38
0.65137279 -0.030181812 0.096634001 1.3181066e-38
0.64887279 -0.030181812 0.099133998 1.465153e-38
0.64887279 -0.030181812 0.101634 1.4282737e-38
0.65137279 -0.032681812 0.099133998 1.3913959e-38
0.65137279 -0.032681812 0.101634 1.3731003e-38
0.65137279 -0.030181812 0.099133998 1.3271111e-38
0.65137279 -0.030181812 0.101634 1.4283818e-38
0.64887279 -0.027681813 0.096634001 1.0867969e-38
0.65137279 -0.025181813 0.096634001 1.46468e-38
0.64887279 -0.027681813 0.099133998 1.9351722e-38
0.64887279 -0.027681813 0.101634 1.7601078e-38
0.64887279 -0.025181813 0.099133998 1.5015956e-38
0.64887279 -0.025181813 0.101634 1.760032e-38
0.65137279 -0.027681813 0.101634 1.3729918e-38
0.65637279 -0.040181812 0.096634001 1.501994e-38
0.65387279 -0.037681814 0.094133995 1.6128082e-38
0.65387279 -0.037681814 0.096634001 1.4374587e-38
0.65387279 -0.035181813 0.094133995 1.5206852e-38
0.65387279 -0.035181813 0.096634001 1.4191978e-38
0.65637279 -0.037681814 0.094133995 1.4836271e-38
0.65637279 -0.037681814 0.096634001 1.5112152e-38
0.65637279 -0.035181813 0.094133995 1.3916113e-38
0.65637279 -0.035181813 0.096634001 1.3915387e-38
0.65387279 -0.037681814 0.099133998 1.5112855e-38
0.65387279 -0.037681814 0.101634 1.4096921e-38
0.65387279 -0.035181813 0.099133998 1.3913962e-38
0.65387279 -0.035181813 0.101634 1.3822119e-38
0.65637279 -0.037681814 0.099133998 1.5112505e-38
0.65637279 -0.037681814 0.101634 1.5572041e-38
0.65637279 -0.035181813 0.099133998 1.4098334e-38
0.65637279 -0.035181813 0.101634 1.3730274e-38
0.65887278 -0.042681813 0.096634001 1.6033367e-38
0.65887278 -0.040181812 0.094133995 1.4743723e-38
0.65887278 -0.040181812 0.096634001 1.5204332e-38
0.66137278 -0.042681813 0.094133995 1.6126287e-38
0.66137278 -0.042681813 0.096634001 1.6126637e-38
0.66137278 -0.040181812 0.094133995 1.5389798e-38
0.65887278 -0.040181812 0.099133998 1.6124114e-38
0.65887278 -0.040181812 0.101634 1.7232944e-38
0.66137278 -0.042681813 0.099133998 1.778616e-38
0.66137278 -0.042681813 0.101634 1.2535325e-38
0.66137278 -0.040181812 0.099133998 1.8244966e-38
0.66137278 -0.040181812 0.101634 1.4284527e-38
0.65887278 -0.037681814 0.099133998 1.5204701e-38
0.65887278 -0.037681814 0.101634 1.5112137e-38
0.66137278 -0.037681814 0.101634 1.5019549e-38
0.65387279 -0.032681812 0.094133995 1.4467136e-38
0.65387279 -0.032681812 0.101634 1.3546256e-38
0.65387279 -0.030181812 0.101634 1.3638454e-38
0.6463728 -0.030181812 0.10413399 1.7048263e-38
0.6463728 -0.027681813 0.10413399 1.7601078e-38
0.6463728 -0.025181813 0.10413399 1.7599967e-38
0.6463728 -0.025181813 0.106634 1.1424292e-38
0.64887279 -0.030181812 0.10413399 1.428274e-38
0.65137279 -0.032681812 0.10413399 1.3731003e-38
0.65137279 -0.030181812 0.10413399 1.3915034e-38
0.65137279 -0.030181812 0.106634 1.3362943e-38
0.64887279 -0.027681813 0.10413399 1.4006513e-38
0.64887279 -0.027681813 0.106634 1.1883828e-38
0.64887279 -0.025181813 0.10413399 1.133243e-38
0.64887279 -0.025181813 0.106634 1.0227915e-38
0.65137279 -0.027681813 0.10413399 1.3087035e-38
0.65137279 -0.027681813 0.106634 1.4750915e-38
0.65137279 -0.025181813 0.10413399 1.0594511e-38
0.65137279 -0.025181813 0.106634 1.7604328e-38
0.65387279 -0.035181813 0.10413399 1.382247e-38
0.65637279 -0.037681814 0.10413399 1.3637005e-38
0.65637279 -0.035181813 0.10413399 1.3638074e-38
0.65637279 -0.035181813 0.106634 1.2071106e-38
0.66137278 -0.042681813 0.10413399 1.6496887e-38
0.66137278 -0.040181812 0.10413399 1.7968421e-38
0.65887278 -0.037681814 0.10413399 1.5020939e-38
0.65887278 -0.037681814 0.106634 1.1049741e-38
0.65887278 -0.035181813 0.10413399 1.2163301e-38
0.65887278 -0.035181813 0.106634 8.2035768e-39
0.66137278 -0.037681814 0.10413399 1.8056609e-38
0.66137278 -0.037681814 0.106634 2.3495647e-38
0.66137278 -0.035181813 0.106634 2.1573759e-38
0.65887278 -0.035181813 0.109134 2.3509886e-38
0.66137278 -0.035181813 0.109134 2.3509886e-38
0.65387279 -0.032681812 0.10413399 1.3546253e-38
0.65387279 -0.032681812 0.106634 1.3453337e-38
0.65387279 -0.030181812 0.10413399 1.3638448e-38
0.65387279 -0.030181812 0.106634 1.2991999e-38
0.65637279 -0.032681812 0.10413399 1.3639157e-38
0.65637279 -0.032681812 0.106634 1.0224284e-38
0.65637279 -0.030181812 0.10413399 1.3360043e-38
0.65637279 -0.030181812 0.106634 9.2112211e-39
0.65637279 -0.030181812 0.109134 9.3019677e-39
0.65387279 -0.027681813 0.10413399 1.4566521e-38
0.65387279 -0.027681813 0.106634 1.8707391e-38
0.65387279 -0.025181813 0.106634 2.183847e-38
0.65637279 -0.027681813 0.10413399 1.8891495e-38
0.65637279 -0.027681813 0.106634 2.313173e-38
0.65387279 -0.027681813 0.109134 2.3498345e-38
0.65387279 -0.025181813 0.109134 2.2113259e-38
0.65637279 -0.027681813 0.109134 2.1843492e-38
0.65637279 -0.025181813 0.109134 2.1471075e-38
0.65887278 -0.032681812 0.106634 2.3509527e-38
0.65887278 -0.030181812 0.106634 2.3509886e-38
0.66137278 -0.032681812 0.106634 2.3509886e-38
0.66137278 -0.030181812 0.106634 2.3509886e-38
0.65887278 -0.032681812 0.109134 2.3509886e-38
0.65887278 -0.030181812 0.109134 2.3509886e-38
0.65887278 -0.030181812 0.11163399 2.3509886e-38
0.66137278 -0.032681812 0.109134 2.3509886e-38
0.66137278 -0.030181812 0.109134 2.3509886e-38
0.66137278 -0.030181812 0.11163399 2.3509886e-38
0.65887278 -0.027681813 0.106634 2.3509886e-38
0.65887278 -0.025181813 0.106634 2.3509886e-38
0.65887278 -0.027681813 0.109134 2.3509886e-38
0.65887278 -0.027681813 0.11163399 2.3509886e-38
0.65887278 -0.025181813 0.109134 2.3509886e-38
0.65887278 -0.025181813 0.11163399 2.3509886e-38
0.66137278 -0.027681813 0.109134 2.3509886e-38
0.66137278 -0.027681813 0.11163399 2.3509886e-38
0.66137278 -0.025181813 0.11163399 1.7329146e-38
0.65887278 -0.030181812 0.114134 1.6130588e-38
0.65887278 -0.027681813 0.114134 1.5208271e-38
0.65887278 -0.025181813 0.114134 1.7329522e-38
0.66137278 -0.027681813 0.114134 1.7048257e-38
0.6463728 -0.022681814 0.096634001 1.1426866e-38
0.6463728 -0.020181812 0.096634001 1.4373123e-38
0.6463728 -0.022681814 0.099133998 1.3821395e-38
0.6463728 -0.022681814 0.101634 1.6123766e-38
0.6463728 -0.020181812 0.099133998 1.3267844e-38
0.6463728 -0.020181812 0.101634 1.5301212e-38
0.6438728 -0.015181813 0.101634 1.5942616e-38
0.6463728 -0.017681813 0.101634 1.7603219e-38
0.6463728 -0.015181813 0.099133998 1.6125212e-38
0.6463728 -0.015181813 0.101634 1.8245692e-38
0.64887279 -0.022681814 0.096634001 1.1519768e-38
0.64887279 -0.020181812 0.096634001 1.1057677e-38
0.65137279 -0.020181812 0.096634001 1.3638071e-38
0.64887279 -0.022681814 0.099133998 1.4005049e-38
0.64887279 -0.022681814 0.101634 1.6957104e-38
0.64887279 -0.020181812 0.099133998 1.6312493e-38
0.64887279 -0.020181812 0.101634 1.6589084e-38
0.65137279 -0.020181812 0.101634 1.3174226e-38
0.64887279 -0.017681813 0.096634001 1.3267892e-38
0.64887279 -0.015181813 0.096634001 1.5389448e-38
0.65137279 -0.017681813 0.096634001 1.3084577e-38
0.65137279 -0.015181813 0.096634001 1.4561833e-38
0.64887279 -0.017681813 0.099133998 1.7603216e-38
0.64887279 -0.017681813 0.101634 1.7329847e-38
0.64887279 -0.015181813 0.099133998 1.5297247e-38
0.64887279 -0.015181813 0.101634 1.8061266e-38
0.65137279 -0.017681813 0.101634 1.2808671e-38
0.6438728 -0.012681813 0.101634 1.7230461e-38
0.6438728 -0.010181813 0.101634 1.6401429e-38
0.6463728 -0.012681813 0.099133998 1.7046799e-38
0.6463728 -0.012681813 0.101634 1.7597436e-38
0.6463728 -0.010181813 0.099133998 1.658582e-38
0.6463728 -0.010181813 0.101634 1.7320489e-38
0.6438728 -0.0076818131 0.101634 1.7323386e-38
0.6438728 -0.0051818131 0.101634 1.7784732e-38
0.6463728 -0.0076818131 0.099133998 1.7600317e-38
0.64887279 -0.012681813 0.096634001 1.723154e-38
0.65137279 -0.012681813 0.096634001 1.6402888e-38
0.64887279 -0.012681813 0.099133998 1.6954953e-38
0.64887279 -0.012681813 0.101634 1.6306315e-38
0.64887279 -0.010181813 0.101634 1.5660987e-38
0.64887279 -0.0076818131 0.101634 1.4005762e-38
0.65387279 -0.017681813 0.094133995 1.3360791e-38
0.6463728 -0.022681814 0.10413399 1.7048596e-38
0.6438728 -0.015181813 0.10413399 1.8336086e-38
0.6463728 -0.017681813 0.10413399 1.7603917e-38
0.6463728 -0.015181813 0.10413399 1.7508824e-38
0.6463728 -0.015181813 0.106634 1.336003e-38
0.64887279 -0.022681814 0.10413399 1.1330629e-38
0.64887279 -0.022681814 0.106634 1.0412308e-38
0.64887279 -0.020181812 0.10413399 1.1332481e-38
0.64887279 -0.020181812 0.106634 1.1238124e-38
0.65137279 -0.022681814 0.10413399 1.0778922e-38
0.65137279 -0.022681814 0.106634 1.9263829e-38
0.65137279 -0.020181812 0.10413399 1.1513985e-38
0.65137279 -0.020181812 0.106634 2.2212663e-38
0.64887279 -0.017681813 0.10413399 1.161587e-38
0.64887279 -0.017681813 0.106634 1.2807242e-38
0.64887279 -0.015181813 0.10413399 1.3913923e-38
0.64887279 -0.015181813 0.106634 1.2620073e-38
0.65137279 -0.017681813 0.10413399 1.2348769e-38
0.65137279 -0.017681813 0.106634 2.1665973e-38
0.65137279 -0.015181813 0.10413399 1.2532179e-38
0.65137279 -0.015181813 0.106634 2.3509886e-38
0.65137279 -0.017681813 0.109134 2.3509886e-38
0.65137279 -0.015181813 0.109134 2.3509886e-38
0.6438728 -0.012681813 0.10413399 1.7412336e-38
0.6438728 -0.012681813 0.106634 1.5661675e-38
0.6438728 -0.010181813 0.10413399 1.7134657e-38
0.6438728 -0.010181813 0.106634 1.3637661e-38
0.6463728 -0.012681813 0.10413399 1.6214849e-38
0.6463728 -0.012681813 0.106634 1.9264122e-38
0.6463728 -0.010181813 0.10413399 1.584499e-38
0.6463728 -0.010181813 0.106634 1.7607197e-38
0.6438728 -0.010181813 0.109134 1.2346982e-38
0.6438728 -0.010181813 0.11163399 2.3509886e-38
0.6463728 -0.012681813 0.109134 1.8618402e-38
0.6463728 -0.012681813 0.11163399 2.3509886e-38
0.6463728 -0.010181813 0.109134 1.6685238e-38
0.6463728 -0.010181813 0.11163399 2.3509886e-38
0.6438728 -0.0076818131 0.10413399 1.6950265e-38
0.6438728 -0.0076818131 0.106634 1.3730217e-38
0.6438728 -0.0051818131 0.10413399 1.4373107e-38
0.6438728 -0.0051818131 0.106634 1.5104907e-38
0.6463728 -0.0076818131 0.10413399 1.4281258e-38
0.6463728 -0.0076818131 0.106634 1.825292e-38
0.6463728 -0.0051818131 0.10413399 1.5289654e-38
0.6463728 -0.0051818131 0.106634 2.1009413e-38
0.6438728 -0.0076818131 0.109134 1.6035168e-38
0.6438728 -0.0076818131 0.11163399 2.3509886e-38
0.6438728 -0.0051818131 0.109134 2.1103425e-38
0.6463728 -0.0076818131 0.109134 1.8252564e-38
0.6463728 -0.0051818131 0.109134 2.304026e-38
0.64887279 -0.012681813 0.10413399 1.7037324e-38
0.64887279 -0.012681813 0.106634 2.120023e-38
0.64887279 -0.010181813 0.10413399 1.4734625e-38
0.64887279 -0.010181813 0.106634 2.3509886e-38
0.65137279 -0.012681813 0.10413399 2.1107684e-38
0.65137279 -0.012681813 0.106634 2.3509886e-38
0.65137279 -0.010181813 0.10413399 1.9264125e-38
0.65137279 -0.010181813 0.106634 2.3509886e-38
0.64887279 -0.012681813 0.109134 2.3509886e-38
0.64887279 -0.010181813 0.109134 2.3509886e-38
0.65137279 -0.012681813 0.109134 2.3509886e-38
0.65137279 -0.010181813 0.109134 2.3509886e-38
0.64887279 -0.0076818131 0.10413399 1.6682705e-38
0.65387279 -0.022681814 0.10413399 1.8252554e-38
0.65387279 -0.022681814 0.106634 2.3509168e-38
0.65387279 -0.020181812 0.10413399 1.953899e-38
0.65387279 -0.020181812 0.106634 1.9541858e-38
0.65637279 -0.020181812 0.106634 2.3509886e-38
0.65387279 -0.020181812 0.109134 2.3509886e-38
0.65637279 -0.022681814 0.109134 2.3509886e-38
0.65637279 -0.020181812 0.109134 2.3509886e-38
0.65387279 -0.017681813 0.10413399 2.1020604e-38
0.65387279 -0.017681813 0.106634 2.3509886e-38
0.65387279 -0.015181813 0.106634 2.3509886e-38
0.65387279 -0.017681813 0.109134 2.3509886e-38
0.65387279 -0.015181813 0.109134 2.3509886e-38
0.65637279 -0.017681813 0.109134 2.3509886e-38
0.65637279 -0.015181813 0.109134 2.3509886e-38
0.65887278 -0.022681814 0.106634 2.3509886e-38
0.65887278 -0.020181812 0.106634 2.3508797e-38
0.66137278 -0.020181812 0.106634 2.349938e-38
0.65887278 -0.022681814 0.109134 1.5199564e-38
0.65887278 -0.022681814 0.11163399 1.639162e-38
0.65887278 -0.020181812 0.109134 2.2946189e-38
0.66137278 -0.022681814 0.109134 1.4835841e-38
0.66137278 -0.022681814 0.11163399 1.5570549e-38
0.66137278 -0.020181812 0.109134 1.3177784e-38
0.65887278 -0.017681813 0.106634 1.4655843e-38
0.66137278 -0.017681813 0.106634 1.2346263e-38
0.65887278 -0.017681813 0.109134 1.2438809e-38
0.65387279 -0.012681813 0.109134 2.3509886e-38
0.66387278 -0.042681813 0.099133998 1.7141849e-38
0.66387278 -0.042681813 0.101634 1.5577429e-38
0.66387278 -0.040181812 0.101634 1.7875152e-38
0.66387278 -0.042681813 0.10413399 2.3509886e-38
0.66387278 -0.040181812 0.10413399 2.3509886e-38
0.66637278 -0.042681813 0.10413399 2.3509886e-38
0.66637278 -0.040181812 0.10413399 2.3509886e-38
0.66387278 -0.037681814 0.10413399 2.3509092e-38
0.66387278 -0.037681814 0.106634 2.3509886e-38
0.66387278 -0.035181813 0.106634 2.3509886e-38
0.66637278 -0.037681814 0.10413399 1.9637669e-38
0.66637278 -0.037681814 0.106634 2.3509886e-38
0.66637278 -0.035181813 0.106634 2.3509886e-38
0.66387278 -0.035181813 0.109134 2.3509886e-38
0.66637278 -0.035181813 0.109134 2.1193789e-38
0.66887277 -0.042681813 0.10413399 2.2117225e-38
0.66887277 -0.035181813 0.106634 2.3501569e-38
0.66387278 -0.032681812 0.106634 2.3509886e-38
0.66387278 -0.030181812 0.106634 2.3509886e-38
0.66637278 -0.032681812 0.106634 2.3509886e-38
0.66637278 -0.030181812 0.106634 2.3509886e-38
0.66387278 -0.032681812 0.109134 2.3509886e-38
0.66387278 -0.030181812 0.109134 1.7506703e-38
0.66387278 -0.030181812 0.11163399 1.7506701e-38
0.66637278 -0.032681812 0.109134 1.9534653e-38
0.66637278 -0.030181812 0.109134 1.8243914e-38
0.66387278 -0.027681813 0.11163399 1.5667812e-38
0.66387278 -0.025181813 0.11163399 1.6866723e-38
0.6413728 -0.002681813 0.106634 7.0083574e-39
0.6413728 -0.002681813 0.109134 9.6588701e-39
0.6413728 -0.002681813 0.11163399 1.5660948e-38
0.6463728 -0.002681813 0.101634 4.165319e-39
0.6463728 -0.00018181294 0.101634 4.3389553e-39
0.65637279 -0.002681813 0.096634001 1.0946361e-38
0.6438728 -0.002681813 0.10413399 5.3617239e-39
0.6438728 -0.002681813 0.106634 8.3894884e-39
0.6438728 -0.00018181294 0.10413399 1.466811e-38
0.6438728 -0.00018181294 0.106634 8.5872214e-39
0.6463728 -0.002681813 0.10413399 7.6537241e-39
0.6463728 -0.002681813 0.106634 1.1412354e-38
0.6463728 -0.00018181294 0.10413399 9.1382148e-39
0.6438728 -0.002681813 0.109134 1.0121994e-38
0.6438728 -0.00018181294 0.109134 8.211836e-39
0.6463728 -0.002681813 0.109134 1.7505857e-38
0.64887279 -0.00018181294 0.10413399 8.9493996e-39
0.68387282 -0.07768181 0.099133998 2.3509886e-38
