# .PCD v0.7 - Point Cloud Data file format
VERSION 0.7
FIELDS x y z rgb
SIZE 4 4 4 4
TYPE F F F F
COUNT 1 1 1 1
WIDTH 482
HEIGHT 1
VIEWPOINT 0 0 0 1 0 0 0
POINTS 482
DATA ascii
0.17217334 0.073042028 1.1047502 1.4457017e-38
0.17217334 0.075542025 1.1047502 1.427409e-38
0.17717333 0.065542027 1.0997502 2.1562609e-38
0.17967333 0.065542027 1.0997502 1.9990929e-38
0.17967333 0.06304203 1.1072501 1.980798e-38
0.17967333 0.065542027 1.1047502 2.0268566e-38
0.17967333 0.065542027 1.1072501 2.0176014e-38
0.18217334 0.06304203 1.1072501 1.8701272e-38
0.18217334 0.065542027 1.1047502 1.6949523e-38
0.18217334 0.065542027 1.1072501 1.7226113e-38
0.17967333 0.065542027 1.1122501 2.0450456e-38
0.18217334 0.06304203 1.1122501 1.9256229e-38
0.18217334 0.065542027 1.1122501 1.7408e-38
0.17717333 0.068042025 1.0997502 2.0268957e-38
0.17717333 0.07054203 1.0997502 1.9528537e-38
0.17717333 0.073042028 1.0972501 1.5568441e-38
0.17717333 0.075542025 1.0972501 1.4095836e-38
0.17717333 0.073042028 1.0997502 1.5561955e-38
0.17717333 0.075542025 1.0997502 1.4278056e-38
0.17967333 0.068042025 1.0997502 1.769e-38
0.17967333 0.07054203 1.0997502 1.566783e-38
0.18217334 0.07054203 1.0997502 1.1150259e-38
0.17967333 0.073042028 1.0972501 1.5845388e-38
0.17967333 0.075542025 1.0972501 1.3911444e-38
0.18217334 0.073042028 1.0972501 1.529258e-38
0.18217334 0.075542025 1.0972501 1.2253011e-38
0.17967333 0.073042028 1.0997502 1.4462447e-38
0.17967333 0.075542025 1.0997502 1.344974e-38
0.18217334 0.073042028 1.0997502 1.3728497e-38
0.18217334 0.075542025 1.0997502 1.1883856e-38
0.17467333 0.068042025 1.1072501 2.2851841e-38
0.17467333 0.07054203 1.1047502 1.9712566e-38
0.17467333 0.07054203 1.1072501 1.989768e-38
0.17717333 0.068042025 1.1047502 2.017639e-38
0.17717333 0.068042025 1.1072501 1.9808333e-38
0.17717333 0.07054203 1.1047502 1.9160478e-38
0.17717333 0.07054203 1.1072501 2.0173904e-38
0.17467333 0.07054203 1.1122501 1.9992011e-38
0.17717333 0.068042025 1.1122501 2.3034453e-38
0.17717333 0.07054203 1.1122501 1.971365e-38
0.17467333 0.073042028 1.1047502 1.4825825e-38
0.17467333 0.073042028 1.1072501 1.4916585e-38
0.17467333 0.075542025 1.1047502 1.436916e-38
0.17467333 0.075542025 1.1072501 1.4367732e-38
0.17717333 0.073042028 1.1047502 1.5654506e-38
0.17717333 0.075542025 1.1047502 1.4737595e-38
0.17967333 0.068042025 1.1047502 1.9441349e-38
0.17967333 0.068042025 1.1072501 2.1834835e-38
0.17967333 0.07054203 1.1047502 1.5944417e-38
0.18217334 0.068042025 1.1047502 1.5196123e-38
0.18217334 0.068042025 1.1072501 2.1005074e-38
0.18217334 0.07054203 1.1047502 1.1702361e-38
0.17967333 0.073042028 1.1047502 1.4647914e-38
0.18217334 0.073042028 1.1047502 1.3821047e-38
0.18217334 0.075542025 1.1047502 1.4649362e-38
0.18717334 0.060542028 1.1122501 1.9623236e-38
0.18467334 0.06304203 1.1072501 1.962072e-38
0.18467334 0.065542027 1.1072501 1.9713635e-38
0.18717334 0.06304203 1.1072501 2.04512e-38
0.18717334 0.065542027 1.1072501 1.9437768e-38
0.18467334 0.06304203 1.1122501 1.9158313e-38
0.18467334 0.065542027 1.1122501 1.9527073e-38
0.18717334 0.06304203 1.1122501 1.9898746e-38
0.18717334 0.065542027 1.1122501 1.9713632e-38
0.18967333 0.060542028 1.1122501 2.0637386e-38
0.19217333 0.060542028 1.1122501 2.109553e-38
0.18967333 0.065542027 1.1072501 1.8610524e-38
0.19217333 0.065542027 1.1072501 1.8516206e-38
0.18967333 0.06304203 1.1122501 1.9806551e-38
0.18967333 0.065542027 1.1122501 1.8884953e-38
0.19217333 0.06304203 1.1122501 2.0724935e-38
0.19217333 0.065542027 1.1122501 1.740806e-38
0.18467334 0.073042028 1.0997502 1.4281671e-38
0.18467334 0.075542025 1.0997502 1.1699825e-38
0.18717334 0.073042028 1.0997502 1.4096906e-38
0.18717334 0.075542025 1.0997502 1.0683896e-38
0.18967333 0.075542025 1.0997502 1.1327818e-38
0.18467334 0.068042025 1.1047502 1.399758e-38
0.18467334 0.068042025 1.1072501 1.9807996e-38
0.18467334 0.07054203 1.1047502 1.2255535e-38
0.18717334 0.068042025 1.1047502 1.464504e-38
0.18717334 0.068042025 1.1072501 1.9438137e-38
0.18717334 0.07054203 1.1047502 1.3636286e-38
0.18467334 0.073042028 1.1047502 1.4282024e-38
0.18467334 0.075542025 1.1047502 1.4464971e-38
0.18717334 0.073042028 1.1047502 1.4649359e-38
0.18717334 0.075542025 1.1047502 1.4280223e-38
0.18967333 0.068042025 1.1047502 1.464504e-38
0.18967333 0.068042025 1.1072501 1.8792767e-38
0.18967333 0.07054203 1.1047502 1.4189104e-38
0.19217333 0.068042025 1.1072501 1.4923425e-38
0.19217333 0.07054203 1.1072501 1.4557885e-38
0.18967333 0.073042028 1.1047502 1.3819964e-38
0.18967333 0.075542025 1.1047502 1.2622507e-38
0.19217333 0.073042028 1.1047502 1.3174242e-38
0.19217333 0.073042028 1.1072501 1.3451542e-38
0.19217333 0.075542025 1.1047502 1.2897289e-38
0.19217333 0.075542025 1.1072501 1.2161169e-38
0.17717333 0.07804203 1.0972501 1.2529566e-38
0.17717333 0.080542028 1.0972501 1.1328519e-38
0.17717333 0.07804203 1.0997502 1.20704e-38
0.17967333 0.07804203 1.0972501 1.1884206e-38
0.17967333 0.080542028 1.0972501 1.1145206e-38
0.18217334 0.07804203 1.0972501 1.1423221e-38
0.18217334 0.080542028 1.0972501 1.1974594e-38
0.17967333 0.07804203 1.0997502 1.2714327e-38
0.18217334 0.07804203 1.0997502 1.1513629e-38
0.18467334 0.07804203 1.0972501 1.1330319e-38
0.18467334 0.080542028 1.0972501 1.3726684e-38
0.18467334 0.07804203 1.0997502 1.1330667e-38
0.18717334 0.07804203 1.0997502 1.0225058e-38
0.19467333 0.060542028 1.1122501 2.3493696e-38
0.19717334 0.060542028 1.1122501 2.2666085e-38
0.19467333 0.06304203 1.1122501 2.1559735e-38
0.19467333 0.065542027 1.1122501 1.7131473e-38
0.19717334 0.06304203 1.1122501 2.2668246e-38
0.19717334 0.065542027 1.1122501 1.3631965e-38
0.20217334 0.058042027 1.1072501 1.2623561e-38
0.20217334 0.060542028 1.1072501 1.1422162e-38
0.19967334 0.060542028 1.1122501 2.0364432e-38
0.20217334 0.060542028 1.1122501 1.575465e-38
0.19967334 0.065542027 1.1072501 1.4647549e-38
0.20217334 0.06304203 1.1072501 1.1884196e-38
0.20217334 0.065542027 1.1072501 1.4373125e-38
0.19967334 0.06304203 1.1122501 2.0455533e-38
0.19967334 0.065542027 1.1122501 1.4185845e-38
0.20217334 0.06304203 1.1122501 1.5200382e-38
0.20217334 0.065542027 1.1122501 1.4831214e-38
0.19467333 0.068042025 1.1072501 1.446569e-38
0.19467333 0.07054203 1.1072501 1.5200735e-38
0.19717334 0.068042025 1.1072501 1.42813e-38
0.19717334 0.07054203 1.1072501 1.4924507e-38
0.19467333 0.068042025 1.1122501 1.3729203e-38
0.19717334 0.068042025 1.1122501 1.4464955e-38
0.19467333 0.073042028 1.1072501 1.308168e-38
0.19467333 0.075542025 1.1072501 1.1884562e-38
0.19717334 0.073042028 1.1072501 1.2620702e-38
0.19717334 0.075542025 1.1072501 1.1239193e-38
0.19967334 0.068042025 1.1072501 1.4372401e-38
0.19967334 0.07054203 1.1072501 1.3544091e-38
0.20217334 0.068042025 1.1072501 1.4372051e-38
0.20217334 0.07054203 1.1072501 1.3820317e-38
0.19967334 0.073042028 1.1072501 1.1881718e-38
0.19967334 0.075542025 1.1072501 1.0961904e-38
0.20217334 0.073042028 1.1072501 1.1789522e-38
0.20217334 0.075542025 1.1072501 1.0685316e-38
0.20467333 0.058042027 1.1072501 1.4096906e-38
0.20467333 0.060542028 1.1072501 1.1606194e-38
0.20717333 0.060542028 1.1072501 1.1973535e-38
0.20467333 0.060542028 1.1122501 1.1237768e-38
0.20717333 0.058042027 1.1122501 1.501527e-38
0.20717333 0.060542028 1.1122501 1.1883841e-38
0.20467333 0.06304203 1.1072501 1.1883478e-38
0.20467333 0.065542027 1.1072501 1.4927728e-38
0.20717333 0.06304203 1.1072501 1.2344115e-38
0.20717333 0.065542027 1.1072501 1.5017438e-38
0.20467333 0.06304203 1.1122501 1.1790923e-38
0.20467333 0.065542027 1.1122501 1.4282359e-38
0.20717333 0.06304203 1.1122501 1.2250834e-38
0.20717333 0.065542027 1.1122501 1.5107833e-38
0.20967333 0.060542028 1.1072501 1.206573e-38
0.20967333 0.058042027 1.1122501 1.4554294e-38
0.20967333 0.060542028 1.1122501 1.1976036e-38
0.21217333 0.060542028 1.1122501 1.3634488e-38
0.20967333 0.06304203 1.1072501 1.4830157e-38
0.20967333 0.065542027 1.1072501 1.474011e-38
0.20967333 0.06304203 1.1122501 1.317351e-38
0.20967333 0.065542027 1.1122501 1.5107833e-38
0.21217333 0.06304203 1.1122501 1.4830511e-38
0.21217333 0.065542027 1.1122501 1.5108169e-38
0.20467333 0.068042025 1.1072501 1.3635207e-38
0.20467333 0.07054203 1.1072501 1.2989485e-38
0.20717333 0.068042025 1.1072501 1.308168e-38
0.20717333 0.07054203 1.1072501 1.2713974e-38
0.20467333 0.068042025 1.1122501 1.4095462e-38
0.20467333 0.07054203 1.1122501 1.3451542e-38
0.20717333 0.068042025 1.1122501 1.3174935e-38
0.20717333 0.07054203 1.1122501 1.216332e-38
0.20467333 0.073042028 1.1072501 1.0499146e-38
0.20467333 0.075542025 1.1072501 1.0131776e-38
0.20717333 0.073042028 1.1072501 1.0866098e-38
0.20717333 0.075542025 1.1072501 1.0865745e-38
0.20967333 0.068042025 1.1072501 1.3633779e-38
0.20967333 0.07054203 1.1072501 1.2345191e-38
0.20967333 0.068042025 1.1122501 1.289799e-38
0.20967333 0.07054203 1.1122501 1.197857e-38
0.21217333 0.068042025 1.1122501 1.2621777e-38
0.21217333 0.07054203 1.1122501 1.170125e-38
0.20967333 0.073042028 1.1072501 1.1789495e-38
0.20967333 0.075542025 1.1072501 1.2341231e-38
0.18717334 0.06304203 1.1147501 2.0356856e-38
0.18967333 0.060542028 1.1147501 2.0821062e-38
0.19217333 0.060542028 1.1147501 2.146574e-38
0.18967333 0.06304203 1.1147501 2.0729582e-38
0.19217333 0.06304203 1.1147501 2.073034e-38
0.19217333 0.06304203 1.1197501 2.1100202e-38
0.19467333 0.060542028 1.1147501 2.2295502e-38
0.19717334 0.060542028 1.1147501 2.2481687e-38
0.19467333 0.06304203 1.1147501 2.3122022e-38
0.19467333 0.065542027 1.1147501 1.823853e-38
0.19717334 0.06304203 1.1147501 2.220546e-38
0.19717334 0.065542027 1.1147501 1.5840715e-38
0.19467333 0.06304203 1.1197501 2.3218553e-38
0.19467333 0.06304203 1.1222501 2.2482783e-38
0.19717334 0.06304203 1.1197501 2.1195266e-38
0.19717334 0.06304203 1.1222501 2.2301261e-38
0.19967334 0.060542028 1.1147501 2.0364785e-38
0.19967334 0.06304203 1.1147501 2.0455533e-38
0.19967334 0.065542027 1.1147501 1.4088999e-38
0.19967334 0.06304203 1.1197501 2.1560091e-38
0.20217334 0.06304203 1.1222501 2.1286392e-38
0.20717333 0.060542028 1.1147501 1.2066084e-38
0.20717333 0.06304203 1.1147501 1.3170616e-38
0.20967333 0.058042027 1.1147501 1.4554296e-38
0.20967333 0.060542028 1.1147501 1.2434865e-38
0.21217333 0.058042027 1.1147501 1.381708e-38
0.21217333 0.060542028 1.1147501 1.3727753e-38
0.20967333 0.058042027 1.1197501 1.4463167e-38
0.20967333 0.060542028 1.1197501 1.3358623e-38
0.21217333 0.058042027 1.1197501 1.2896586e-38
0.21217333 0.060542028 1.1197501 1.188349e-38
0.21217333 0.06304203 1.1147501 1.5015974e-38
0.21217333 0.065542027 1.1147501 1.4924854e-38
0.20967333 0.06304203 1.1197501 1.3450093e-38
0.21217333 0.06304203 1.1197501 1.3635202e-38
0.20967333 0.068042025 1.1147501 1.5110706e-38
0.21217333 0.068042025 1.1147501 1.4924504e-38
0.21217333 0.07054203 1.1147501 1.179309e-38
0.22217333 0.055542026 1.1247501 1.4926322e-38
0.22467333 0.055542026 1.1222501 1.4278406e-38
0.22717333 0.055542026 1.1222501 1.2437017e-38
0.22967334 0.055542026 1.1222501 1.2065721e-38
0.23217334 0.055542026 1.1222501 1.1883487e-38
0.22467333 0.055542026 1.1247501 1.4741572e-38
0.22717333 0.055542026 1.1247501 1.2618539e-38
0.22717333 0.055542026 1.1297501 1.3914668e-38
0.22967334 0.055542026 1.1247501 1.1881692e-38
0.23217334 0.055542026 1.1247501 1.1973888e-38
0.22967334 0.055542026 1.1297501 1.1606183e-38
0.23217334 0.055542026 1.1297501 1.1881692e-38
0.23217334 0.055542026 1.1347501 1.225048e-38
0.23717333 0.055542026 1.1222501 1.2527788e-38
0.23467334 0.053042028 1.1247501 1.1605477e-38
0.23467334 0.055542026 1.1247501 1.1515781e-38
0.23717333 0.053042028 1.1247501 1.3361863e-38
0.23717333 0.055542026 1.1247501 1.2433793e-38
0.23467334 0.055542026 1.1297501 1.1515078e-38
0.23717333 0.055542026 1.1297501 1.1700531e-38
0.23967333 0.053042028 1.1247501 1.1975333e-38
0.23967333 0.055542026 1.1247501 1.2711819e-38
0.24217333 0.053042028 1.1247501 1.335643e-38
0.24217333 0.055542026 1.1247501 1.4183689e-38
0.23967333 0.053042028 1.1297501 1.3729201e-38
0.23967333 0.055542026 1.1297501 1.2896919e-38
0.24217333 0.055542026 1.1297501 1.3907828e-38
0.24467334 0.053042028 1.1247501 1.5382235e-38
0.24467334 0.055542026 1.1247501 1.5382958e-38
0.24717334 0.053042028 1.1247501 1.6673697e-38
0.24717334 0.055542026 1.1247501 1.4647914e-38
0.24467334 0.055542026 1.1297501 1.4553198e-38
0.24717334 0.055542026 1.1297501 1.474011e-38
0.24967334 0.053042028 1.1247501 1.6120504e-38
0.24967334 0.055542026 1.1247501 1.4005066e-38
0.25217333 0.053042028 1.1247501 1.6396038e-38
0.25217333 0.055542026 1.1247501 1.3632321e-38
0.24967334 0.055542026 1.1297501 1.4373125e-38
0.25217333 0.055542026 1.1297501 1.2806523e-38
0.23467334 0.055542026 1.1347501 1.1607254e-38
0.23717333 0.055542026 1.1347501 1.1699449e-38
0.23967333 0.053042028 1.1372501 1.3544103e-38
0.23967333 0.055542026 1.1347501 1.2065733e-38
0.23967333 0.055542026 1.1372501 1.2250125e-38
0.24217333 0.053042028 1.1372501 1.3821045e-38
0.24217333 0.055542026 1.1347501 1.2803298e-38
0.24217333 0.055542026 1.1372501 1.2434514e-38
0.24467334 0.055542026 1.1347501 1.4553548e-38
0.24467334 0.055542026 1.1372501 1.4554973e-38
0.24717334 0.055542026 1.1347501 1.4739757e-38
0.24717334 0.055542026 1.1372501 1.4647169e-38
0.24967334 0.055542026 1.1347501 1.4739757e-38
0.25217333 0.055542026 1.1347501 1.4554294e-38
0.21467334 0.06304203 1.1122501 1.5291134e-38
0.21467334 0.065542027 1.1122501 1.4832306e-38
0.21467334 0.068042025 1.1122501 1.21608e-38
0.21467334 0.07054203 1.1122501 1.15165e-38
0.21467334 0.060542028 1.1147501 1.4095106e-38
0.21467334 0.058042027 1.1197501 1.3079515e-38
0.21467334 0.058042027 1.1222501 1.307915e-38
0.21467334 0.060542028 1.1197501 1.1791295e-38
0.21467334 0.060542028 1.1222501 1.2066084e-38
0.21717334 0.058042027 1.1222501 1.2250846e-38
0.21717334 0.060542028 1.1222501 1.1790576e-38
0.21467334 0.06304203 1.1147501 1.5383684e-38
0.21467334 0.065542027 1.1147501 1.5108169e-38
0.21717334 0.06304203 1.1147501 1.5292212e-38
0.21717334 0.065542027 1.1147501 1.473976e-38
0.21467334 0.06304203 1.1197501 1.5751388e-38
0.21467334 0.06304203 1.1222501 1.400471e-38
0.21467334 0.065542027 1.1197501 1.5200721e-38
0.21717334 0.06304203 1.1197501 1.474046e-38
0.21717334 0.06304203 1.1222501 1.4925943e-38
0.21717334 0.065542027 1.1197501 1.4924857e-38
0.21717334 0.065542027 1.1222501 1.5201088e-38
0.21967334 0.058042027 1.1222501 1.1789869e-38
0.21967334 0.060542028 1.1222501 1.1790576e-38
0.22217333 0.058042027 1.1222501 1.1973519e-38
0.22217333 0.060542028 1.1222501 1.2247234e-38
0.21967334 0.06304203 1.1197501 1.5384779e-38
0.21967334 0.06304203 1.1222501 1.5018139e-38
0.21967334 0.065542027 1.1197501 1.4094756e-38
0.21967334 0.065542027 1.1222501 1.4555716e-38
0.22217333 0.06304203 1.1222501 1.4834473e-38
0.22217333 0.065542027 1.1222501 1.4097259e-38
0.21467334 0.060542028 1.1247501 1.2528138e-38
0.21717334 0.058042027 1.1247501 1.2344115e-38
0.21717334 0.060542028 1.1247501 1.1424304e-38
0.21967334 0.058042027 1.1247501 1.1422518e-38
0.21967334 0.060542028 1.1247501 1.1607254e-38
0.22217333 0.058042027 1.1247501 1.1971736e-38
0.22217333 0.060542028 1.1247501 1.2065365e-38
0.21967334 0.058042027 1.1297501 1.2989482e-38
0.21967334 0.060542028 1.1297501 1.1976052e-38
0.22217333 0.058042027 1.1297501 1.1975333e-38
0.22217333 0.060542028 1.1297501 1.1883841e-38
0.21967334 0.06304203 1.1247501 1.5387633e-38
0.22217333 0.06304203 1.1247501 1.5295098e-38
0.22217333 0.065542027 1.1247501 1.3820317e-38
0.21467334 0.068042025 1.1147501 1.4647564e-38
0.21467334 0.07054203 1.1147501 1.1423936e-38
0.21717334 0.068042025 1.1147501 1.363593e-38
0.21717334 0.07054203 1.1147501 1.0133215e-38
0.21467334 0.068042025 1.1197501 1.4924504e-38
0.21467334 0.07054203 1.1197501 1.1976057e-38
0.21717334 0.068042025 1.1197501 1.3451539e-38
0.21717334 0.068042025 1.1222501 1.3544453e-38
0.21717334 0.07054203 1.1197501 1.1510777e-38
0.21967334 0.068042025 1.1197501 1.3358626e-38
0.21967334 0.068042025 1.1222501 1.4002911e-38
0.21967334 0.07054203 1.1197501 1.0775348e-38
0.22217333 0.068042025 1.1222501 1.3543382e-38
0.22217333 0.07054203 1.1197501 1.0314369e-38
0.22467333 0.058042027 1.1222501 1.3078065e-38
0.22467333 0.060542028 1.1222501 1.3537604e-38
0.22717333 0.058042027 1.1222501 1.2619958e-38
0.22717333 0.060542028 1.1222501 1.4275169e-38
0.22467333 0.06304203 1.1222501 1.3913949e-38
0.22467333 0.065542027 1.1222501 1.3082031e-38
0.22717333 0.06304203 1.1222501 1.409798e-38
0.22717333 0.065542027 1.1222501 1.3082031e-38
0.22967334 0.058042027 1.1222501 1.4553914e-38
0.22967334 0.060542028 1.1222501 1.5565926e-38
0.23217334 0.058042027 1.1222501 1.4648265e-38
0.23217334 0.060542028 1.1222501 1.5750319e-38
0.22967334 0.06304203 1.1222501 1.4372416e-38
0.22967334 0.065542027 1.1222501 1.1699825e-38
0.23217334 0.06304203 1.1222501 1.4280223e-38
0.23217334 0.065542027 1.1222501 1.1238487e-38
0.22467333 0.058042027 1.1247501 1.2063931e-38
0.22467333 0.060542028 1.1247501 1.2618539e-38
0.22717333 0.058042027 1.1247501 1.3170261e-38
0.22717333 0.060542028 1.1247501 1.4000746e-38
0.22467333 0.058042027 1.1297501 1.1975333e-38
0.22467333 0.060542028 1.1297501 1.2437014e-38
0.22717333 0.058042027 1.1297501 1.2896901e-38
0.22467333 0.06304203 1.1247501 1.446569e-38
0.22467333 0.065542027 1.1247501 1.3544085e-38
0.22717333 0.06304203 1.1247501 1.3914668e-38
0.22717333 0.065542027 1.1247501 1.2899425e-38
0.22967334 0.058042027 1.1247501 1.4278406e-38
0.22967334 0.060542028 1.1247501 1.5198936e-38
0.23217334 0.058042027 1.1247501 1.4464602e-38
0.23217334 0.060542028 1.1247501 1.5475524e-38
0.22967334 0.058042027 1.1297501 1.4922703e-38
0.22967334 0.060542028 1.1297501 1.6028333e-38
0.23217334 0.058042027 1.1297501 1.4647549e-38
0.23217334 0.060542028 1.1297501 1.5291131e-38
0.22967334 0.06304203 1.1247501 1.4189457e-38
0.22967334 0.065542027 1.1247501 1.2343762e-38
0.23217334 0.06304203 1.1247501 1.409619e-38
0.23217334 0.065542027 1.1247501 1.1882784e-38
0.22967334 0.06304203 1.1297501 1.5201071e-38
0.23217334 0.06304203 1.1297501 1.5016321e-38
0.23217334 0.065542027 1.1297501 1.4096187e-38
0.22467333 0.068042025 1.1222501 1.2251914e-38
0.22717333 0.068042025 1.1222501 1.1606903e-38
0.22967334 0.068042025 1.1222501 1.1238121e-38
0.23217334 0.058042027 1.1347501 1.4647196e-38
0.23467334 0.060542028 1.1222501 1.6121262e-38
0.23717333 0.058042027 1.1222501 1.446498e-38
0.23717333 0.060542028 1.1222501 1.4465334e-38
0.23467334 0.06304203 1.1222501 1.3911444e-38
0.23467334 0.065542027 1.1222501 1.1512225e-38
0.23717333 0.06304203 1.1222501 1.3083845e-38
0.23717333 0.065542027 1.1222501 1.160618e-38
0.23967333 0.058042027 1.1222501 1.446498e-38
0.23967333 0.060542028 1.1222501 1.4189107e-38
0.23967333 0.06304203 1.1222501 1.253103e-38
0.23967333 0.065542027 1.1222501 1.1882769e-38
0.23467334 0.058042027 1.1247501 1.4282009e-38
0.23467334 0.060542028 1.1247501 1.4831953e-38
0.23717333 0.058042027 1.1247501 1.4557166e-38
0.23717333 0.060542028 1.1247501 1.4557529e-38
0.23467334 0.058042027 1.1297501 1.4464952e-38
0.23467334 0.060542028 1.1297501 1.4924857e-38
0.23717333 0.058042027 1.1297501 1.4833375e-38
0.23717333 0.060542028 1.1297501 1.4924857e-38
0.23467334 0.06304203 1.1247501 1.345082e-38
0.23467334 0.065542027 1.1247501 1.0958685e-38
0.23717333 0.06304203 1.1247501 1.2620719e-38
0.23717333 0.065542027 1.1247501 1.0776443e-38
0.23467334 0.06304203 1.1297501 1.473976e-38
0.23467334 0.065542027 1.1297501 1.3819967e-38
0.23717333 0.06304203 1.1297501 1.3726697e-38
0.23717333 0.065542027 1.1297501 1.3819967e-38
0.23967333 0.058042027 1.1247501 1.4464971e-38
0.23967333 0.060542028 1.1247501 1.4189107e-38
0.24217333 0.058042027 1.1247501 1.4647549e-38
0.24217333 0.060542028 1.1247501 1.391216e-38
0.23967333 0.058042027 1.1297501 1.455646e-38
0.23967333 0.060542028 1.1297501 1.4646858e-38
0.24217333 0.058042027 1.1297501 1.4830858e-38
0.24217333 0.060542028 1.1297501 1.4369901e-38
0.23967333 0.06304203 1.1247501 1.2067904e-38
0.23967333 0.065542027 1.1247501 1.0499855e-38
0.24217333 0.06304203 1.1247501 1.1607629e-38
0.24217333 0.065542027 1.1247501 1.086754e-38
0.23967333 0.06304203 1.1297501 1.2804017e-38
0.23967333 0.065542027 1.1297501 1.2343762e-38
0.24217333 0.06304203 1.1297501 1.280367e-38
0.24217333 0.065542027 1.1297501 1.1976052e-38
0.24467334 0.058042027 1.1247501 1.4552847e-38
0.24467334 0.060542028 1.1247501 1.4462447e-38
0.24717334 0.058042027 1.1247501 1.3634488e-38
0.24717334 0.060542028 1.1247501 1.3632689e-38
0.24467334 0.058042027 1.1297501 1.4830858e-38
0.24467334 0.060542028 1.1297501 1.4277705e-38
0.24717334 0.058042027 1.1297501 1.4278056e-38
0.24717334 0.060542028 1.1297501 1.4185504e-38
0.24467334 0.06304203 1.1247501 1.2436311e-38
0.24467334 0.065542027 1.1247501 1.2067881e-38
0.24717334 0.06304203 1.1247501 1.1420376e-38
0.24467334 0.06304203 1.1297501 1.2251566e-38
0.24467334 0.065542027 1.1297501 1.1238487e-38
0.24717334 0.06304203 1.1297501 1.2067182e-38
0.24717334 0.065542027 1.1297501 1.123777e-38
0.24967334 0.058042027 1.1247501 1.3266077e-38
0.24967334 0.060542028 1.1247501 1.3171725e-38
0.25217333 0.058042027 1.1247501 1.1975338e-38
0.25217333 0.060542028 1.1247501 1.3724897e-38
0.24967334 0.058042027 1.1297501 1.3539419e-38
0.24967334 0.060542028 1.1297501 1.35387e-38
0.25217333 0.058042027 1.1297501 1.224868e-38
0.25217333 0.060542028 1.1297501 1.3907481e-38
0.24967334 0.06304203 1.1247501 1.3537619e-38
0.25217333 0.06304203 1.1247501 1.8331794e-38
0.24967334 0.06304203 1.1297501 1.2618904e-38
0.24967334 0.065542027 1.1297501 1.2616033e-38
0.25217333 0.06304203 1.1297501 1.7413436e-38
0.23467334 0.058042027 1.1347501 1.4926294e-38
0.23717333 0.058042027 1.1347501 1.455787e-38
0.23967333 0.058042027 1.1372501 1.2341597e-38
0.24217333 0.058042027 1.1372501 1.3079162e-38
0.24467334 0.058042027 1.1347501 1.5845398e-38
0.24467334 0.058042027 1.1372501 1.4184066e-38
0.24467334 0.060542028 1.1347501 1.5111056e-38
0.24717334 0.058042027 1.1347501 1.4185504e-38
0.24717334 0.058042027 1.1372501 1.4830508e-38
0.24717334 0.060542028 1.1347501 1.4276984e-38
0.24467334 0.06304203 1.1347501 1.2434889e-38
0.24717334 0.06304203 1.1347501 1.2067185e-38
0.24967334 0.058042027 1.1347501 1.5014554e-38
0.24967334 0.060542028 1.1347501 1.4554647e-38
0.25217333 0.058042027 1.1347501 1.4462447e-38
0.25217333 0.058042027 1.1372501 1.474011e-38
0.25217333 0.060542028 1.1347501 1.4184785e-38
0.24967334 0.06304203 1.1347501 1.132926e-38
0.25217333 0.06304203 1.1347501 1.2895847e-38
0.25467333 0.055542026 1.1347501 1.354014e-38
0.25467333 0.058042027 1.1347501 1.3079512e-38
0.25467333 0.058042027 1.1372501 1.4004346e-38
0.25467333 0.060542028 1.1347501 1.519858e-38
0.25467333 0.06304203 1.1347501 1.8058802e-38
