# .PCD v0.7 - Point Cloud Data file format
VERSION 0.7
FIELDS x y z rgb
SIZE 4 4 4 4
TYPE F F F F
COUNT 1 1 1 1
WIDTH 604
HEIGHT 1
VIEWPOINT 0 0 0 1 0 0 0
POINTS 604
DATA ascii
-0.115017 0.13225783 0.96425003 1.3173523e-38
-0.11251699 0.12975784 0.96425003 1.5299052e-38
-0.11251699 0.13225783 0.96425003 1.4649012e-38
-0.11251699 0.13475783 0.96425003 1.2438126e-38
-0.132517 0.10225783 1.03425 2.0000343e-38
-0.13751699 0.099757835 1.0367501 2.2856218e-38
-0.13751699 0.10225783 1.0367501 2.1932815e-38
-0.14001699 0.10225783 1.0417501 2.165482e-38
-0.13751699 0.10225783 1.0417501 2.1658042e-38
-0.13501699 0.099757835 1.0367501 2.2487102e-38
-0.13501699 0.10225783 1.0367501 2.1751702e-38
-0.132517 0.099757835 1.0367501 2.1565145e-38
-0.127517 0.10225783 1.02425 2.0276537e-38
-0.130017 0.10225783 1.0317501 2.0095365e-38
-0.130017 0.10225783 1.03425 1.9727309e-38
-0.127517 0.10225783 1.0317501 1.9726584e-38
-0.127517 0.10225783 1.03425 1.9266331e-38
-0.12501699 0.11725783 1.00425 1.5025016e-38
-0.122517 0.11725783 1.00425 1.5022149e-38
-0.122517 0.12225784 0.99675006 1.5670739e-38
-0.12501699 0.11975783 1.00425 1.5576039e-38
-0.12501699 0.12225784 1.00175 1.5484177e-38
-0.12501699 0.12225784 1.00425 1.5668222e-38
-0.122517 0.11975783 1.00175 1.493247e-38
-0.122517 0.11975783 1.00425 1.5207262e-38
-0.122517 0.12225784 1.00175 1.5760418e-38
-0.122517 0.12225784 1.00425 1.5390925e-38
-0.115017 0.11225783 1.00425 1.6860995e-38
-0.11251699 0.11225783 1.00425 1.8428679e-38
-0.12001699 0.12225784 0.99175006 1.5208685e-38
-0.12001699 0.12225784 0.99425006 1.530088e-38
-0.11751699 0.12225784 0.99175006 1.4748805e-38
-0.11751699 0.12225784 0.99425006 1.4656972e-38
-0.115017 0.12225784 0.99175006 1.5390572e-38
-0.115017 0.12225784 0.99425006 1.4562243e-38
-0.11251699 0.12225784 0.99175006 1.4746639e-38
-0.11251699 0.12225784 0.99425006 1.4745202e-38
-0.12001699 0.11475784 1.00425 1.2810151e-38
-0.12001699 0.11725783 1.00175 1.5024663e-38
-0.12001699 0.11725783 1.00425 1.3728867e-38
-0.11751699 0.11475784 1.00425 1.4652979e-38
-0.11751699 0.11725783 1.00175 1.336335e-38
-0.11751699 0.11725783 1.00425 1.4466432e-38
-0.12001699 0.11975783 0.99675006 1.4749155e-38
-0.12001699 0.12225784 0.99675006 1.5209762e-38
-0.11751699 0.11975783 0.99675006 1.3366587e-38
-0.11751699 0.12225784 0.99675006 1.5115064e-38
-0.12001699 0.11975783 1.00175 1.493247e-38
-0.12001699 0.11975783 1.00425 1.5299458e-38
-0.12001699 0.12225784 1.00175 1.5486348e-38
-0.12001699 0.12225784 1.00425 1.5298729e-38
-0.11751699 0.11975783 1.00175 1.4746286e-38
-0.11751699 0.11975783 1.00425 1.4192034e-38
-0.115017 0.11475784 1.00175 1.5574614e-38
-0.115017 0.11475784 1.00425 1.5022518e-38
-0.115017 0.11725783 1.00175 1.3457688e-38
-0.115017 0.11725783 1.00425 1.529801e-38
-0.11251699 0.11475784 1.00175 1.5390221e-38
-0.11251699 0.11475784 1.00425 1.5206909e-38
-0.11251699 0.11725783 1.00175 1.5575323e-38
-0.11251699 0.11725783 1.00425 1.5390909e-38
-0.115017 0.11975783 0.99675006 1.2996713e-38
-0.115017 0.12225784 0.99675006 1.4559742e-38
-0.11251699 0.11975783 0.99675006 1.3919745e-38
-0.11251699 0.12225784 0.99675006 1.3824678e-38
-0.115017 0.11975783 1.00175 1.3916168e-38
-0.115017 0.11975783 1.00425 1.4377146e-38
-0.11251699 0.11975783 1.00175 1.5300877e-38
-0.11251699 0.11975783 1.00425 1.5300877e-38
-0.11251699 0.12225784 1.00175 1.4469697e-38
-0.122517 0.12725784 0.98425007 1.2900904e-38
-0.122517 0.12975784 0.98425007 1.2532517e-38
-0.122517 0.13225783 0.98425007 1.3086745e-38
-0.11751699 0.12975784 0.97425002 1.2347712e-38
-0.11751699 0.13225783 0.97425002 1.1520118e-38
-0.115017 0.12725784 0.96675003 1.5021401e-38
-0.11251699 0.12475783 0.96675003 1.5759712e-38
-0.11251699 0.12725784 0.96675003 1.6589087e-38
-0.11251699 0.12725784 0.96925002 1.5945884e-38
-0.115017 0.12725784 0.97425002 1.6588737e-38
-0.11251699 0.12725784 0.97425002 1.5943367e-38
-0.115017 0.12975784 0.96675003 1.3914315e-38
-0.115017 0.13225783 0.96675003 1.2531378e-38
-0.115017 0.13225783 0.96925002 1.2435942e-38
-0.11251699 0.12975784 0.96675003 1.6955304e-38
-0.11251699 0.12975784 0.96925002 1.6403988e-38
-0.11251699 0.13225783 0.96675003 1.3913959e-38
-0.11251699 0.13225783 0.96925002 1.5388369e-38
-0.115017 0.12975784 0.97175002 1.446604e-38
-0.115017 0.12975784 0.97425002 1.4190882e-38
-0.115017 0.13225783 0.97175002 1.2530321e-38
-0.115017 0.13225783 0.97425002 1.2162601e-38
-0.11251699 0.12975784 0.97175002 1.6313592e-38
-0.11251699 0.12975784 0.97425002 1.5853332e-38
-0.11251699 0.13225783 0.97175002 1.5297252e-38
-0.11751699 0.12725784 0.97675008 1.6126266e-38
-0.12001699 0.12475783 0.98425007 1.5759319e-38
-0.12001699 0.12725784 0.98175007 1.216582e-38
-0.12001699 0.12725784 0.98425007 1.3915381e-38
-0.11751699 0.12475783 0.98175007 1.6220297e-38
-0.11751699 0.12475783 0.98425007 1.5394528e-38
-0.11751699 0.12725784 0.98175007 1.6128067e-38
-0.11751699 0.12725784 0.98425007 1.6222488e-38
-0.12001699 0.13225783 0.97675008 1.3639911e-38
-0.11751699 0.12975784 0.97675008 1.3914315e-38
-0.11751699 0.13225783 0.97675008 1.1701658e-38
-0.12001699 0.12975784 0.98175007 1.2165838e-38
-0.12001699 0.12975784 0.98425007 1.2348063e-38
-0.12001699 0.13225783 0.98175007 1.3363322e-38
-0.12001699 0.13225783 0.98425007 1.2532125e-38
-0.11751699 0.12975784 0.98175007 1.3731366e-38
-0.11751699 0.12975784 0.98425007 1.6405784e-38
-0.115017 0.12725784 0.97675008 1.5851534e-38
-0.11251699 0.12725784 0.97675008 1.493247e-38
-0.115017 0.12475783 0.98175007 1.4748802e-38
-0.115017 0.12475783 0.98425007 1.4933189e-38
-0.115017 0.12725784 0.98175007 1.5944802e-38
-0.115017 0.12725784 0.98425007 1.5300531e-38
-0.11251699 0.12475783 0.98425007 1.5389853e-38
-0.11251699 0.12725784 0.98175007 1.5025384e-38
-0.11251699 0.12725784 0.98425007 1.493247e-38
-0.115017 0.12975784 0.97675008 1.6404336e-38
-0.115017 0.13225783 0.97675008 1.1701286e-38
-0.11251699 0.12975784 0.97675008 1.6036645e-38
-0.11251699 0.13225783 0.97675008 1.6681645e-38
-0.115017 0.12975784 0.98175007 1.6405395e-38
-0.115017 0.12975784 0.98425007 1.5760415e-38
-0.11251699 0.12975784 0.98175007 1.5853335e-38
-0.11251699 0.12975784 0.98425007 1.5025737e-38
-0.115017 0.13475783 0.96925002 1.3823564e-38
-0.11251699 0.13475783 0.96675003 1.179456e-38
-0.11251699 0.13475783 0.96925002 1.2439573e-38
-0.11251699 0.13725783 0.96675003 1.2807986e-38
-0.115017 0.13475783 0.97175002 1.2531025e-38
-0.11251699 0.13475783 0.97175002 1.2625377e-38
-0.11251699 0.13975783 0.96925002 1.3549141e-38
-0.11751699 0.13475783 0.97675008 1.2995618e-38
-0.12501699 0.12475783 0.98925006 1.1978204e-38
-0.12501699 0.12725784 0.98925006 1.345265e-38
-0.122517 0.12475783 0.98675007 1.5479846e-38
-0.122517 0.12475783 0.98925006 1.5203982e-38
-0.122517 0.12725784 0.98675007 1.2532125e-38
-0.122517 0.12725784 0.98925006 1.2622888e-38
-0.12501699 0.12725784 0.99175006 1.3360453e-38
-0.122517 0.12475783 0.99175006 1.6493991e-38
-0.122517 0.12475783 0.99425006 1.6035533e-38
-0.122517 0.12725784 0.99175006 1.2899476e-38
-0.122517 0.12725784 0.99425006 1.5111056e-38
-0.12501699 0.12975784 0.98925006 1.3730678e-38
-0.122517 0.12975784 0.98675007 1.2901999e-38
-0.122517 0.12975784 0.98925006 1.2255908e-38
-0.12501699 0.12475783 0.99675006 1.2809037e-38
-0.122517 0.12475783 0.99675006 1.5944799e-38
-0.12501699 0.12475783 1.00175 1.5297252e-38
-0.122517 0.12475783 1.00175 1.5850792e-38
-0.12001699 0.12475783 0.98675007 1.5852588e-38
-0.12001699 0.12475783 0.98925006 1.6219576e-38
-0.12001699 0.12725784 0.98675007 1.3915018e-38
-0.12001699 0.12725784 0.98925006 1.6680885e-38
-0.11751699 0.12475783 0.98675007 1.5301623e-38
-0.11751699 0.12475783 0.98925006 1.5116879e-38
-0.11751699 0.12725784 0.98675007 1.6037377e-38
-0.11751699 0.12725784 0.98925006 1.6407225e-38
-0.12001699 0.12475783 0.99175006 1.6221762e-38
-0.12001699 0.12475783 0.99425006 1.5945894e-38
-0.12001699 0.12725784 0.99175006 1.4559682e-38
-0.12001699 0.12725784 0.99425006 1.6312846e-38
-0.11751699 0.12475783 0.99175006 1.4839922e-38
-0.11751699 0.12475783 0.99425006 1.5576418e-38
-0.11751699 0.12725784 0.99175006 1.5025386e-38
-0.11751699 0.12725784 0.99425006 1.56704e-38
-0.12001699 0.12975784 0.98675007 1.2624648e-38
-0.12001699 0.12975784 0.98925006 1.2716826e-38
-0.11751699 0.12975784 0.98675007 1.3546606e-38
-0.11751699 0.12975784 0.98925006 1.6129196e-38
-0.115017 0.12475783 0.98675007 1.4932839e-38
-0.115017 0.12475783 0.98925006 1.46559e-38
-0.115017 0.12725784 0.98675007 1.5299811e-38
-0.115017 0.12725784 0.98925006 1.5392008e-38
-0.11251699 0.12475783 0.98675007 1.5482773e-38
-0.11251699 0.12475783 0.98925006 1.5022868e-38
-0.11251699 0.12725784 0.98675007 1.5022868e-38
-0.11251699 0.12725784 0.98925006 1.474737e-38
-0.115017 0.12475783 0.99175006 1.5022868e-38
-0.115017 0.12475783 0.99425006 1.5207615e-38
-0.115017 0.12725784 0.99175006 1.4839922e-38
-0.115017 0.12725784 0.99425006 1.4750227e-38
-0.11251699 0.12475783 0.99175006 1.5116136e-38
-0.11251699 0.12475783 0.99425006 1.5115417e-38
-0.11251699 0.12725784 0.99175006 1.4565483e-38
-0.11251699 0.12725784 0.99425006 1.5115064e-38
-0.115017 0.12975784 0.98675007 1.576149e-38
-0.115017 0.12975784 0.98925006 1.5576022e-38
-0.11251699 0.12975784 0.98675007 1.4749158e-38
-0.11251699 0.12975784 0.98925006 1.4747723e-38
-0.12001699 0.12475783 0.99675006 1.5577824e-38
-0.11751699 0.12475783 0.99675006 1.5117568e-38
-0.12001699 0.12475783 1.00175 1.5483474e-38
-0.11251699 0.12475783 0.99675006 1.5023219e-38
-0.14001699 0.10975783 1.02425 1.5758265e-38
-0.14001699 0.11225783 1.02425 1.5206499e-38
-0.13751699 0.10975783 1.02425 1.6311439e-38
-0.13751699 0.11225783 1.02425 1.5851868e-38
-0.132517 0.11225783 1.01925 1.5393093e-38
-0.13501699 0.10975783 1.02425 1.4747705e-38
-0.13501699 0.11225783 1.02425 1.5576025e-38
-0.132517 0.10975783 1.02425 1.5572805e-38
-0.132517 0.11225783 1.0217501 1.4747726e-38
-0.132517 0.11225783 1.02425 1.4563336e-38
-0.132517 0.11725783 1.00925 1.631066e-38
-0.132517 0.11725783 1.0117501 1.6310676e-38
-0.132517 0.11975783 1.00925 1.428274e-38
-0.14001699 0.11475784 1.0217501 1.2531378e-38
-0.14001699 0.11475784 1.02425 1.3084577e-38
-0.13751699 0.11475784 1.0217501 1.5112855e-38
-0.13751699 0.11475784 1.02425 1.6034477e-38
-0.132517 0.11475784 1.0167501 1.6405045e-38
-0.132517 0.11475784 1.01925 1.6312846e-38
-0.132517 0.11725783 1.0167501 1.668089e-38
-0.13501699 0.11475784 1.0217501 1.6405042e-38
-0.13501699 0.11475784 1.02425 1.6129193e-38
-0.132517 0.11475784 1.0217501 1.6405045e-38
-0.132517 0.11475784 1.02425 1.5390925e-38
-0.142517 0.10725784 1.03425 1.6035926e-38
-0.142517 0.11225783 1.0267501 1.4926334e-38
-0.142517 0.10975783 1.03425 1.5760038e-38
-0.142517 0.11225783 1.0317501 1.6034464e-38
-0.142517 0.10725784 1.0367501 1.5760771e-38
-0.142517 0.10475783 1.0417501 1.6126679e-38
-0.142517 0.10725784 1.0417501 1.5115048e-38
-0.14001699 0.10725784 1.03425 1.6036998e-38
-0.13751699 0.10725784 1.0317501 1.6031257e-38
-0.13751699 0.10725784 1.03425 1.5755045e-38
-0.14001699 0.10975783 1.0267501 1.5576025e-38
-0.14001699 0.11225783 1.0267501 1.5757156e-38
-0.13751699 0.10975783 1.0267501 1.6403285e-38
-0.13751699 0.11225783 1.0267501 1.6770947e-38
-0.14001699 0.10975783 1.03425 1.5945884e-38
-0.14001699 0.11225783 1.0317501 1.5574953e-38
-0.13751699 0.10975783 1.0317501 1.5022868e-38
-0.13751699 0.10975783 1.03425 1.6035926e-38
-0.13751699 0.11225783 1.0317501 1.612884e-38
-0.13501699 0.10725784 1.0267501 1.6215651e-38
-0.132517 0.10475783 1.0267501 2.1559715e-38
-0.132517 0.10725784 1.0267501 1.7966607e-38
-0.13501699 0.10475783 1.0317501 1.9715447e-38
-0.13501699 0.10475783 1.03425 2.1464671e-38
-0.13501699 0.10725784 1.0317501 1.5385903e-38
-0.13501699 0.10725784 1.03425 1.9531056e-38
-0.132517 0.10475783 1.0317501 2.0732476e-38
-0.132517 0.10475783 1.03425 1.5756449e-38
-0.132517 0.10725784 1.0317501 1.8335014e-38
-0.132517 0.10725784 1.03425 2.1100905e-38
-0.13501699 0.10975783 1.0267501 1.4931376e-38
-0.13501699 0.11225783 1.0267501 1.5668585e-38
-0.132517 0.10975783 1.0267501 1.5572805e-38
-0.132517 0.11225783 1.0267501 1.4564058e-38
-0.13501699 0.10975783 1.0317501 1.3824325e-38
-0.132517 0.10975783 1.0317501 1.6122344e-38
-0.14001699 0.10475783 1.0367501 1.5205449e-38
-0.14001699 0.10725784 1.0367501 1.5392354e-38
-0.13751699 0.10475783 1.0367501 1.7871878e-38
-0.13751699 0.10725784 1.0367501 1.602798e-38
-0.14001699 0.10475783 1.0417501 1.548059e-38
-0.14001699 0.10725784 1.0417501 1.373428e-38
-0.13501699 0.10475783 1.0367501 2.2020321e-38
-0.130017 0.11225783 1.0117501 1.4194549e-38
-0.127517 0.11225783 1.0117501 1.4834492e-38
-0.122517 0.11225783 1.00925 2.1100832e-38
-0.12501699 0.11225783 1.0117501 1.4373514e-38
-0.122517 0.10975783 1.0117501 2.3506622e-38
-0.122517 0.11225783 1.0117501 2.0179965e-38
-0.130017 0.10725784 1.02425 2.0823927e-38
-0.127517 0.10475783 1.0217501 1.9350592e-38
-0.127517 0.10475783 1.02425 1.9810474e-38
-0.127517 0.10725784 1.0217501 2.2385861e-38
-0.127517 0.10725784 1.02425 1.9166204e-38
-0.130017 0.11225783 1.0167501 1.3919042e-38
-0.130017 0.11225783 1.01925 1.4286382e-38
-0.127517 0.10975783 1.01925 1.7503088e-38
-0.127517 0.11225783 1.0167501 1.4743725e-38
-0.127517 0.11225783 1.01925 1.5201441e-38
-0.130017 0.10975783 1.0217501 1.5019984e-38
-0.130017 0.10975783 1.02425 1.4834881e-38
-0.130017 0.11225783 1.0217501 1.3549183e-38
-0.130017 0.11225783 1.02425 1.3273319e-38
-0.127517 0.10975783 1.0217501 2.2021753e-38
-0.127517 0.10975783 1.02425 1.7227221e-38
-0.127517 0.11225783 1.0217501 1.5569145e-38
-0.12501699 0.10475783 1.0167501 2.2118988e-38
-0.12501699 0.10475783 1.01925 2.1104505e-38
-0.12501699 0.10725784 1.01925 2.2303356e-38
-0.122517 0.10475783 1.0167501 2.3501561e-38
-0.122517 0.10475783 1.01925 2.0182189e-38
-0.122517 0.10725784 1.0167501 2.3503386e-38
-0.122517 0.10725784 1.01925 2.3501951e-38
-0.12501699 0.10475783 1.0217501 2.1104871e-38
-0.12501699 0.10725784 1.0217501 2.2395963e-38
-0.122517 0.10475783 1.0217501 2.0367306e-38
-0.122517 0.10725784 1.0217501 2.3502314e-38
-0.12501699 0.10975783 1.0167501 2.350051e-38
-0.12501699 0.10975783 1.01925 2.3406868e-38
-0.12501699 0.11225783 1.0167501 1.4743725e-38
-0.12501699 0.11225783 1.01925 2.0086731e-38
-0.122517 0.10975783 1.0167501 2.350195e-38
-0.122517 0.10975783 1.01925 2.3501586e-38
-0.122517 0.11225783 1.0167501 2.3502306e-38
-0.130017 0.11725783 1.00925 1.6864961e-38
-0.127517 0.11475784 1.00925 1.5577469e-38
-0.127517 0.11725783 1.00925 1.5944802e-38
-0.130017 0.11475784 1.0117501 1.447401e-38
-0.130017 0.11725783 1.0117501 1.6221389e-38
-0.127517 0.11475784 1.0117501 1.4745187e-38
-0.130017 0.11975783 1.00925 1.5298698e-38
-0.127517 0.11975783 1.0067501 1.7416301e-38
-0.127517 0.11975783 1.00925 1.6866746e-38
-0.12501699 0.11475784 1.0067501 1.474772e-38
-0.12501699 0.11475784 1.00925 1.3642435e-38
-0.12501699 0.11725783 1.0067501 1.4839566e-38
-0.12501699 0.11725783 1.00925 1.4839919e-38
-0.122517 0.11475784 1.0067501 1.5113266e-38
-0.122517 0.11475784 1.00925 1.5111783e-38
-0.122517 0.11725783 1.0067501 1.5022149e-38
-0.122517 0.11725783 1.00925 1.4840622e-38
-0.12501699 0.11475784 1.0117501 1.4376403e-38
-0.122517 0.11475784 1.0117501 1.4466037e-38
-0.12501699 0.11975783 1.0067501 1.5206906e-38
-0.12501699 0.11975783 1.00925 1.5299455e-38
-0.122517 0.11975783 1.0067501 1.5025016e-38
-0.130017 0.11475784 1.0167501 1.5486723e-38
-0.130017 0.11475784 1.01925 1.4750225e-38
-0.130017 0.11725783 1.0167501 1.6406153e-38
-0.130017 0.11475784 1.0217501 1.4654439e-38
-0.12001699 0.10725784 1.00925 2.230773e-38
-0.11751699 0.10725784 1.00925 1.9449305e-38
-0.12001699 0.10725784 1.0117501 2.249032e-38
-0.11751699 0.10725784 1.0117501 1.9909202e-38
-0.12001699 0.10975783 1.00925 2.3502309e-38
-0.12001699 0.11225783 1.00925 1.8796034e-38
-0.11751699 0.10975783 1.00925 2.2118653e-38
-0.11751699 0.11225783 1.0067501 1.6309625e-38
-0.11751699 0.11225783 1.00925 1.6767729e-38
-0.12001699 0.10975783 1.0117501 2.3224279e-38
-0.12001699 0.11225783 1.0117501 2.3506999e-38
-0.11751699 0.10975783 1.0117501 2.193354e-38
-0.11751699 0.11225783 1.0117501 2.1659486e-38
-0.115017 0.10975783 1.00925 2.0644258e-38
-0.115017 0.11225783 1.0067501 1.7969516e-38
-0.115017 0.11225783 1.00925 1.6494035e-38
-0.12001699 0.10475783 1.0167501 2.166019e-38
-0.12001699 0.10725784 1.0167501 2.2214828e-38
-0.12001699 0.10725784 1.01925 2.1568012e-38
-0.11751699 0.10725784 1.0167501 1.9264927e-38
-0.12001699 0.10725784 1.0217501 2.1937515e-38
-0.12001699 0.10975783 1.0167501 2.3318272e-38
-0.12001699 0.10975783 1.01925 2.2858017e-38
-0.11751699 0.10975783 1.0167501 2.1658392e-38
-0.11751699 0.11225783 1.0167501 2.0091089e-38
-0.12001699 0.11475784 1.0067501 1.2808706e-38
-0.12001699 0.11475784 1.00925 1.5203629e-38
-0.12001699 0.11725783 1.0067501 1.3178956e-38
-0.11751699 0.11475784 1.0067501 1.4559328e-38
-0.11751699 0.11475784 1.00925 1.492704e-38
-0.12001699 0.11975783 1.0067501 1.4932117e-38
-0.115017 0.11475784 1.0067501 1.557495e-38
-0.130017 0.10475783 1.0267501 1.7413388e-38
-0.130017 0.10725784 1.0267501 2.0087106e-38
-0.127517 0.10475783 1.0267501 2.0184341e-38
-0.130017 0.10475783 1.0317501 1.7874058e-38
-0.127517 0.10475783 1.0317501 1.9907753e-38
-0.130017 0.10975783 1.0267501 1.7782588e-38
-0.11001699 0.12975784 0.96425003 1.6129549e-38
-0.11001699 0.13225783 0.96425003 1.612701e-38
-0.107517 0.12975784 0.96425003 1.5393093e-38
-0.107517 0.13225783 0.96425003 1.5209778e-38
-0.10501699 0.12975784 0.96425003 1.493247e-38
-0.10501699 0.13225783 0.96425003 1.4565127e-38
-0.10251699 0.12975784 0.96425003 1.493247e-38
-0.10251699 0.13225783 0.96425003 1.4657323e-38
-0.11001699 0.13725783 0.95925003 1.3729946e-38
-0.107517 0.13725783 0.95925003 1.510887e-38
-0.11001699 0.13475783 0.96175003 1.5111783e-38
-0.11001699 0.13475783 0.96425003 1.6127729e-38
-0.11001699 0.13725783 0.96175003 1.2255885e-38
-0.11001699 0.13725783 0.96425003 1.2161914e-38
-0.107517 0.13475783 0.96175003 1.6679108e-38
-0.107517 0.13475783 0.96425003 1.6128137e-38
-0.107517 0.13725783 0.96175003 1.5201088e-38
-0.107517 0.13725783 0.96425003 1.4281656e-38
-0.11001699 0.13975783 0.95925003 1.4191643e-38
-0.107517 0.13975783 0.95925003 1.3451539e-38
-0.11001699 0.13975783 0.96175003 1.3087814e-38
-0.11001699 0.13975783 0.96425003 1.2807986e-38
-0.11001699 0.14225784 0.96425003 1.327039e-38
-0.107517 0.13975783 0.96175003 1.3451539e-38
-0.107517 0.13975783 0.96425003 1.4001826e-38
-0.107517 0.14225784 0.96175003 1.3361159e-38
-0.107517 0.14225784 0.96425003 1.2993082e-38
-0.10501699 0.13725783 0.95925003 1.9073282e-38
-0.10251699 0.13725783 0.95925003 1.8245744e-38
-0.10501699 0.13475783 0.96175003 1.7785462e-38
-0.10501699 0.13475783 0.96425003 1.6406519e-38
-0.10501699 0.13725783 0.96175003 1.8246068e-38
-0.10501699 0.13725783 0.96425003 1.7236286e-38
-0.10251699 0.13475783 0.96175003 1.7050822e-38
-0.10251699 0.13475783 0.96425003 1.5577118e-38
-0.10251699 0.13725783 0.96175003 1.7787276e-38
-0.10251699 0.13725783 0.96425003 1.4836657e-38
-0.10501699 0.13975783 0.95925003 1.4650082e-38
-0.10501699 0.14225784 0.95925003 1.3084574e-38
-0.10251699 0.13975783 0.95925003 1.3635232e-38
-0.10251699 0.14225784 0.95925003 1.3269691e-38
-0.10501699 0.13975783 0.96175003 1.8519412e-38
-0.10501699 0.13975783 0.96425003 1.7694005e-38
-0.10501699 0.14225784 0.96175003 1.336151e-38
-0.10501699 0.14225784 0.96425003 1.4464633e-38
-0.10251699 0.13975783 0.96175003 1.7325221e-38
-0.10251699 0.13975783 0.96425003 1.4928136e-38
-0.10251699 0.14225784 0.96175003 1.4283483e-38
-0.10251699 0.14225784 0.96425003 1.4003656e-38
-0.100017 0.13225783 0.96425003 1.3919026e-38
-0.097516991 0.12975784 0.96425003 1.3732833e-38
-0.097516991 0.13225783 0.96425003 1.4375316e-38
-0.095016994 0.12975784 0.96425003 1.6222462e-38
-0.095016994 0.13225783 0.96425003 1.5395225e-38
-0.100017 0.13475783 0.96425003 1.5117213e-38
-0.100017 0.13725783 0.96175003 1.4561485e-38
-0.100017 0.13725783 0.96425003 1.4469287e-38
-0.097516991 0.13475783 0.96425003 1.529908e-38
-0.097516991 0.13725783 0.96175003 1.5667474e-38
-0.097516991 0.13725783 0.96425003 1.6037377e-38
-0.100017 0.13975783 0.96175003 1.4281713e-38
-0.100017 0.13975783 0.96425003 1.4008694e-38
-0.100017 0.14225784 0.96175003 1.5021054e-38
-0.100017 0.14225784 0.96425003 1.4373533e-38
-0.097516991 0.13975783 0.96175003 1.4004766e-38
-0.097516991 0.13975783 0.96425003 1.640506e-38
-0.097516991 0.14225784 0.96175003 1.3084945e-38
-0.097516991 0.14225784 0.96425003 1.4464952e-38
-0.095016994 0.13475783 0.96425003 1.6958548e-38
-0.095016994 0.13725783 0.96425003 1.6125934e-38
-0.11001699 0.12225784 0.99425006 1.5296208e-38
-0.107517 0.12225784 0.99175006 1.530088e-38
-0.107517 0.12225784 0.99425006 1.6035929e-38
-0.10501699 0.12225784 0.99175006 1.4932099e-38
-0.10501699 0.12225784 0.99425006 1.5116486e-38
-0.11001699 0.11725783 1.00175 1.5114342e-38
-0.11001699 0.11975783 0.99675006 1.5022497e-38
-0.11001699 0.12225784 0.99675006 1.5392357e-38
-0.107517 0.12225784 0.99675006 1.5575669e-38
-0.11001699 0.11975783 1.00175 1.4563312e-38
-0.11001699 0.12225784 1.00175 1.5391655e-38
-0.11001699 0.12475783 0.96675003 1.5300175e-38
-0.11001699 0.12725784 0.96675003 1.493247e-38
-0.11001699 0.12725784 0.96925002 1.5116839e-38
-0.107517 0.12475783 0.96925002 1.5205815e-38
-0.107517 0.12725784 0.96675003 1.5115064e-38
-0.11001699 0.12725784 0.97425002 1.4932105e-38
-0.107517 0.12475783 0.97425002 1.4287451e-38
-0.107517 0.12725784 0.97425002 1.4746636e-38
-0.11001699 0.12975784 0.96675003 1.6313236e-38
-0.11001699 0.12975784 0.96925002 1.5944449e-38
-0.11001699 0.13225783 0.96675003 1.6035183e-38
-0.11001699 0.13225783 0.96925002 1.6402522e-38
-0.107517 0.12975784 0.96675003 1.4932117e-38
-0.107517 0.12975784 0.96925002 1.4839919e-38
-0.107517 0.13225783 0.96675003 1.493427e-38
-0.107517 0.13225783 0.96925002 1.5025389e-38
-0.11001699 0.12975784 0.97175002 1.5760418e-38
-0.11001699 0.12975784 0.97425002 1.5300514e-38
-0.11001699 0.13225783 0.97175002 1.613025e-38
-0.107517 0.12975784 0.97175002 1.4839919e-38
-0.107517 0.12975784 0.97425002 1.5207615e-38
-0.107517 0.13225783 0.97175002 1.5025737e-38
-0.10251699 0.12725784 0.96675003 1.410162e-38
-0.10251699 0.12725784 0.96925002 1.4285651e-38
-0.10501699 0.12725784 0.97425002 1.4007988e-38
-0.10251699 0.12475783 0.97425002 1.5208664e-38
-0.10251699 0.12725784 0.97175002 1.5111446e-38
-0.10251699 0.12725784 0.97425002 1.5022123e-38
-0.10501699 0.12975784 0.96925002 1.5299455e-38
-0.10501699 0.13225783 0.96675003 1.4656254e-38
-0.10251699 0.12975784 0.96675003 1.4471844e-38
-0.10251699 0.12975784 0.96925002 1.4653009e-38
-0.10251699 0.13225783 0.96675003 1.4932839e-38
-0.10501699 0.12975784 0.97175002 1.566607e-38
-0.10501699 0.12975784 0.97425002 1.4930304e-38
-0.10251699 0.12975784 0.97175002 1.4928505e-38
-0.10251699 0.12975784 0.97425002 1.3639565e-38
-0.10251699 0.13225783 0.97175002 1.4471847e-38
-0.10251699 0.13225783 0.97425002 1.4653009e-38
-0.11001699 0.12725784 0.97675008 1.4748074e-38
-0.107517 0.12725784 0.97675008 1.4748074e-38
-0.11001699 0.12725784 0.98175007 1.5022868e-38
-0.11001699 0.12725784 0.98425007 1.5022502e-38
-0.107517 0.12475783 0.98175007 1.4562243e-38
-0.107517 0.12725784 0.98175007 1.4654086e-38
-0.107517 0.12725784 0.98425007 1.4837751e-38
-0.11001699 0.12975784 0.97675008 1.5391275e-38
-0.11001699 0.13225783 0.97675008 1.612883e-38
-0.107517 0.12975784 0.97675008 1.5207262e-38
-0.107517 0.13225783 0.97675008 1.4839919e-38
-0.11001699 0.12975784 0.98175007 1.5207966e-38
-0.11001699 0.13225783 0.98175007 1.5760784e-38
-0.10501699 0.12725784 0.97675008 1.4561149e-38
-0.10251699 0.12725784 0.97675008 1.5391628e-38
-0.10501699 0.12725784 0.98175007 1.5023219e-38
-0.10501699 0.12975784 0.97675008 1.4931023e-38
-0.10501699 0.13225783 0.97675008 1.5390206e-38
-0.10251699 0.12975784 0.97675008 1.4377849e-38
-0.10251699 0.13225783 0.97675008 1.3823956e-38
-0.11001699 0.13475783 0.96675003 1.5852221e-38
-0.11001699 0.13475783 0.96925002 1.6128085e-38
-0.11001699 0.13725783 0.96675003 1.465188e-38
-0.11001699 0.13725783 0.96925002 1.455861e-38
-0.107517 0.13475783 0.96675003 1.6038449e-38
-0.107517 0.13725783 0.96675003 1.6495442e-38
-0.11001699 0.13475783 0.97175002 1.6128452e-38
-0.107517 0.13475783 0.97175002 1.5027181e-38
-0.11001699 0.13975783 0.96675003 1.1153153e-38
-0.107517 0.13975783 0.96675003 1.3632674e-38
-0.10501699 0.13475783 0.96675003 1.6406872e-38
-0.10251699 0.13475783 0.96675003 1.557602e-38
-0.100017 0.12725784 0.96675003 1.520761e-38
-0.100017 0.12725784 0.96925002 1.4376385e-38
-0.100017 0.12725784 0.97425002 1.502285e-38
-0.100017 0.12975784 0.96675003 1.4467529e-38
-0.100017 0.12975784 0.96925002 1.391398e-38
-0.100017 0.13225783 0.96675003 1.4471491e-38
-0.100017 0.13225783 0.96925002 1.3916874e-38
-0.097516991 0.12975784 0.96675003 1.5298008e-38
-0.097516991 0.12975784 0.96925002 1.493065e-38
-0.097516991 0.13225783 0.96675003 1.373248e-38
-0.097516991 0.13225783 0.96925002 1.3643504e-38
-0.100017 0.12975784 0.97175002 1.4836306e-38
-0.100017 0.12975784 0.97425002 1.437713e-38
-0.100017 0.13225783 0.97175002 1.3549886e-38
-0.100017 0.13225783 0.97425002 1.3916521e-38
-0.097516991 0.12975784 0.97175002 1.4931726e-38
-0.097516991 0.12975784 0.97425002 1.4931023e-38
-0.097516991 0.13225783 0.97175002 1.5485992e-38
-0.097516991 0.13225783 0.97425002 1.3734978e-38
-0.095016994 0.13225783 0.96675003 1.6589102e-38
-0.095016994 0.13225783 0.96925002 1.640579e-38
-0.092516996 0.13225783 0.96675003 1.6772415e-38
-0.092516996 0.13225783 0.96925002 1.6682014e-38
-0.095016994 0.13225783 0.97175002 1.6038109e-38
-0.100017 0.12725784 0.97675008 1.4930301e-38
-0.100017 0.12975784 0.97675008 1.5113992e-38
-0.100017 0.13225783 0.97675008 1.437713e-38
-0.100017 0.13475783 0.96675003 1.5575318e-38
-0.100017 0.13725783 0.96675003 1.5760025e-38
-0.097516991 0.13475783 0.96675003 1.5205815e-38
-0.097516991 0.13475783 0.96925002 1.5390562e-38
-0.097516991 0.13725783 0.96675003 1.6587677e-38
-0.097516991 0.13725783 0.96925002 1.5665364e-38
-0.100017 0.13475783 0.97175002 1.382648e-38
-0.097516991 0.13475783 0.97175002 1.4375694e-38
-0.097516991 0.13725783 0.97175002 1.4835603e-38
-0.100017 0.13975783 0.96675003 1.5115402e-38
-0.097516991 0.13975783 0.96675003 1.5669291e-38
-0.097516991 0.13975783 0.96925002 1.6403635e-38
-0.095016994 0.13475783 0.96675003 1.612738e-38
-0.095016994 0.13475783 0.96925002 1.6128449e-38
-0.095016994 0.13725783 0.96675003 1.5296549e-38
-0.095016994 0.13725783 0.96925002 1.5389092e-38
-0.092516996 0.13475783 0.96675003 1.6774169e-38
-0.092516996 0.13475783 0.96925002 1.6589786e-38
-0.092516996 0.13725783 0.96675003 1.7045023e-38
-0.092516996 0.13725783 0.96925002 1.649544e-38
-0.095016994 0.13475783 0.97175002 1.5667121e-38
-0.095016994 0.13475783 0.97425002 1.640541e-38
-0.095016994 0.13725783 0.97175002 1.5479493e-38
-0.092516996 0.13475783 0.97175002 1.6589818e-38
-0.092516996 0.13475783 0.97425002 1.6773468e-38
-0.092516996 0.13725783 0.97175002 1.6678036e-38
-0.095016994 0.13975783 0.96675003 1.2440967e-38
-0.095016994 0.13975783 0.96925002 1.5022092e-38
-0.092516996 0.13975783 0.96925002 1.548271e-38
-0.11001699 0.12475783 0.98675007 1.4748424e-38
-0.11001699 0.12475783 0.98925006 1.4471847e-38
-0.11001699 0.12725784 0.98675007 1.4748427e-38
-0.11001699 0.12725784 0.98925006 1.474843e-38
-0.107517 0.12475783 0.98675007 1.4837032e-38
-0.107517 0.12475783 0.98925006 1.3826477e-38
-0.11001699 0.12475783 0.99175006 1.4469697e-38
-0.11001699 0.12475783 0.99425006 1.3914372e-38
-0.11001699 0.12725784 0.99175006 1.5207613e-38
-0.11001699 0.12725784 0.99425006 1.4284579e-38
-0.107517 0.12475783 0.99175006 1.4379647e-38
-0.107517 0.12475783 0.99425006 1.5116836e-38
-0.107517 0.12725784 0.99175006 1.4104114e-38
-0.107517 0.12725784 0.99425006 1.4103764e-38
-0.10501699 0.12475783 0.99175006 1.4840625e-38
-0.10501699 0.12475783 0.99425006 1.4932821e-38
-0.10501699 0.12725784 0.99175006 1.4934243e-38
-0.10501699 0.12725784 0.99425006 1.4933524e-38
-0.11001699 0.12475783 0.99675006 1.3916521e-38
-0.107517 0.12475783 0.99675006 1.5116483e-38
-0.090016991 0.13225783 0.96925002 1.7417401e-38
-0.090016991 0.13475783 0.96925002 1.723084e-38
-0.090016991 0.13725783 0.96675003 1.7873708e-38
-0.090016991 0.13725783 0.96925002 1.6678777e-38
-0.090016991 0.13975783 0.96925002 1.5849762e-38
