# .PCD v0.7 - Point Cloud Data file format
VERSION 0.7
FIELDS x y z rgb
SIZE 4 4 4 4
TYPE F F F F
COUNT 1 1 1 1
WIDTH 943
HEIGHT 1
VIEWPOINT 0 0 0 1 0 0 0
POINTS 943
DATA ascii
-0.028074674 0.098507456 0.84125006 2.1375697e-38
-0.028074674 0.098507456 0.84375006 2.1560444e-38
-0.030574674 0.10350746 0.83375007 2.0362634e-38
-0.030574674 0.10350746 0.83625007 2.073069e-38
-0.028074674 0.10100745 0.83625007 2.1192031e-38
-0.028074674 0.10350746 0.83375007 2.1008e-38
-0.030574674 0.10350746 0.83875006 2.0362631e-38
-0.030574674 0.10350746 0.84125006 2.045411e-38
-0.028074674 0.10100745 0.83875006 2.1192029e-38
-0.028074674 0.10100745 0.84125006 2.1376416e-38
-0.028074674 0.10350746 0.83875006 2.1283148e-38
-0.028074674 0.10350746 0.84125006 2.1191676e-38
-0.030574674 0.10600746 0.83375007 2.0179319e-38
-0.030574674 0.10850745 0.83375007 2.0730693e-38
-0.028074674 0.10600746 0.83375007 2.0824688e-38
-0.028074674 0.10600746 0.83625007 2.1192385e-38
-0.028074674 0.10850745 0.83375007 2.0732128e-38
-0.030574674 0.10600746 0.83875006 2.0547025e-38
-0.030574674 0.10600746 0.84125006 2.0179675e-38
-0.028074674 0.10600746 0.83875006 2.1099836e-38
-0.028074674 0.10600746 0.84125006 2.1008003e-38
-0.028074674 0.10850745 0.83875006 2.0825044e-38
-0.028074674 0.10850745 0.84125006 2.0915806e-38
-0.033074673 0.11600745 0.83375007 2.0362631e-38
-0.033074673 0.11850746 0.83375007 2.0362631e-38
-0.030574674 0.11350746 0.83875006 2.0546662e-38
-0.030574674 0.11350746 0.84125006 2.109875e-38
-0.028074674 0.11100746 0.84125006 2.1100555e-38
-0.028074674 0.11350746 0.84125006 2.0546306e-38
-0.030574674 0.11600745 0.83375007 2.036262e-38
-0.030574674 0.11600745 0.83625007 2.0454817e-38
-0.030574674 0.11850746 0.83375007 2.0362987e-38
-0.028074674 0.11850746 0.83625007 2.0362631e-38
-0.030574674 0.11600745 0.83875006 2.0362984e-38
-0.030574674 0.11600745 0.84125006 2.0179321e-38
-0.028074674 0.11600745 0.84125006 2.0362987e-38
-0.028074674 0.11850746 0.84125006 2.0454464e-38
-0.028074674 0.10350746 0.84375006 2.1467542e-38
-0.028074674 0.10600746 0.84375006 2.1009082e-38
-0.028074674 0.11100746 0.84375006 2.1376413e-38
-0.028074674 0.11350746 0.84375006 2.109948e-38
-0.028074674 0.11350746 0.84625006 2.1100549e-38
-0.028074674 0.11100746 0.84875005 2.109983e-38
-0.028074674 0.11350746 0.84875005 2.0641729e-38
-0.028074674 0.11600745 0.84375006 2.1008e-38
-0.028074674 0.11600745 0.84625006 2.0916884e-38
-0.028074674 0.11850746 0.84375006 2.1099833e-38
-0.028074674 0.11850746 0.84625006 2.0732491e-38
-0.028074674 0.11600745 0.84875005 2.1008353e-38
-0.028074674 0.11600745 0.85125005 2.0825044e-38
-0.028074674 0.11850746 0.84875005 2.1008356e-38
-0.028074674 0.11850746 0.85125005 2.0732841e-38
-0.033074673 0.12100746 0.83375007 2.0179321e-38
-0.033074673 0.12350745 0.83375007 2.0179321e-38
-0.030574674 0.12100746 0.83375007 2.0271867e-38
-0.030574674 0.12350745 0.83375007 2.0364066e-38
-0.028074674 0.12100746 0.83625007 2.0179321e-38
-0.028074674 0.12350745 0.83625007 2.0639579e-38
-0.028074674 0.12600745 0.83875006 2.0180043e-38
-0.028074674 0.12850747 0.83875006 2.0178968e-38
-0.028074674 0.12100746 0.84375006 2.0824691e-38
-0.028074674 0.12100746 0.84625006 2.0549176e-38
-0.028074674 0.12350745 0.84375006 2.1192394e-38
-0.028074674 0.12350745 0.84625006 2.0641025e-38
-0.028074674 0.12100746 0.84875005 2.0639223e-38
-0.028074674 0.12100746 0.85125005 2.0548477e-38
-0.028074674 0.12350745 0.84875005 2.0640298e-38
-0.028074674 0.12350745 0.85125005 2.05481e-38
-0.028074674 0.12600745 0.84375006 2.0640295e-38
-0.028074674 0.12600745 0.84625006 2.0732494e-38
-0.028074674 0.12850747 0.84375006 2.0547749e-38
-0.028074674 0.12600745 0.84875005 2.0549179e-38
-0.028074674 0.12600745 0.85125005 2.0731772e-38
-0.028074674 0.12850747 0.84875005 2.0641729e-38
-0.028074674 0.12850747 0.85125005 2.0639574e-38
-0.028074674 0.12350745 0.85375005 2.1008709e-38
-0.028074674 0.12850747 0.85375005 2.0641376e-38
-0.028074674 0.12850747 0.85875005 2.0640649e-38
-0.028074674 0.13100746 0.84375006 2.0731419e-38
-0.028074674 0.13350746 0.84375006 2.0732128e-38
-0.030574674 0.13100746 0.84875005 2.0087478e-38
-0.030574674 0.13350746 0.84875005 2.0086753e-38
-0.028074674 0.13100746 0.84875005 2.0732128e-38
-0.028074674 0.13100746 0.85125005 2.0640295e-38
-0.028074674 0.13350746 0.84875005 2.0179321e-38
-0.028074674 0.13350746 0.85125005 2.0640646e-38
-0.030574674 0.13600746 0.85125005 1.990273e-38
-0.028074674 0.13600746 0.85125005 2.0547381e-38
-0.028074674 0.13100746 0.85625005 2.0547028e-38
-0.028074674 0.13350746 0.85375005 2.0362984e-38
-0.028074674 0.13350746 0.85625005 2.0640293e-38
-0.028074674 0.13100746 0.85875005 2.1008707e-38
-0.028074674 0.13350746 0.85875005 2.0732841e-38
-0.028074674 0.13350746 0.8612501 2.0547025e-38
-0.028074674 0.13600746 0.85625005 2.0640295e-38
-0.028074674 0.13850746 0.85625005 2.0547378e-38
-0.028074674 0.13600746 0.85875005 2.0456983e-38
-0.028074674 0.13600746 0.8612501 2.0455182e-38
-0.025574673 0.098507456 0.84375006 2.0549896e-38
-0.025574673 0.098507456 0.84625006 1.603231e-38
-0.025574673 0.098507456 0.84875005 1.6215628e-38
-0.025574673 0.098507456 0.85125005 1.5847918e-38
-0.023074673 0.098507456 0.84875005 1.3359737e-38
-0.023074673 0.098507456 0.85125005 1.4096571e-38
-0.020574674 0.098507456 0.84875005 1.1976803e-38
-0.020574674 0.098507456 0.85125005 1.1149556e-38
-0.023074673 0.098507456 0.85375005 1.3360453e-38
-0.020574674 0.098507456 0.85375005 1.0780775e-38
-0.020574674 0.098507456 0.85625005 1.1239582e-38
-0.018074673 0.098507456 0.85375005 1.1798186e-38
-0.018074673 0.098507456 0.85625005 1.400581e-38
-0.018074673 0.098507456 0.85875005 1.529047e-38
-0.010574673 0.098507456 0.85125005 9.8627814e-39
-0.0080746738 0.098507456 0.84875005 1.1606929e-38
-0.0080746738 0.098507456 0.85125005 1.1977851e-38
-0.015574673 0.098507456 0.85375005 1.1337567e-38
-0.015574673 0.098507456 0.85625005 1.5197555e-38
-0.013074674 0.098507456 0.85375005 1.2811618e-38
-0.013074674 0.098507456 0.85625005 1.4189164e-38
-0.015574673 0.096007459 0.85875005 2.0271883e-38
-0.015574673 0.098507456 0.85875005 1.4464672e-38
-0.015574673 0.098507456 0.8612501 2.0364078e-38
-0.013074674 0.096007459 0.85875005 1.3819994e-38
-0.013074674 0.098507456 0.8612501 1.4093702e-38
-0.010574673 0.096007459 0.85625005 1.0232639e-38
-0.010574673 0.098507456 0.85375005 1.2075835e-38
-0.010574673 0.098507456 0.85625005 1.216373e-38
-0.0080746738 0.096007459 0.85625005 1.2992352e-38
-0.0080746738 0.098507456 0.85375005 1.2068602e-38
-0.010574673 0.096007459 0.85875005 1.409587e-38
-0.0080746738 0.096007459 0.85875005 1.3268943e-38
-0.0055746734 0.098507456 0.84875005 1.8798188e-38
-0.0055746734 0.098507456 0.85125005 2.1008003e-38
-0.0030746735 0.098507456 0.84875005 2.0549176e-38
-0.0030746735 0.098507456 0.85125005 2.0915806e-38
-0.0055746734 0.096007459 0.85625005 2.0272236e-38
-0.0055746734 0.098507456 0.85375005 2.0640298e-38
-0.0030746735 0.098507456 0.85375005 2.0547731e-38
-0.025574673 0.10350746 0.83375007 1.9996725e-38
-0.025574673 0.10350746 0.83875006 2.036515e-38
-0.025574673 0.10350746 0.84125006 2.0181838e-38
-0.025574673 0.10600746 0.83375007 1.9997076e-38
-0.025574673 0.10600746 0.83625007 2.0639942e-38
-0.025574673 0.10850745 0.83625007 2.0456627e-38
-0.025574673 0.10600746 0.83875006 2.0456627e-38
-0.025574673 0.10600746 0.84125006 2.0274034e-38
-0.025574673 0.10850745 0.83875006 2.0181838e-38
-0.025574673 0.10850745 0.84125006 2.036515e-38
-0.023074673 0.10600746 0.83875006 1.3451908e-38
-0.023074673 0.10600746 0.84125006 1.3911459e-38
-0.023074673 0.10850745 0.83875006 1.3911456e-38
-0.023074673 0.10850745 0.84125006 1.3912537e-38
-0.025574673 0.11100746 0.84125006 1.5201829e-38
-0.025574673 0.11350746 0.84125006 1.5202551e-38
-0.025574673 0.11600745 0.84125006 1.9813413e-38
-0.025574673 0.10100745 0.84375006 1.4466785e-38
-0.025574673 0.10100745 0.84625006 1.4376032e-38
-0.025574673 0.10350746 0.84375006 1.5109281e-38
-0.025574673 0.10350746 0.84625006 1.4650823e-38
-0.023074673 0.10100745 0.84625006 1.1617763e-38
-0.023074673 0.10350746 0.84375006 1.4094785e-38
-0.023074673 0.10350746 0.84625006 1.3820357e-38
-0.025574673 0.10100745 0.84875005 1.4651545e-38
-0.025574673 0.10100745 0.85125005 1.4468227e-38
-0.025574673 0.10350746 0.84875005 1.4558631e-38
-0.025574673 0.10350746 0.85125005 1.4835568e-38
-0.023074673 0.10100745 0.84875005 1.3272253e-38
-0.023074673 0.10100745 0.85125005 1.3087155e-38
-0.023074673 0.10350746 0.84875005 1.2902369e-38
-0.025574673 0.10600746 0.84375006 1.5018883e-38
-0.025574673 0.10600746 0.84625006 1.4741574e-38
-0.025574673 0.10850745 0.84375006 1.511e-38
-0.025574673 0.10850745 0.84625006 1.4834845e-38
-0.023074673 0.10600746 0.84375006 1.3634523e-38
-0.023074673 0.10600746 0.84625006 1.3635951e-38
-0.023074673 0.10850745 0.84375006 1.391111e-38
-0.025574673 0.10600746 0.84875005 1.5109637e-38
-0.025574673 0.10600746 0.85125005 1.4834489e-38
-0.020574674 0.10100745 0.84625006 1.041922e-38
-0.020574674 0.10350746 0.84375006 1.4557559e-38
-0.020574674 0.10350746 0.84625006 1.4742672e-38
-0.020574674 0.10100745 0.84875005 1.1612371e-38
-0.020574674 0.10100745 0.85125005 1.1707072e-38
-0.020574674 0.10350746 0.84875005 1.3639581e-38
-0.020574674 0.10350746 0.85125005 1.3824675e-38
-0.018074673 0.10100745 0.84875005 1.2809798e-38
-0.018074673 0.10100745 0.85125005 1.3084945e-38
-0.018074673 0.10350746 0.84875005 1.2162986e-38
-0.018074673 0.10350746 0.85125005 1.3363352e-38
-0.020574674 0.10600746 0.84375006 1.5013861e-38
-0.020574674 0.10600746 0.84625006 1.4280612e-38
-0.020574674 0.10850745 0.84375006 1.4740871e-38
-0.020574674 0.10850745 0.84625006 1.4926334e-38
-0.018074673 0.10850745 0.84625006 1.2160462e-38
-0.020574674 0.10600746 0.84875005 1.4557561e-38
-0.020574674 0.10600746 0.85125005 1.4925987e-38
-0.020574674 0.10850745 0.84875005 1.5202195e-38
-0.018074673 0.10600746 0.84875005 1.2529602e-38
-0.018074673 0.10600746 0.85125005 1.4095867e-38
-0.018074673 0.10850745 0.84875005 1.2437756e-38
-0.020574674 0.10100745 0.85375005 1.1244299e-38
-0.018074673 0.10100745 0.85375005 1.2534682e-38
-0.018074673 0.10100745 0.85625005 1.2623615e-38
-0.025574673 0.11100746 0.84375006 1.5109634e-38
-0.025574673 0.11100746 0.84625006 1.4742293e-38
-0.025574673 0.11350746 0.84375006 1.5385145e-38
-0.025574673 0.11350746 0.84625006 1.4925971e-38
-0.023074673 0.11100746 0.84375006 1.427952e-38
-0.023074673 0.11100746 0.84625006 1.4462113e-38
-0.023074673 0.11350746 0.84375006 1.4188403e-38
-0.023074673 0.11350746 0.84625006 1.4646858e-38
-0.025574673 0.11350746 0.84875005 1.4741572e-38
-0.025574673 0.11600745 0.84375006 1.5018883e-38
-0.025574673 0.11600745 0.84625006 1.5294392e-38
-0.025574673 0.11850746 0.84375006 1.5479861e-38
-0.025574673 0.11850746 0.84625006 1.5018883e-38
-0.023074673 0.11600745 0.84375006 1.4923803e-38
-0.023074673 0.11600745 0.84625006 1.4923803e-38
-0.023074673 0.11850746 0.84375006 1.4923801e-38
-0.023074673 0.11850746 0.84625006 1.4464633e-38
-0.025574673 0.11600745 0.84875005 1.9997091e-38
-0.025574673 0.11600745 0.85125005 1.5019239e-38
-0.025574673 0.11850746 0.84875005 1.5203278e-38
-0.025574673 0.11850746 0.85125005 1.5387663e-38
-0.023074673 0.11600745 0.84875005 1.4556107e-38
-0.023074673 0.11850746 0.84875005 1.4923803e-38
-0.020574674 0.11100746 0.84375006 1.5109281e-38
-0.020574674 0.11100746 0.84625006 1.5384779e-38
-0.020574674 0.11350746 0.84375006 1.5386947e-38
-0.020574674 0.11350746 0.84625006 1.5569173e-38
-0.018074673 0.11100746 0.84625006 1.4462464e-38
-0.020574674 0.11100746 0.84875005 1.556954e-38
-0.020574674 0.11350746 0.84875005 1.5202185e-38
-0.020574674 0.11350746 0.85125005 1.5479508e-38
-0.018074673 0.11100746 0.84875005 1.2712917e-38
-0.018074673 0.11350746 0.84875005 1.2529605e-38
-0.018074673 0.11350746 0.85125005 1.2437756e-38
-0.020574674 0.11600745 0.84375006 1.5937597e-38
-0.020574674 0.11600745 0.84625006 1.6029792e-38
-0.020574674 0.11850746 0.84625006 1.5386591e-38
-0.020574674 0.11600745 0.84875005 1.5755019e-38
-0.020574674 0.11600745 0.85125005 1.5847918e-38
-0.020574674 0.11850746 0.84875005 1.6029792e-38
-0.020574674 0.11850746 0.85125005 1.5847918e-38
-0.018074673 0.11600745 0.84875005 1.4096218e-38
-0.018074673 0.11600745 0.85125005 1.2622157e-38
-0.018074673 0.11850746 0.84875005 1.2070065e-38
-0.018074673 0.11850746 0.85125005 1.4004007e-38
-0.020574674 0.11850746 0.85375005 1.5479142e-38
-0.018074673 0.11850746 0.85375005 1.2438126e-38
-0.015574673 0.10350746 0.84625006 1.1236696e-38
-0.013074674 0.10350746 0.84625006 1.4095836e-38
-0.015574673 0.10100745 0.84875005 1.1794206e-38
-0.015574673 0.10100745 0.85125005 1.1797819e-38
-0.015574673 0.10350746 0.84875005 1.0226878e-38
-0.013074674 0.10100745 0.84875005 1.3636665e-38
-0.013074674 0.10100745 0.85125005 1.3086394e-38
-0.013074674 0.10350746 0.84875005 1.3819994e-38
-0.015574673 0.10600746 0.84625006 1.022506e-38
-0.015574673 0.10850745 0.84625006 9.9488337e-39
-0.013074674 0.10600746 0.84625006 1.4003306e-38
-0.013074674 0.10850745 0.84625006 1.335792e-38
-0.015574673 0.10600746 0.84875005 1.0593494e-38
-0.015574673 0.10850745 0.84875005 1.0777884e-38
-0.013074674 0.10600746 0.84875005 1.1053404e-38
-0.013074674 0.10850745 0.84875005 1.3265724e-38
-0.010574673 0.10100745 0.84625006 1.1154249e-38
-0.010574673 0.10350746 0.84625006 1.3729596e-38
-0.0080746738 0.10100745 0.84375006 1.2531791e-38
-0.0080746738 0.10100745 0.84625006 1.3176785e-38
-0.0080746738 0.10350746 0.84375006 1.3911459e-38
-0.0080746738 0.10350746 0.84625006 1.3637044e-38
-0.010574673 0.10100745 0.84875005 1.2260596e-38
-0.010574673 0.10100745 0.85125005 1.2260596e-38
-0.010574673 0.10350746 0.84875005 1.3547733e-38
-0.0080746738 0.10100745 0.84875005 1.2622915e-38
-0.010574673 0.10600746 0.84375006 1.3267173e-38
-0.010574673 0.10600746 0.84625006 1.3267886e-38
-0.010574673 0.10850745 0.84375006 1.3820341e-38
-0.010574673 0.10850745 0.84625006 1.3820341e-38
-0.0080746738 0.10600746 0.84375006 1.3542678e-38
-0.0080746738 0.10850745 0.84375006 1.4003659e-38
-0.010574673 0.10600746 0.84875005 1.4465363e-38
-0.015574673 0.11100746 0.84625006 9.9492121e-39
-0.013074674 0.11100746 0.84625006 1.4464283e-38
-0.015574673 0.11100746 0.84875005 1.0132865e-38
-0.015574673 0.11350746 0.84875005 1.0316909e-38
-0.015574673 0.11350746 0.85125005 1.0317256e-38
-0.013074674 0.11100746 0.84875005 1.0776792e-38
-0.013074674 0.11350746 0.84875005 1.4556813e-38
-0.013074674 0.11350746 0.85125005 1.4463899e-38
-0.015574673 0.11600745 0.84875005 1.0225786e-38
-0.015574673 0.11600745 0.85125005 1.0501298e-38
-0.015574673 0.11850746 0.85125005 1.0409822e-38
-0.013074674 0.11600745 0.84875005 1.4465713e-38
-0.013074674 0.11600745 0.85125005 1.4923447e-38
-0.013074674 0.11850746 0.85125005 1.4740152e-38
-0.010574673 0.11100746 0.84375006 1.3728144e-38
-0.010574673 0.11100746 0.84625006 1.3819964e-38
-0.0080746738 0.11100746 0.84375006 1.4003292e-38
-0.0080746738 0.11100746 0.84625006 1.4554662e-38
-0.0080746738 0.11350746 0.84375006 1.4464264e-38
-0.0080746738 0.11350746 0.84625006 1.4369551e-38
-0.010574673 0.11350746 0.84875005 1.3820341e-38
-0.010574673 0.11350746 0.85125005 1.4833417e-38
-0.0080746738 0.11600745 0.84625006 1.4923801e-38
-0.010574673 0.11600745 0.84875005 1.4373864e-38
-0.010574673 0.11600745 0.85125005 1.4556826e-38
-0.010574673 0.11850746 0.85125005 1.4280599e-38
-0.0080746738 0.11600745 0.84875005 1.5292583e-38
-0.0080746738 0.11600745 0.85125005 1.5567022e-38
-0.0080746738 0.11850746 0.84875005 1.5384428e-38
-0.0080746738 0.11850746 0.85125005 1.5200029e-38
-0.015574673 0.11850746 0.85375005 1.0410524e-38
-0.013074674 0.11850746 0.85375005 1.1514374e-38
-0.025574673 0.12100746 0.84375006 2.0181119e-38
-0.025574673 0.12100746 0.84625006 1.5019239e-38
-0.025574673 0.12350745 0.84375006 1.9996728e-38
-0.025574673 0.12350745 0.84625006 1.9720861e-38
-0.023074673 0.12100746 0.84625006 1.5292583e-38
-0.023074673 0.12350745 0.84625006 1.5476977e-38
-0.025574673 0.12100746 0.84875005 1.5572057e-38
-0.025574673 0.12100746 0.85125005 1.5479511e-38
-0.025574673 0.12350745 0.84875005 1.5479142e-38
-0.025574673 0.12350745 0.85125005 1.5479142e-38
-0.023074673 0.12100746 0.84875005 1.4926322e-38
-0.023074673 0.12100746 0.85125005 1.5200032e-38
-0.023074673 0.12350745 0.84875005 1.5477343e-38
-0.023074673 0.12350745 0.85125005 1.5109634e-38
-0.025574673 0.12600745 0.84375006 1.9995653e-38
-0.025574673 0.12600745 0.84625006 1.9811628e-38
-0.025574673 0.12600745 0.84875005 1.5937962e-38
-0.025574673 0.12600745 0.85125005 1.5755369e-38
-0.025574673 0.12850747 0.84875005 1.5848648e-38
-0.025574673 0.12850747 0.85125005 1.9628666e-38
-0.023074673 0.12600745 0.84875005 1.5845401e-38
-0.023074673 0.12600745 0.85125005 1.6030511e-38
-0.023074673 0.12850747 0.85125005 1.6029792e-38
-0.020574674 0.12100746 0.84875005 1.5940115e-38
-0.020574674 0.12100746 0.85125005 1.6214542e-38
-0.020574674 0.12350745 0.85125005 1.6583332e-38
-0.018074673 0.12100746 0.85125005 1.2989132e-38
-0.020574674 0.12600745 0.85125005 1.6859912e-38
-0.020574674 0.12850747 0.85125005 1.6767007e-38
-0.025574673 0.12100746 0.85375005 1.5111436e-38
-0.025574673 0.12350745 0.85375005 1.5570259e-38
-0.023074673 0.12350745 0.85375005 1.5569167e-38
-0.025574673 0.12600745 0.85375005 1.5570259e-38
-0.025574673 0.12600745 0.85625005 1.6031594e-38
-0.025574673 0.12850747 0.85375005 1.5848645e-38
-0.025574673 0.12850747 0.85625005 1.9720861e-38
-0.023074673 0.12600745 0.85375005 1.5109631e-38
-0.023074673 0.12600745 0.85625005 1.6030145e-38
-0.023074673 0.12850747 0.85375005 1.5572041e-38
-0.023074673 0.12850747 0.85625005 1.5754282e-38
-0.025574673 0.12850747 0.85875005 1.9536116e-38
-0.020574674 0.12100746 0.85375005 1.5756449e-38
-0.020574674 0.12350745 0.85375005 1.5848648e-38
-0.018074673 0.12100746 0.85375005 1.2345933e-38
-0.018074673 0.12350745 0.85375005 1.2439205e-38
-0.018074673 0.12350745 0.85625005 1.2438126e-38
-0.020574674 0.12600745 0.85375005 1.6126663e-38
-0.020574674 0.12600745 0.85625005 1.5849367e-38
-0.020574674 0.12850747 0.85375005 1.6678389e-38
-0.020574674 0.12850747 0.85625005 1.6399669e-38
-0.018074673 0.12600745 0.85375005 1.3358626e-38
-0.018074673 0.12600745 0.85625005 1.271579e-38
-0.018074673 0.12850747 0.85375005 1.2439207e-38
-0.018074673 0.12850747 0.85625005 1.3174595e-38
-0.018074673 0.12600745 0.85875005 1.2438128e-38
-0.018074673 0.12850747 0.85875005 1.2532122e-38
-0.025574673 0.13100746 0.84875005 1.9904177e-38
-0.025574673 0.13100746 0.85125005 1.9535397e-38
-0.025574673 0.13350746 0.84875005 2.0087126e-38
-0.025574673 0.13350746 0.85125005 1.9903458e-38
-0.023074673 0.13100746 0.85125005 1.6675518e-38
-0.025574673 0.13100746 0.85375005 1.630855e-38
-0.025574673 0.13100746 0.85625005 1.6214909e-38
-0.025574673 0.13350746 0.85375005 1.6492215e-38
-0.025574673 0.13350746 0.85625005 1.630855e-38
-0.023074673 0.13100746 0.85375005 1.6215613e-38
-0.023074673 0.13100746 0.85625005 1.6491124e-38
-0.023074673 0.13350746 0.85375005 1.6584035e-38
-0.023074673 0.13350746 0.85625005 1.6675515e-38
-0.025574673 0.13100746 0.85875005 1.612523e-38
-0.025574673 0.13350746 0.85875005 1.667553e-38
-0.023074673 0.13350746 0.85875005 1.6675164e-38
-0.025574673 0.13600746 0.85625005 1.6952474e-38
-0.025574673 0.13850746 0.85625005 1.7228704e-38
-0.023074673 0.13600746 0.85375005 1.6858111e-38
-0.023074673 0.13600746 0.85625005 1.676771e-38
-0.023074673 0.13850746 0.85625005 1.6674814e-38
-0.025574673 0.13600746 0.85875005 1.6770247e-38
-0.025574673 0.13600746 0.8612501 1.9996725e-38
-0.025574673 0.13850746 0.85875005 1.6954991e-38
-0.025574673 0.13850746 0.8612501 1.9994576e-38
-0.023074673 0.13600746 0.85875005 1.6675883e-38
-0.023074673 0.13850746 0.85875005 1.7873336e-38
-0.020574674 0.13100746 0.85375005 1.7229405e-38
-0.020574674 0.13100746 0.85625005 1.5757168e-38
-0.020574674 0.13350746 0.85375005 1.750635e-38
-0.020574674 0.13350746 0.85625005 1.7689667e-38
-0.018074673 0.13100746 0.85625005 1.3083834e-38
-0.018074673 0.13350746 0.85625005 1.3269664e-38
-0.020574674 0.13100746 0.85875005 1.6034467e-38
-0.020574674 0.13350746 0.85875005 1.6494723e-38
-0.018074673 0.13100746 0.85875005 1.280835e-38
-0.018074673 0.13350746 0.85875005 1.3360791e-38
-0.020574674 0.13600746 0.85375005 1.7964459e-38
-0.020574674 0.13600746 0.85625005 1.7781862e-38
-0.020574674 0.13850746 0.85625005 1.8058449e-38
-0.020574674 0.13600746 0.85875005 1.732125e-38
-0.020574674 0.13850746 0.85875005 1.7689667e-38
-0.020574674 0.13850746 0.8612501 1.7321603e-38
-0.018074673 0.13600746 0.85875005 1.3451908e-38
-0.018074673 0.13850746 0.85875005 1.3451557e-38
-0.018074673 0.13850746 0.8612501 1.4740125e-38
-0.015574673 0.12100746 0.85125005 1.0593494e-38
-0.013074674 0.12100746 0.85125005 1.5108918e-38
-0.013074674 0.12350745 0.85125005 1.5750684e-38
-0.010574673 0.12100746 0.85125005 1.4741927e-38
-0.010574673 0.12350745 0.85125005 1.483342e-38
-0.0080746738 0.12100746 0.84875005 1.5109634e-38
-0.0080746738 0.12100746 0.85125005 1.529258e-38
-0.0080746738 0.12350745 0.85125005 1.593615e-38
-0.0080746738 0.12600745 0.85125005 1.5752835e-38
-0.0080746738 0.12850747 0.85125005 1.6490402e-38
-0.015574673 0.12100746 0.85375005 1.0409825e-38
-0.015574673 0.12350745 0.85375005 1.0687486e-38
-0.015574673 0.12350745 0.85625005 1.0871159e-38
-0.013074674 0.12100746 0.85375005 1.5294028e-38
-0.013074674 0.12350745 0.85375005 1.5293299e-38
-0.013074674 0.12350745 0.85625005 1.1882418e-38
-0.015574673 0.12600745 0.85375005 1.1698746e-38
-0.015574673 0.12600745 0.85625005 1.0596014e-38
-0.015574673 0.12850747 0.85375005 1.0964077e-38
-0.015574673 0.12850747 0.85625005 1.1515434e-38
-0.013074674 0.12600745 0.85375005 1.5476972e-38
-0.013074674 0.12600745 0.85625005 1.5201832e-38
-0.013074674 0.12850747 0.85375005 1.5939019e-38
-0.013074674 0.12850747 0.85625005 1.5478436e-38
-0.015574673 0.12600745 0.85875005 1.0964074e-38
-0.015574673 0.12850747 0.85875005 1.0872242e-38
-0.013074674 0.12850747 0.85875005 1.1975002e-38
-0.010574673 0.12100746 0.85375005 1.5479493e-38
-0.010574673 0.12350745 0.85375005 1.5478789e-38
-0.010574673 0.12600745 0.85375005 1.5478792e-38
-0.010574673 0.12600745 0.85625005 1.5753581e-38
-0.010574673 0.12850747 0.85375005 1.5479508e-38
-0.010574673 0.12850747 0.85625005 1.5480214e-38
-0.0080746738 0.12600745 0.85375005 1.5844679e-38
-0.0080746738 0.12850747 0.85375005 1.5662086e-38
-0.0080746738 0.13100746 0.85125005 1.6491124e-38
-0.015574673 0.13100746 0.85625005 1.1423954e-38
-0.015574673 0.13350746 0.85625005 1.1610145e-38
-0.013074674 0.13100746 0.85625005 1.6122697e-38
-0.013074674 0.13350746 0.85625005 1.557206e-38
-0.015574673 0.13100746 0.85875005 1.1056992e-38
-0.015574673 0.13350746 0.85875005 1.1240291e-38
-0.013074674 0.13100746 0.85875005 1.5571341e-38
-0.013074674 0.13350746 0.85875005 1.6489701e-38
-0.013074674 0.13600746 0.85625005 1.6676231e-38
-0.015574673 0.13600746 0.85875005 1.1792386e-38
-0.015574673 0.13850746 0.85875005 1.2527788e-38
-0.015574673 0.13850746 0.8612501 1.2434891e-38
-0.013074674 0.13600746 0.85875005 1.6399651e-38
-0.013074674 0.13600746 0.8612501 1.6675868e-38
-0.013074674 0.13850746 0.85875005 1.6676231e-38
-0.013074674 0.13850746 0.8612501 1.667553e-38
-0.010574673 0.13100746 0.85375005 1.5848998e-38
-0.010574673 0.13100746 0.85625005 1.6309975e-38
-0.010574673 0.13350746 0.85375005 1.6308174e-38
-0.010574673 0.13350746 0.85625005 1.667553e-38
-0.0080746738 0.13100746 0.85375005 1.6214542e-38
-0.0080746738 0.13100746 0.85625005 1.6491474e-38
-0.0080746738 0.13350746 0.85375005 1.6583322e-38
-0.0080746738 0.13350746 0.85625005 1.6583322e-38
-0.010574673 0.13100746 0.85875005 1.6124875e-38
-0.010574673 0.13350746 0.85875005 1.6861348e-38
-0.0080746738 0.13350746 0.85875005 1.6676587e-38
-0.010574673 0.13600746 0.85375005 1.6307827e-38
-0.010574673 0.13600746 0.85625005 1.6767726e-38
-0.010574673 0.13850746 0.85625005 1.6492218e-38
-0.0080746738 0.13600746 0.85375005 1.6676236e-38
-0.0080746738 0.13600746 0.85625005 1.6953178e-38
-0.0080746738 0.13850746 0.85625005 1.7227967e-38
-0.010574673 0.13600746 0.85875005 1.6953196e-38
-0.010574673 0.13850746 0.85875005 1.7137587e-38
-0.010574673 0.13850746 0.8612501 1.6494017e-38
-0.0080746738 0.13600746 0.85875005 1.6858827e-38
-0.0080746738 0.13850746 0.85875005 1.7320884e-38
-0.0055746734 0.10100745 0.84375006 2.027187e-38
-0.0055746734 0.10100745 0.84625006 2.0639577e-38
-0.0055746734 0.10350746 0.84375006 2.0271514e-38
-0.0055746734 0.10350746 0.84625006 1.8339021e-38
-0.0030746735 0.10100745 0.84625006 2.0730696e-38
-0.0030746735 0.10350746 0.84375006 2.0364432e-38
-0.0030746735 0.10350746 0.84625006 2.0823595e-38
-0.0055746734 0.10100745 0.84875005 1.8246488e-38
-0.0055746734 0.10100745 0.85125005 2.0547744e-38
-0.0030746735 0.10100745 0.84875005 2.0455182e-38
-0.0030746735 0.10100745 0.85125005 2.0731043e-38
-0.0030746735 0.10350746 0.84875005 2.0915084e-38
-0.0030746735 0.10350746 0.85125005 2.0364419e-38
-0.0055746734 0.10600746 0.84375006 2.0455185e-38
-0.0055746734 0.10850745 0.84375006 2.0363713e-38
-0.0030746735 0.10600746 0.84375006 2.0547015e-38
-0.0030746735 0.10600746 0.84625006 2.0731399e-38
-0.0030746735 0.10850745 0.84375006 2.0547015e-38
-0.0030746735 0.10600746 0.84875005 2.0547731e-38
-0.00057467347 0.10100745 0.84625006 2.0454464e-38
-0.00057467347 0.10350746 0.84375006 1.9996009e-38
-0.00057467347 0.10350746 0.84625006 2.054701e-38
-0.00057467347 0.10100745 0.84875005 2.0362631e-38
-0.00057467347 0.10100745 0.85125005 2.0454817e-38
-0.00057467347 0.10350746 0.84875005 2.0546662e-38
-0.00057467347 0.10350746 0.85125005 2.0272223e-38
-0.00057467347 0.10600746 0.84875005 2.0455536e-38
-0.0055746734 0.11100746 0.84375006 2.0364788e-38
-0.0055746734 0.11100746 0.84625006 2.0732125e-38
-0.0055746734 0.11350746 0.84375006 2.0364069e-38
-0.0055746734 0.11350746 0.84625006 2.109983e-38
-0.0030746735 0.11100746 0.84375006 2.0364432e-38
-0.0030746735 0.11100746 0.84625006 2.0272233e-38
-0.0030746735 0.11350746 0.84375006 2.0730325e-38
-0.0030746735 0.11350746 0.84625006 2.05481e-38
-0.0030746735 0.11350746 0.84875005 2.0640298e-38
-0.0055746734 0.11600745 0.84625006 2.045698e-38
-0.0030746735 0.11600745 0.84625006 2.0546306e-38
-0.0055746734 0.11600745 0.84875005 2.0549176e-38
-0.0055746734 0.11600745 0.85125005 1.9349191e-38
-0.0055746734 0.11850746 0.84875005 2.0640649e-38
-0.0055746734 0.11850746 0.85125005 2.0456983e-38
-0.0030746735 0.11600745 0.84875005 2.045698e-38
-0.0030746735 0.11600745 0.85125005 2.0454464e-38
-0.0030746735 0.11850746 0.84875005 2.0271514e-38
-0.0030746735 0.11850746 0.85125005 2.0454461e-38
-0.00057467347 0.11600745 0.85125005 2.0822873e-38
-0.00057467347 0.11850746 0.85125005 2.0454461e-38
-0.0030746735 0.11850746 0.85375005 2.0364063e-38
-0.00057467347 0.11850746 0.85375005 2.0454461e-38
-0.0055746734 0.12100746 0.84875005 2.0456983e-38
-0.0055746734 0.12100746 0.85125005 2.0640649e-38
-0.0055746734 0.12350745 0.85125005 2.0180038e-38
-0.0030746735 0.12100746 0.84875005 2.0272589e-38
-0.0030746735 0.12100746 0.85125005 2.0640649e-38
-0.0030746735 0.12350745 0.85125005 2.0272233e-38
-0.0055746734 0.12600745 0.85125005 2.0640293e-38
-0.0055746734 0.12850747 0.85125005 2.0456983e-38
-0.0030746735 0.12600745 0.85125005 2.0548097e-38
-0.0030746735 0.12850747 0.85125005 2.0180038e-38
-0.00057467347 0.12100746 0.85125005 1.9994923e-38
-0.0030746735 0.12100746 0.85375005 2.0364419e-38
-0.0055746734 0.12600745 0.85375005 2.0549179e-38
-0.0055746734 0.12850747 0.85375005 2.045698e-38
-0.0030746735 0.12600745 0.85375005 2.0364788e-38
-0.0030746735 0.12850747 0.85375005 2.0364785e-38
-0.00057467347 0.12100746 0.85375005 2.0454464e-38
-0.0055746734 0.13100746 0.85125005 2.0456983e-38
-0.0030746735 0.13100746 0.85125005 2.0180038e-38
-0.0055746734 0.13100746 0.85375005 2.0732491e-38
-0.0055746734 0.13100746 0.85625005 2.0181472e-38
-0.0055746734 0.13350746 0.85375005 2.0272236e-38
-0.0055746734 0.13350746 0.85625005 2.0456627e-38
-0.0030746735 0.13100746 0.85375005 1.9996009e-38
-0.0030746735 0.13350746 0.85375005 2.0272236e-38
-0.0030746735 0.13350746 0.85625005 1.9996009e-38
-0.0055746734 0.13350746 0.85875005 2.0456983e-38
-0.0030746735 0.13350746 0.85875005 2.0272586e-38
-0.0055746734 0.13600746 0.85625005 2.018004e-38
-0.0055746734 0.13850746 0.85625005 2.0088924e-38
-0.0030746735 0.13600746 0.85625005 2.0272239e-38
-0.0055746734 0.13600746 0.85875005 2.027152e-38
-0.0055746734 0.13850746 0.85875005 2.0456627e-38
-0.0030746735 0.13850746 0.85875005 2.0180043e-38
-0.025574673 0.13350746 0.8637501 1.9535747e-38
-0.025574673 0.13600746 0.8637501 1.95361e-38
-0.025574673 0.13850746 0.8637501 2.018004e-38
-0.025574673 0.13850746 0.8662501 1.9902377e-38
-0.025574673 0.14100745 0.85625005 1.750672e-38
-0.023074673 0.14100745 0.85625005 1.7045376e-38
-0.025574673 0.14100745 0.85875005 1.7045389e-38
-0.025574673 0.14100745 0.8612501 1.7413095e-38
-0.025574673 0.14350745 0.85875005 1.7228704e-38
-0.025574673 0.14350745 0.8612501 1.9718346e-38
-0.023074673 0.14100745 0.85875005 1.8335029e-38
-0.023074673 0.14100745 0.8612501 1.8241411e-38
-0.023074673 0.14350745 0.85875005 1.8243917e-38
-0.023074673 0.14350745 0.8612501 1.8336478e-38
-0.025574673 0.14600746 0.85875005 1.7598565e-38
-0.025574673 0.14600746 0.8612501 1.7597844e-38
-0.025574673 0.14850746 0.85875005 1.7139036e-38
-0.025574673 0.14850746 0.8612501 1.7323065e-38
-0.023074673 0.14600746 0.8612501 1.8703819e-38
-0.023074673 0.14850746 0.8612501 1.8889289e-38
-0.020574674 0.14100745 0.85875005 1.7966972e-38
-0.020574674 0.14100745 0.8612501 1.7230136e-38
-0.020574674 0.14350745 0.8612501 1.7783304e-38
-0.018074673 0.14100745 0.8612501 1.3451908e-38
-0.018074673 0.14350745 0.8612501 1.4741209e-38
-0.025574673 0.15100746 0.8612501 1.7415266e-38
-0.015574673 0.14100745 0.8612501 1.234521e-38
-0.013074674 0.14100745 0.8612501 1.704502e-38
-0.013074674 0.14350745 0.8612501 1.7046092e-38
-0.010574673 0.14100745 0.85875005 1.732233e-38
-0.010574673 0.14100745 0.8612501 1.7137938e-38
-0.010574673 0.14350745 0.8612501 1.7506717e-38
-0.0080746738 0.14100745 0.85875005 1.7321237e-38
-0.0080746738 0.14100745 0.8612501 1.7320887e-38
-0.0080746738 0.14350745 0.85875005 1.7322686e-38
-0.0080746738 0.14350745 0.8612501 1.778186e-38
-0.010574673 0.14600746 0.8612501 1.7690042e-38
-0.010574673 0.14850746 0.8612501 1.7873708e-38
-0.0080746738 0.14600746 0.85875005 1.7966254e-38
-0.0080746738 0.14600746 0.8612501 1.7598194e-38
-0.0080746738 0.14850746 0.8612501 1.7505281e-38
-0.010574673 0.15100746 0.8612501 1.8058465e-38
-0.0080746738 0.15100746 0.8612501 1.8334313e-38
-0.0055746734 0.14100745 0.85875005 2.0272233e-38
-0.0055746734 0.14100745 0.8612501 2.0363713e-38
-0.0055746734 0.14350745 0.85875005 1.9719413e-38
-0.0055746734 0.14350745 0.8612501 1.9902359e-38
-0.0055746734 0.14600746 0.85875005 2.0455536e-38
-0.0055746734 0.14600746 0.8612501 1.9995279e-38
-0.0055746734 0.14850746 0.8612501 2.0916159e-38
-0.0055746734 0.15100746 0.8612501 2.2667508e-38
-0.028074674 0.17100745 0.87875009 1.9442823e-38
-0.028074674 0.17350745 0.87875009 1.9256639e-38
-0.028074674 0.17600746 0.87875009 1.8795664e-38
-0.028074674 0.17850746 0.87875009 1.8887487e-38
-0.025574673 0.14100745 0.8637501 1.9995653e-38
-0.025574673 0.14100745 0.8662501 1.9626869e-38
-0.025574673 0.14350745 0.8637501 1.7505292e-38
-0.025574673 0.14350745 0.8662501 1.9719065e-38
-0.023074673 0.14350745 0.8637501 1.8426879e-38
-0.025574673 0.14350745 0.8687501 1.9718346e-38
-0.025574673 0.14600746 0.8637501 1.7597844e-38
-0.025574673 0.14600746 0.8662501 1.7597844e-38
-0.025574673 0.14850746 0.8637501 1.7690746e-38
-0.025574673 0.14850746 0.8662501 1.7323065e-38
-0.023074673 0.14600746 0.8637501 1.8612342e-38
-0.023074673 0.14600746 0.8662501 1.8519427e-38
-0.023074673 0.14850746 0.8637501 1.7874055e-38
-0.023074673 0.14850746 0.8662501 1.9072598e-38
-0.020574674 0.14100745 0.8637501 1.750672e-38
-0.020574674 0.14350745 0.8637501 1.7691111e-38
-0.020574674 0.14350745 0.8662501 1.7784026e-38
-0.018074673 0.14100745 0.8637501 1.3175696e-38
-0.018074673 0.14100745 0.8662501 1.3267886e-38
-0.018074673 0.14350745 0.8637501 1.4096927e-38
-0.018074673 0.14350745 0.8662501 1.3635951e-38
-0.020574674 0.14600746 0.8637501 1.7414895e-38
-0.020574674 0.14600746 0.8662501 1.7599639e-38
-0.020574674 0.14850746 0.8662501 1.7876226e-38
-0.018074673 0.14600746 0.8637501 1.4464983e-38
-0.018074673 0.14600746 0.8662501 1.3820341e-38
-0.018074673 0.14850746 0.8637501 1.3451557e-38
-0.018074673 0.14850746 0.8662501 1.4464264e-38
-0.018074673 0.14850746 0.8687501 1.3729568e-38
-0.025574673 0.15100746 0.8637501 1.7046485e-38
-0.025574673 0.15100746 0.8662501 1.71376e-38
-0.025574673 0.15350746 0.8637501 1.7692207e-38
-0.025574673 0.15350746 0.8662501 1.73245e-38
-0.023074673 0.15100746 0.8637501 1.7598194e-38
-0.023074673 0.15100746 0.8662501 1.8981129e-38
-0.023074673 0.15350746 0.8637501 1.8150645e-38
-0.023074673 0.15350746 0.8662501 1.9166595e-38
-0.025574673 0.15100746 0.8687501 2.1286763e-38
-0.025574673 0.15100746 0.87125009 2.1287482e-38
-0.025574673 0.15350746 0.8687501 2.0920499e-38
-0.025574673 0.15350746 0.87125009 2.1381111e-38
-0.023074673 0.15100746 0.8687501 1.7781512e-38
-0.023074673 0.15350746 0.8687501 1.9256639e-38
-0.025574673 0.15600745 0.8662501 1.7416692e-38
-0.025574673 0.15850745 0.8662501 1.7692558e-38
-0.023074673 0.15600745 0.8662501 1.9350263e-38
-0.023074673 0.15850745 0.8662501 1.8336115e-38
-0.025574673 0.15600745 0.8687501 1.7601084e-38
-0.025574673 0.15850745 0.8687501 1.8061339e-38
-0.023074673 0.15600745 0.8687501 1.9257711e-38
-0.023074673 0.15850745 0.8687501 1.95343e-38
-0.023074673 0.15850745 0.87125009 1.9625771e-38
-0.020574674 0.15100746 0.8662501 1.7968421e-38
-0.020574674 0.15350746 0.8662501 1.7785475e-38
-0.018074673 0.15100746 0.8662501 1.4188757e-38
-0.018074673 0.15350746 0.8662501 1.4188757e-38
-0.020574674 0.15100746 0.8687501 1.7968421e-38
-0.020574674 0.15350746 0.8687501 1.7785122e-38
-0.018074673 0.15100746 0.8687501 1.3820341e-38
-0.018074673 0.15350746 0.8687501 1.391324e-38
-0.018074673 0.15350746 0.87125009 1.3636667e-38
-0.020574674 0.15600745 0.8662501 1.8613788e-38
-0.020574674 0.15600745 0.8687501 1.7692923e-38
-0.020574674 0.15850745 0.8687501 1.8430832e-38
-0.020574674 0.15850745 0.87125009 1.8428679e-38
-0.018074673 0.15600745 0.8687501 1.492524e-38
-0.018074673 0.15600745 0.87125009 1.4376019e-38
-0.018074673 0.15850745 0.87125009 1.4925243e-38
-0.018074673 0.15850745 0.87375009 1.382106e-38
-0.015574673 0.14100745 0.8637501 1.2897665e-38
-0.015574673 0.14100745 0.8662501 1.2528153e-38
-0.015574673 0.14350745 0.8637501 1.2528862e-38
-0.015574673 0.14350745 0.8662501 1.2898015e-38
-0.013074674 0.14100745 0.8637501 1.6677685e-38
-0.013074674 0.14350745 0.8637501 1.6953881e-38
-0.013074674 0.14350745 0.8662501 1.6770231e-38
-0.015574673 0.14600746 0.8637501 1.3907478e-38
-0.015574673 0.14600746 0.8662501 1.344687e-38
-0.015574673 0.14850746 0.8637501 1.3906772e-38
-0.015574673 0.14850746 0.8662501 1.4089002e-38
-0.013074674 0.14600746 0.8637501 1.7505982e-38
-0.013074674 0.14600746 0.8662501 1.7964456e-38
-0.013074674 0.14850746 0.8637501 1.8333597e-38
-0.013074674 0.14850746 0.8662501 1.8882815e-38
-0.015574673 0.14600746 0.8687501 1.344687e-38
-0.015574673 0.14850746 0.8687501 1.3538718e-38
-0.013074674 0.14850746 0.8687501 1.7783657e-38
-0.010574673 0.14100745 0.8637501 1.732233e-38
-0.010574673 0.14350745 0.8637501 1.7229783e-38
-0.010574673 0.14350745 0.8662501 1.7137587e-38
-0.0080746738 0.14350745 0.8637501 1.7874061e-38
-0.010574673 0.14600746 0.8637501 1.7506017e-38
-0.010574673 0.14600746 0.8662501 1.7597847e-38
-0.010574673 0.14850746 0.8637501 1.805702e-38
-0.010574673 0.14850746 0.8662501 1.8794585e-38
-0.0080746738 0.14600746 0.8637501 1.7966975e-38
-0.0080746738 0.14850746 0.8637501 1.8148847e-38
-0.015574673 0.15100746 0.8637501 1.3816024e-38
-0.015574673 0.15100746 0.8662501 1.3906068e-38
-0.015574673 0.15350746 0.8662501 1.3908571e-38
-0.013074674 0.15100746 0.8637501 1.8243213e-38
-0.013074674 0.15100746 0.8662501 1.8423654e-38
-0.013074674 0.15350746 0.8662501 1.8424708e-38
-0.015574673 0.15100746 0.8687501 1.3908574e-38
-0.015574673 0.15350746 0.8687501 1.3358626e-38
-0.015574673 0.15350746 0.87125009 1.326752e-38
-0.013074674 0.15100746 0.8687501 1.8149213e-38
-0.013074674 0.15350746 0.8687501 1.7875853e-38
-0.015574673 0.15600745 0.8687501 1.4183013e-38
-0.015574673 0.15600745 0.87125009 1.3174242e-38
-0.015574673 0.15850745 0.87125009 1.4184806e-38
-0.013074674 0.15600745 0.8687501 1.8333591e-38
-0.013074674 0.15600745 0.87125009 1.7876579e-38
-0.013074674 0.15850745 0.8687501 1.833361e-38
-0.013074674 0.15850745 0.87125009 1.8151736e-38
-0.010574673 0.15100746 0.8637501 1.7966622e-38
-0.010574673 0.15100746 0.8662501 1.8703466e-38
-0.010574673 0.15350746 0.8637501 1.8335762e-38
-0.010574673 0.15350746 0.8662501 1.8888936e-38
-0.0080746738 0.15100746 0.8637501 1.8518709e-38
-0.0080746738 0.15350746 0.8637501 1.8518709e-38
-0.0080746738 0.15350746 0.8662501 2.2667152e-38
-0.010574673 0.15350746 0.8687501 1.8335762e-38
-0.010574673 0.15600745 0.8662501 1.8335765e-38
-0.010574673 0.15850745 0.8662501 1.8519071e-38
-0.0080746738 0.15600745 0.8637501 1.8518706e-38
-0.0080746738 0.15600745 0.8662501 2.3034492e-38
-0.0080746738 0.15850745 0.8662501 2.2943378e-38
-0.010574673 0.15600745 0.8687501 1.8796384e-38
-0.010574673 0.15600745 0.87125009 1.8980781e-38
-0.010574673 0.15850745 0.8687501 1.8335765e-38
-0.010574673 0.15850745 0.87125009 1.8519077e-38
-0.0080746738 0.15600745 0.8687501 2.2943741e-38
-0.0080746738 0.15850745 0.8687501 2.3034492e-38
-0.0080746738 0.15850745 0.87125009 2.3126688e-38
-0.015574673 0.15600745 0.87375009 1.3450833e-38
-0.015574673 0.15850745 0.87375009 1.3910737e-38
-0.013074674 0.15850745 0.87375009 1.8058821e-38
-0.010574673 0.15850745 0.87375009 1.9072251e-38
-0.025574673 0.16100746 0.8687501 1.7967703e-38
-0.023074673 0.16100746 0.8687501 2.008603e-38
-0.023074673 0.16100746 0.87125009 1.9534302e-38
-0.023074673 0.16350746 0.8687501 1.9536456e-38
-0.023074673 0.16350746 0.87125009 1.9717971e-38
-0.025574673 0.16850746 0.87125009 1.842796e-38
-0.023074673 0.16600746 0.87125009 2.0454817e-38
-0.023074673 0.16850746 0.87125009 2.0545929e-38
-0.020574674 0.16100746 0.8687501 1.870634e-38
-0.020574674 0.16100746 0.87125009 1.8706693e-38
-0.020574674 0.16350746 0.8687501 1.8707058e-38
-0.020574674 0.16350746 0.87125009 1.8891084e-38
-0.023074673 0.16100746 0.87375009 1.8703819e-38
-0.023074673 0.16350746 0.87375009 2.0087475e-38
-0.025574673 0.16600746 0.87375009 1.8521947e-38
-0.025574673 0.16850746 0.87375009 1.8703466e-38
-0.023074673 0.16600746 0.87375009 1.9995279e-38
-0.023074673 0.16850746 0.87375009 2.0545216e-38
-0.025574673 0.16850746 0.87875009 1.8244282e-38
-0.023074673 0.16850746 0.87875009 2.0087828e-38
-0.020574674 0.16350746 0.87375009 1.8706337e-38
-0.018074673 0.16100746 0.87375009 1.4096571e-38
-0.018074673 0.16350746 0.87375009 1.5017789e-38
-0.020574674 0.16600746 0.87375009 1.9074396e-38
-0.020574674 0.16850746 0.87375009 1.9349191e-38
-0.018074673 0.16600746 0.87375009 1.5017786e-38
-0.020574674 0.16600746 0.87875009 1.9074399e-38
-0.020574674 0.16850746 0.87875009 1.9257711e-38
-0.018074673 0.16600746 0.87875009 1.5110337e-38
-0.018074673 0.16850746 0.87875009 1.492559e-38
-0.025574673 0.17100745 0.87125009 1.815209e-38
-0.023074673 0.17100745 0.87125009 1.944174e-38
-0.025574673 0.17100745 0.87375009 1.842796e-38
-0.025574673 0.17350745 0.87375009 1.8798185e-38
-0.023074673 0.17100745 0.87375009 1.9717247e-38
-0.023074673 0.17350745 0.87375009 1.9349544e-38
-0.025574673 0.17100745 0.87875009 1.8151734e-38
-0.025574673 0.17350745 0.87875009 1.9164446e-38
-0.023074673 0.17100745 0.87875009 2.054701e-38
-0.023074673 0.17350745 0.87875009 2.0087122e-38
-0.025574673 0.17600746 0.87875009 1.9164096e-38
-0.025574673 0.17600746 0.88125008 1.9163722e-38
-0.025574673 0.17850746 0.87875009 1.9071895e-38
-0.025574673 0.17850746 0.88125008 1.8978979e-38
-0.023074673 0.17600746 0.87875009 1.9533204e-38
-0.023074673 0.17600746 0.88125008 1.9901643e-38
-0.023074673 0.17850746 0.87875009 1.9903078e-38
-0.023074673 0.17850746 0.88125008 1.9072951e-38
-0.020574674 0.17100745 0.87875009 1.9073327e-38
-0.020574674 0.17350745 0.87875009 1.8430476e-38
-0.018074673 0.17100745 0.87875009 1.4742281e-38
-0.018074673 0.17350745 0.87875009 1.4742281e-38
-0.020574674 0.17600746 0.87875009 1.8888933e-38
-0.020574674 0.17600746 0.88125008 1.8888933e-38
-0.020574674 0.17850746 0.87875009 1.7878389e-38
-0.020574674 0.17850746 0.88125008 1.8520872e-38
-0.018074673 0.17600746 0.87875009 1.4834123e-38
-0.018074673 0.17600746 0.88125008 1.5295449e-38
-0.018074673 0.17850746 0.87875009 1.4923801e-38
-0.018074673 0.17850746 0.88125008 1.4648661e-38
-0.010574673 0.16100746 0.87125009 1.8796014e-38
-0.0080746738 0.16100746 0.87125009 2.2943376e-38
-0.0080746738 0.16350746 0.87125009 2.2943376e-38
-0.015574673 0.16100746 0.87375009 1.4369916e-38
-0.015574673 0.16350746 0.87375009 1.4736886e-38
-0.013074674 0.16100746 0.87375009 1.8610917e-38
-0.013074674 0.16350746 0.87375009 1.907008e-38
-0.015574673 0.16350746 0.87875009 1.4645043e-38
-0.013074674 0.16350746 0.87875009 1.9162629e-38
-0.015574673 0.16600746 0.87375009 1.4553216e-38
-0.013074674 0.16600746 0.87375009 1.8886412e-38
-0.015574673 0.16600746 0.87875009 1.4737606e-38
-0.015574673 0.16850746 0.87875009 1.4462817e-38
-0.013074674 0.16600746 0.87875009 1.925519e-38
-0.013074674 0.16850746 0.87875009 1.9164794e-38
-0.010574673 0.16100746 0.87375009 1.9441384e-38
-0.010574673 0.16350746 0.87375009 1.8979702e-38
-0.0080746738 0.16100746 0.87375009 2.2574237e-38
-0.0080746738 0.16350746 0.87375009 2.2943744e-38
-0.010574673 0.16350746 0.87875009 1.9256642e-38
-0.010574673 0.16600746 0.87375009 1.9348838e-38
-0.010574673 0.16850746 0.87375009 1.9625052e-38
-0.0080746738 0.16600746 0.87375009 2.2391997e-38
-0.0080746738 0.16850746 0.87375009 2.2482393e-38
-0.010574673 0.16600746 0.87875009 1.9348838e-38
-0.010574673 0.16850746 0.87875009 1.944174e-38
-0.0080746738 0.16600746 0.87875009 2.2758628e-38
-0.0080746738 0.16850746 0.87875009 2.2389845e-38
-0.015574673 0.17100745 0.87875009 1.4372419e-38
-0.015574673 0.17350745 0.87875009 1.4647914e-38
-0.013074674 0.17100745 0.87875009 1.9166592e-38
-0.013074674 0.17350745 0.87875009 1.9626118e-38
-0.013074674 0.17350745 0.88125008 1.9533204e-38
-0.015574673 0.17600746 0.87875009 1.5475161e-38
-0.015574673 0.17600746 0.88125008 1.5473372e-38
-0.015574673 0.17850746 0.87875009 1.5106725e-38
-0.015574673 0.17850746 0.88125008 1.4831602e-38
-0.013074674 0.17600746 0.87875009 1.9623604e-38
-0.013074674 0.17600746 0.88125008 1.9714731e-38
-0.013074674 0.17850746 0.87875009 1.9163332e-38
-0.013074674 0.17850746 0.88125008 1.8519425e-38
-0.010574673 0.17100745 0.87375009 1.9349541e-38
-0.0080746738 0.17100745 0.87375009 2.1928868e-38
-0.0080746738 0.17350745 0.87375009 2.0916154e-38
-0.010574673 0.17100745 0.87875009 1.9625774e-38
-0.010574673 0.17350745 0.87875009 1.9625066e-38
-0.0080746738 0.17100745 0.87875009 2.1743753e-38
-0.0080746738 0.17350745 0.87875009 2.146609e-38
-0.010574673 0.17600746 0.87875009 1.9622904e-38
-0.010574673 0.17600746 0.88125008 1.9900916e-38
-0.010574673 0.17850746 0.87875009 2.0084602e-38
-0.010574673 0.17850746 0.88125008 2.0546989e-38
-0.0080746738 0.17600746 0.87875009 2.0730678e-38
-0.0080746738 0.17600746 0.88125008 2.1191655e-38
-0.0080746738 0.17850746 0.87875009 1.9441008e-38
-0.0080746738 0.17850746 0.88125008 2.0270056e-38
-0.023074673 0.17600746 0.88375008 1.9718668e-38
-0.023074673 0.17850746 0.88375008 1.95325e-38
-0.0055746734 0.14350745 0.8637501 1.999456e-38
-0.0055746734 0.14600746 0.8637501 2.0087475e-38
-0.0055746734 0.14850746 0.8637501 2.1191301e-38
-0.0055746734 0.15100746 0.8637501 2.2851543e-38
-0.0055746734 0.15100746 0.8662501 2.2947708e-38
-0.0055746734 0.15350746 0.8637501 2.2670764e-38
-0.0055746734 0.15350746 0.8662501 2.267112e-38
-0.0030746735 0.15100746 0.8637501 2.2578571e-38
-0.0030746735 0.15350746 0.8637501 2.2210145e-38
-0.0030746735 0.15350746 0.8662501 2.2210142e-38
-0.0055746734 0.15100746 0.8687501 2.2856585e-38
-0.0055746734 0.15350746 0.8687501 2.2671117e-38
-0.0030746735 0.15350746 0.8687501 2.2117944e-38
-0.0055746734 0.15600745 0.8637501 2.239454e-38
-0.0055746734 0.15600745 0.8662501 2.2394538e-38
-0.0055746734 0.15850745 0.8662501 2.2394538e-38
-0.0030746735 0.15600745 0.8637501 2.1933555e-38
-0.0030746735 0.15600745 0.8662501 2.2302345e-38
-0.0055746734 0.15600745 0.8687501 2.267112e-38
-0.0055746734 0.15850745 0.8687501 2.2394538e-38
-0.0055746734 0.15850745 0.87125009 2.2578925e-38
-0.0030746735 0.15600745 0.8687501 2.2025395e-38
-0.0030746735 0.15850745 0.8687501 2.1842439e-38
-0.0030746735 0.15850745 0.87125009 2.2025395e-38
-0.0030746735 0.15850745 0.87375009 2.2026104e-38
-0.0055746734 0.16100746 0.87125009 2.2578203e-38
-0.0055746734 0.16350746 0.87125009 2.2302339e-38
-0.0030746735 0.16100746 0.87125009 2.1934634e-38
-0.0030746735 0.16350746 0.87125009 2.1933555e-38
-0.0055746734 0.16100746 0.87375009 2.2487452e-38
-0.0055746734 0.16350746 0.87375009 2.2395256e-38
-0.0030746735 0.16100746 0.87375009 2.2394535e-38
-0.0055746734 0.16600746 0.87375009 2.1934278e-38
-0.0055746734 0.16850746 0.87375009 2.1934634e-38
-0.0030746735 0.16600746 0.87375009 2.1565496e-38
-0.0030746735 0.16850746 0.87375009 2.1104518e-38
-0.0055746734 0.16600746 0.87875009 2.1842083e-38
-0.0055746734 0.16850746 0.87875009 2.1933199e-38
-0.0055746734 0.17100745 0.87375009 2.1472574e-38
-0.0055746734 0.17350745 0.87375009 2.0919403e-38
-0.0030746735 0.17100745 0.87375009 2.1104505e-38
-0.0055746734 0.17100745 0.87875009 2.1104505e-38
-0.0055746734 0.17350745 0.87875009 2.0827929e-38
-0.0030746735 0.17100745 0.87875009 2.1011953e-38
-0.0030746735 0.17350745 0.87875009 2.0827929e-38
-0.0055746734 0.17600746 0.87875009 2.0919759e-38
-0.0055746734 0.17600746 0.88125008 2.0275836e-38
-0.0055746734 0.17850746 0.87875009 2.0181472e-38
-0.0055746734 0.17850746 0.88125008 2.0181838e-38
-0.0030746735 0.17600746 0.87875009 2.0826489e-38
-0.0030746735 0.17600746 0.88125008 2.1011951e-38
-0.0055746734 0.17850746 0.88375008 1.9905621e-38
-0.0030746735 0.17600746 0.88375008 2.0551697e-38
-0.0030746735 0.17850746 0.88375008 2.0551694e-38
-0.025574673 0.18100746 0.87875009 1.9442458e-38
-0.023074673 0.18100746 0.87875009 2.0548082e-38
