# .PCD v0.7 - Point Cloud Data file format
VERSION 0.7
FIELDS x y z rgb
SIZE 4 4 4 4
TYPE F F F F
COUNT 1 1 1 1
WIDTH 1030
HEIGHT 1
VIEWPOINT 0 0 0 1 0 0 0
POINTS 1030
DATA ascii
0.26126501 0.10570051 0.84375006 1.4280612e-38
0.236265 0.10820051 0.83375007 1.8336828e-38
0.236265 0.11070051 0.83375007 1.8244633e-38
0.236265 0.11070051 0.83625007 1.6125581e-38
0.236265 0.11320051 0.83625007 1.6033385e-38
0.236265 0.11570051 0.83625007 1.4282387e-38
0.23876502 0.10820051 0.83375007 1.2715422e-38
0.23876502 0.10820051 0.83625007 1.1515802e-38
0.23876502 0.11070051 0.83375007 1.1702346e-38
0.23876502 0.11070051 0.83625007 1.0226863e-38
0.24126501 0.10820051 0.83625007 1.0044614e-38
0.24126501 0.11070051 0.83625007 9.3099453e-39
0.23876502 0.11320051 0.83625007 9.9495498e-39
0.23876502 0.11570051 0.83375007 8.6616808e-39
0.23876502 0.11570051 0.83625007 1.2718996e-38
0.24126501 0.11320051 0.83625007 9.3074034e-39
0.24126501 0.11570051 0.83375007 1.0780427e-38
0.24126501 0.11570051 0.83625007 1.0780427e-38
0.23376501 0.11070051 0.83875006 1.5942269e-38
0.236265 0.10820051 0.83875006 1.6033736e-38
0.236265 0.11070051 0.83875006 1.5849351e-38
0.236265 0.11070051 0.84125006 1.6033019e-38
0.236265 0.11070051 0.84625012 1.640037e-38
0.23376501 0.11320051 0.83875006 1.585007e-38
0.236265 0.11320051 0.83875006 1.6126657e-38
0.236265 0.11320051 0.84125006 1.6584767e-38
0.236265 0.11570051 0.83875006 1.649544e-38
0.236265 0.11320051 0.84625012 1.5849354e-38
0.236265 0.11570051 0.84375006 1.6402172e-38
0.23876502 0.10820051 0.83875006 1.5205422e-38
0.23876502 0.10820051 0.84125006 1.5205066e-38
0.23876502 0.11070051 0.83875006 1.4560426e-38
0.23876502 0.11070051 0.84125006 1.446823e-38
0.24126501 0.10820051 0.83875006 9.0329885e-39
0.24126501 0.11070051 0.83875006 8.8496664e-39
0.24126501 0.11070051 0.84125006 1.0411266e-38
0.23876502 0.10820051 0.84375006 1.6402169e-38
0.23876502 0.10820051 0.84625012 1.6676587e-38
0.23876502 0.11070051 0.84375006 1.6033385e-38
0.23876502 0.11070051 0.84625012 1.630853e-38
0.24126501 0.10820051 0.84375006 1.4929205e-38
0.24126501 0.11070051 0.84375006 1.4375666e-38
0.23876502 0.11320051 0.83875006 1.3823564e-38
0.23876502 0.11320051 0.84125006 1.3179646e-38
0.23876502 0.11570051 0.83875006 1.3638451e-38
0.23876502 0.11570051 0.84125006 1.3454412e-38
0.24126501 0.11320051 0.83875006 9.3088649e-39
0.24126501 0.11320051 0.84125006 9.0293914e-39
0.24126501 0.11570051 0.83875006 8.6620284e-39
0.24126501 0.11570051 0.84125006 9.3974508e-39
0.23876502 0.11320051 0.84375006 1.5757874e-38
0.23876502 0.11320051 0.84625012 1.5757874e-38
0.23876502 0.11570051 0.84375006 1.5112149e-38
0.23876502 0.11570051 0.84625012 1.5112149e-38
0.24126501 0.11320051 0.84375006 9.6736888e-39
0.24126501 0.11320051 0.84625012 1.428347e-38
0.24126501 0.11570051 0.84375006 9.121587e-39
0.24126501 0.11570051 0.84625012 1.3178195e-38
0.23376501 0.11820051 0.83125007 1.6494721e-38
0.23376501 0.12070051 0.83125007 1.6310692e-38
0.236265 0.11820051 0.83125007 1.418947e-38
0.236265 0.12070051 0.83125007 1.3176041e-38
0.23376501 0.12070051 0.83375007 1.5944068e-38
0.23376501 0.12070051 0.83625007 1.6126663e-38
0.236265 0.11820051 0.83375007 1.1610166e-38
0.236265 0.11820051 0.83625007 1.4282387e-38
0.236265 0.12070051 0.83375007 1.3085643e-38
0.236265 0.12070051 0.83625007 1.4282387e-38
0.23376501 0.12320051 0.83375007 1.5941913e-38
0.23376501 0.12320051 0.83625007 1.6218132e-38
0.236265 0.12320051 0.83375007 1.3083848e-38
0.236265 0.12320051 0.83625007 1.2529602e-38
0.23876502 0.11820051 0.83375007 9.3048965e-39
0.23876502 0.11820051 0.83625007 1.1980728e-38
0.23876502 0.12070051 0.83625007 9.7669564e-39
0.24126501 0.11820051 0.83375007 1.1977872e-38
0.24126501 0.11820051 0.83625007 1.2069714e-38
0.24126501 0.12070051 0.83375007 1.2624319e-38
0.24126501 0.12070051 0.83625007 1.1516175e-38
0.23876502 0.12320051 0.83375007 1.004643e-38
0.23876502 0.12320051 0.83625007 9.9545847e-39
0.23876502 0.1257005 0.83375007 1.1333203e-38
0.23876502 0.1257005 0.83625007 1.1150592e-38
0.24126501 0.12320051 0.83375007 1.2163709e-38
0.24126501 0.12320051 0.83625007 1.1149556e-38
0.24126501 0.1257005 0.83375007 1.1887473e-38
0.24126501 0.1257005 0.83625007 1.1426495e-38
0.236265 0.12070051 0.83875006 1.6311771e-38
0.236265 0.12070051 0.84375006 1.6034467e-38
0.23376501 0.12320051 0.83875006 1.6125581e-38
0.23376501 0.1257005 0.83875006 1.6310328e-38
0.236265 0.12320051 0.83875006 1.5757521e-38
0.236265 0.1257005 0.83875006 1.5388744e-38
0.23376501 0.12320051 0.84375006 1.5940115e-38
0.23376501 0.1257005 0.84375006 1.5849348e-38
0.236265 0.12320051 0.84375006 1.6309256e-38
0.236265 0.12320051 0.84625012 1.6125581e-38
0.236265 0.1257005 0.84375006 1.621813e-38
0.236265 0.1257005 0.84625012 1.6584038e-38
0.23876502 0.11820051 0.83875006 1.2071118e-38
0.23876502 0.11820051 0.84125006 1.2163673e-38
0.23876502 0.12070051 0.83875006 1.0966579e-38
0.23876502 0.12070051 0.84125006 1.1149903e-38
0.24126501 0.11820051 0.83875006 9.3066943e-39
0.24126501 0.11820051 0.84125006 9.0300948e-39
0.24126501 0.12070051 0.83875006 1.179491e-38
0.24126501 0.12070051 0.84125006 9.5829379e-39
0.23876502 0.11820051 0.84375006 1.4005804e-38
0.23876502 0.11820051 0.84625012 1.4559331e-38
0.23876502 0.12070051 0.84375006 1.382141e-38
0.23876502 0.12070051 0.84625012 1.400616e-38
0.24126501 0.11820051 0.84375006 9.5839945e-39
0.24126501 0.11820051 0.84625012 1.2994507e-38
0.24126501 0.12070051 0.84375006 1.1427198e-38
0.24126501 0.12070051 0.84625012 1.0780775e-38
0.23876502 0.12320051 0.83875006 9.678711e-39
0.23876502 0.12320051 0.84125006 1.050524e-38
0.23876502 0.1257005 0.83875006 9.6747804e-39
0.23876502 0.1257005 0.84125006 1.0505591e-38
0.24126501 0.12320051 0.83875006 9.0329885e-39
0.24126501 0.12320051 0.84125006 8.9372154e-39
0.24126501 0.1257005 0.83875006 1.0135759e-38
0.24126501 0.1257005 0.84125006 1.0504534e-38
0.23876502 0.12320051 0.84375006 1.6125584e-38
0.23876502 0.12320051 0.84625012 1.2991648e-38
0.23876502 0.1257005 0.84375006 1.1884952e-38
0.23876502 0.1257005 0.84625012 1.2437756e-38
0.24126501 0.12320051 0.84375006 1.0228307e-38
0.24126501 0.12320051 0.84625012 1.0596731e-38
0.24126501 0.1257005 0.84375006 1.0226507e-38
0.23126501 0.12820052 0.83125007 1.7968407e-38
0.23126501 0.13070051 0.83125007 1.7876209e-38
0.23126501 0.12820052 0.83375007 1.8153516e-38
0.23126501 0.13070051 0.83375007 1.8245712e-38
0.23126501 0.13320051 0.83625007 1.7970926e-38
0.23126501 0.13320051 0.84625012 1.5942266e-38
0.23126501 0.13570051 0.84625012 1.5942266e-38
0.23376501 0.12820052 0.82875007 1.1790939e-38
0.23376501 0.13070051 0.82875007 1.0228285e-38
0.236265 0.13070051 0.83375007 9.2119848e-39
0.236265 0.13070051 0.83625007 9.7658844e-39
0.236265 0.13320051 0.82875007 1.2439573e-38
0.23376501 0.13320051 0.83625007 1.8430829e-38
0.236265 0.13320051 0.83625007 9.5807673e-39
0.23876502 0.13070051 0.83125007 1.2626488e-38
0.24126501 0.13070051 0.83125007 1.050563e-38
0.23876502 0.12820052 0.83375007 1.1795278e-38
0.23876502 0.12820052 0.83625007 1.1706311e-38
0.23876502 0.13070051 0.83375007 1.2443851e-38
0.23876502 0.13070051 0.83625007 1.2629315e-38
0.24126501 0.12820052 0.83375007 1.0966576e-38
0.24126501 0.12820052 0.83625007 1.2256236e-38
0.24126501 0.13070051 0.83375007 1.0505986e-38
0.24126501 0.13070051 0.83625007 1.2444612e-38
0.23876502 0.13320051 0.82875007 1.5850811e-38
0.23876502 0.13320051 0.83125007 1.336224e-38
0.23876502 0.13570051 0.83125007 1.3362587e-38
0.24126501 0.13320051 0.83125007 1.1056989e-38
0.24126501 0.13570051 0.83125007 1.0872945e-38
0.23876502 0.13320051 0.83375007 1.3272574e-38
0.23876502 0.13320051 0.83625007 1.3364771e-38
0.23876502 0.13570051 0.83625007 1.3547002e-38
0.24126501 0.13320051 0.83375007 1.0415588e-38
0.24126501 0.13320051 0.83625007 1.2902308e-38
0.24126501 0.13570051 0.83375007 1.0597433e-38
0.24126501 0.13570051 0.83625007 1.2443135e-38
0.236265 0.12820052 0.84125006 1.4929205e-38
0.236265 0.13070051 0.83875006 1.4374234e-38
0.236265 0.13070051 0.84125006 1.492884e-38
0.236265 0.12820052 0.84625012 1.5942266e-38
0.236265 0.13320051 0.83875006 1.4466061e-38
0.236265 0.13320051 0.84125006 1.6127733e-38
0.23376501 0.13320051 0.84625012 1.585007e-38
0.23376501 0.13570051 0.84625012 1.5942266e-38
0.236265 0.13320051 0.84375006 1.4374587e-38
0.23876502 0.12820052 0.83875006 8.7556912e-39
0.23876502 0.12820052 0.84125006 1.059637e-38
0.23876502 0.13070051 0.83875006 8.5705208e-39
0.23876502 0.13070051 0.84125006 1.0319058e-38
0.24126501 0.12820052 0.83875006 1.1795273e-38
0.24126501 0.12820052 0.84125006 1.1425752e-38
0.24126501 0.13070051 0.83875006 1.3179291e-38
0.23876502 0.12820052 0.84375006 1.0964428e-38
0.23876502 0.12820052 0.84625012 1.1700912e-38
0.23876502 0.13070051 0.84375006 1.022686e-38
0.23876502 0.13070051 0.84625012 1.0228307e-38
0.24126501 0.12820052 0.84375006 9.398527e-39
0.24126501 0.12820052 0.84625012 1.0042096e-38
0.24126501 0.13070051 0.84375006 8.5723383e-39
0.24126501 0.13070051 0.84625012 8.2042648e-39
0.23876502 0.13320051 0.83875006 8.8489434e-39
0.23876502 0.13320051 0.84125006 8.5727068e-39
0.23876502 0.13570051 0.83875006 1.0780775e-38
0.23876502 0.13570051 0.84125006 1.0414869e-38
0.24126501 0.13320051 0.83875006 1.2719034e-38
0.24126501 0.13320051 0.84125006 1.2352031e-38
0.24126501 0.13570051 0.83875006 1.3085999e-38
0.24126501 0.13570051 0.84125006 1.3456966e-38
0.23876502 0.13320051 0.84375006 9.6740391e-39
0.23876502 0.13320051 0.84625012 9.5814876e-39
0.24126501 0.13320051 0.84375006 8.9407873e-39
0.24126501 0.13320051 0.84625012 8.7563946e-39
0.24126501 0.13570051 0.84625012 1.0043213e-38
0.23876502 0.13820051 0.83625007 1.4836304e-38
0.23876502 0.1407005 0.83625007 1.2168359e-38
0.24126501 0.13820051 0.83625007 1.1795257e-38
0.24126501 0.1407005 0.83625007 1.2071124e-38
0.23876502 0.13820051 0.83875006 1.1426863e-38
0.23876502 0.13820051 0.84125006 1.2345229e-38
0.23876502 0.1407005 0.83875006 1.1887848e-38
0.23876502 0.1407005 0.84125006 1.2071879e-38
0.24126501 0.13820051 0.83875006 1.2163673e-38
0.24126501 0.13820051 0.84125006 1.4096946e-38
0.24126501 0.1407005 0.83875006 1.216332e-38
0.24126501 0.1407005 0.84125006 1.3178587e-38
0.23876502 0.1407005 0.84375006 1.0504534e-38
0.24126501 0.1407005 0.84375006 1.2902697e-38
0.23876502 0.1432005 0.84125006 1.234953e-38
0.24126501 0.1432005 0.83875006 1.1887453e-38
0.24126501 0.1432005 0.84125006 1.2073665e-38
0.23876502 0.1432005 0.84375006 1.0780382e-38
0.23876502 0.1432005 0.84625012 1.1797413e-38
0.23876502 0.14570051 0.84375006 1.0779679e-38
0.23876502 0.14570051 0.84625012 1.0136812e-38
0.24126501 0.1432005 0.84375006 1.2257697e-38
0.24126501 0.14570051 0.84375006 1.1890343e-38
0.24126501 0.14570051 0.84625012 1.1149903e-38
0.25626501 0.11070051 0.81625009 1.5851139e-38
0.25376502 0.11070051 0.82625008 9.0351563e-39
0.25626501 0.10820051 0.82375008 1.327041e-38
0.25626501 0.11070051 0.82375008 1.0600334e-38
0.25626501 0.11070051 0.82625008 9.8627674e-39
0.25376502 0.11320051 0.82625008 9.6780174e-39
0.25376502 0.11570051 0.82625008 9.5851085e-39
0.25626501 0.11320051 0.82375008 9.0319291e-39
0.25626501 0.11320051 0.82625008 1.0322668e-38
0.25626501 0.11570051 0.82375008 8.8478882e-39
0.25626501 0.11570051 0.82625008 9.0326382e-39
0.25876501 0.10820051 0.82125008 1.4655139e-38
0.25876501 0.11070051 0.82125008 1.5115046e-38
0.26126501 0.10820051 0.82125008 8.2018041e-39
0.26126501 0.11070051 0.82125008 1.2439589e-38
0.25876501 0.10820051 0.82375008 1.6679458e-38
0.25876501 0.11070051 0.82375008 1.2257317e-38
0.25876501 0.11070051 0.82625008 1.2165835e-38
0.26126501 0.10820051 0.82375008 8.2914956e-39
0.26126501 0.10820051 0.82625008 1.1064224e-38
0.26126501 0.11070051 0.82375008 1.3455523e-38
0.26126501 0.11070051 0.82625008 1.5116866e-38
0.26126501 0.11320051 0.82125008 1.6682352e-38
0.25876501 0.11320051 0.82375008 1.5204716e-38
0.25876501 0.11320051 0.82625008 1.0227209e-38
0.25876501 0.11570051 0.82375008 1.538911e-38
0.25876501 0.11570051 0.82625008 1.0320859e-38
0.26126501 0.11320051 0.82375008 1.5575301e-38
0.26126501 0.11320051 0.82625008 1.5943011e-38
0.26126501 0.11570051 0.82375008 1.5574575e-38
0.26126501 0.11570051 0.82625008 1.5483458e-38
0.25626501 0.11820051 0.82625008 9.6790768e-39
0.25626501 0.12070051 0.82625008 1.087762e-38
0.25876501 0.11820051 0.82375008 1.5482029e-38
0.25876501 0.11820051 0.82625008 1.1609456e-38
0.25876501 0.12070051 0.82625008 1.308494e-38
0.26126501 0.11820051 0.82375008 1.5481293e-38
0.26126501 0.11820051 0.82625008 1.5299417e-38
0.26126501 0.12070051 0.82625008 1.548273e-38
0.24626501 0.10820051 0.83125007 8.3872842e-39
0.24626501 0.11070051 0.83125007 8.8475533e-39
0.24376501 0.10820051 0.83375007 9.5851029e-39
0.24376501 0.10820051 0.83625007 8.0185031e-39
0.24376501 0.11070051 0.83375007 9.9535603e-39
0.24376501 0.11070051 0.83625007 1.1245e-38
0.24626501 0.10820051 0.83375007 9.0326536e-39
0.24626501 0.10820051 0.83625007 9.2170449e-39
0.24626501 0.11070051 0.83375007 9.0323033e-39
0.24626501 0.11070051 0.83625007 9.954261e-39
0.24376501 0.11320051 0.83125007 1.0137203e-38
0.24376501 0.11570051 0.83125007 1.0042815e-38
0.24626501 0.11320051 0.83125007 9.5851029e-39
0.24626501 0.11570051 0.83125007 9.3985438e-39
0.24376501 0.11320051 0.83375007 1.0413424e-38
0.24376501 0.11320051 0.83625007 1.3732467e-38
0.24376501 0.11570051 0.83375007 1.3454412e-38
0.24376501 0.11570051 0.83625007 1.4007274e-38
0.24626501 0.11320051 0.83375007 9.9546421e-39
0.24626501 0.11320051 0.83625007 1.0046838e-38
0.24626501 0.11570051 0.83375007 9.5861721e-39
0.24876501 0.10820051 0.83125007 8.6649599e-39
0.24876501 0.11070051 0.82875007 8.1096225e-39
0.24876501 0.11070051 0.83125007 8.201465e-39
0.25126502 0.10820051 0.83125007 1.0227601e-38
0.25126502 0.11070051 0.82875007 8.5680783e-39
0.25126502 0.11070051 0.83125007 8.8446666e-39
0.24876501 0.10820051 0.83375007 8.2943795e-39
0.24876501 0.10820051 0.83625007 1.0687483e-38
0.24876501 0.11070051 0.83375007 8.2943823e-39
0.25126502 0.10820051 0.83375007 8.6635222e-39
0.25126502 0.10820051 0.83625007 1.0318352e-38
0.25126502 0.11070051 0.83375007 8.2943823e-39
0.24876501 0.11320051 0.82875007 7.741549e-39
0.24876501 0.11320051 0.83125007 7.9255802e-39
0.24876501 0.11570051 0.83125007 8.1996503e-39
0.25126502 0.11320051 0.82875007 7.0036253e-39
0.25126502 0.11320051 0.83125007 8.4744393e-39
0.25126502 0.11570051 0.82875007 7.2802108e-39
0.25126502 0.11570051 0.83125007 8.0156122e-39
0.24876501 0.11320051 0.83375007 1.0966947e-38
0.24876501 0.11570051 0.83375007 9.0322822e-39
0.24376501 0.10820051 0.83875006 7.5581919e-39
0.24376501 0.10820051 0.84125006 7.5546312e-39
0.24376501 0.11070051 0.83875006 1.0785775e-38
0.24376501 0.11070051 0.84125006 1.0415217e-38
0.24626501 0.10820051 0.83875006 8.7570953e-39
0.24626501 0.11070051 0.83875006 9.9528246e-39
0.24376501 0.10820051 0.84375006 9.2159659e-39
0.24376501 0.11320051 0.83875006 1.4010842e-38
0.24376501 0.11320051 0.84125006 9.3092153e-39
0.24376501 0.11570051 0.83875006 1.4100524e-38
0.24376501 0.11570051 0.84125006 1.0502749e-38
0.24376501 0.11320051 0.84375006 9.5818393e-39
0.24376501 0.11570051 0.84625012 9.1215842e-39
0.24876501 0.10820051 0.83875006 9.949568e-39
0.24376501 0.11820051 0.82875007 9.6776517e-39
0.24376501 0.11820051 0.83125007 1.0227579e-38
0.24376501 0.12070051 0.83125007 1.0687471e-38
0.24626501 0.11820051 0.82875007 9.2163134e-39
0.24626501 0.11820051 0.83125007 9.3066985e-39
0.24626501 0.12070051 0.83125007 8.8453701e-39
0.24376501 0.11820051 0.83375007 1.0411954e-38
0.24376501 0.11820051 0.83625007 1.4005823e-38
0.24376501 0.12070051 0.83375007 1.032013e-38
0.24376501 0.12070051 0.83625007 1.3175696e-38
0.24626501 0.11820051 0.83375007 9.5851029e-39
0.24626501 0.12070051 0.83375007 1.050524e-38
0.24376501 0.12320051 0.83375007 1.0964072e-38
0.24376501 0.12320051 0.83625007 1.2625041e-38
0.24376501 0.1257005 0.83375007 9.8616884e-39
0.24376501 0.1257005 0.83625007 1.1702361e-38
0.24626501 0.12320051 0.83375007 9.9520665e-39
0.24626501 0.12320051 0.83625007 1.0411257e-38
0.24626501 0.1257005 0.83375007 1.0504156e-38
0.24626501 0.1257005 0.83625007 1.0779679e-38
0.24876501 0.11820051 0.82875007 7.4624356e-39
0.24876501 0.11820051 0.83125007 7.3695365e-39
0.24876501 0.12070051 0.82875007 7.7372246e-39
0.24876501 0.12070051 0.83125007 7.5539278e-39
0.25126502 0.11820051 0.82875007 8.012385e-39
0.25126502 0.11820051 0.83125007 7.0947475e-39
0.25126502 0.12070051 0.83125007 6.6341043e-39
0.24876501 0.11820051 0.83375007 8.7553408e-39
0.24876501 0.12070051 0.83375007 9.0304704e-39
0.25126502 0.12070051 0.83375007 7.37024e-39
0.24876501 0.12320051 0.83375007 8.4744393e-39
0.24876501 0.12320051 0.83625007 8.7535247e-39
0.24876501 0.1257005 0.83375007 1.0503803e-38
0.24876501 0.1257005 0.83625007 8.4772896e-39
0.25126502 0.12320051 0.83375007 7.6446787e-39
0.25126502 0.12320051 0.83625007 8.6591795e-39
0.25126502 0.1257005 0.83625007 7.6464765e-39
0.24376501 0.11820051 0.83875006 1.382251e-38
0.24376501 0.11820051 0.84125006 1.0780425e-38
0.24376501 0.12070051 0.83875006 1.3455157e-38
0.24376501 0.12070051 0.84125006 1.1517614e-38
0.24376501 0.12070051 0.84375006 1.1700563e-38
0.24376501 0.12070051 0.84625012 1.004321e-38
0.24376501 0.12320051 0.83875006 1.1980024e-38
0.24376501 0.12320051 0.84125006 1.3084577e-38
0.24376501 0.12320051 0.84375006 1.0965872e-38
0.24376501 0.12320051 0.84625012 1.0319411e-38
0.25376502 0.10820051 0.83125007 6.6301092e-39
0.25376502 0.11070051 0.82875007 7.5596689e-39
0.25376502 0.11070051 0.83125007 8.0181289e-39
0.25626501 0.10820051 0.82875007 1.1329966e-38
0.25626501 0.10820051 0.83125007 1.1515428e-38
0.25626501 0.11070051 0.82875007 9.3113859e-39
0.25626501 0.11070051 0.83125007 9.2163134e-39
0.25376502 0.10820051 0.83375007 6.1730869e-39
0.25626501 0.10820051 0.83375007 8.5662174e-39
0.25626501 0.10820051 0.83625007 7.0053433e-39
0.25626501 0.11070051 0.83375007 1.0876895e-38
0.25376502 0.11320051 0.82875007 7.1890941e-39
0.25376502 0.11320051 0.83125007 8.1056554e-39
0.25376502 0.11570051 0.82875007 7.7411959e-39
0.25376502 0.11570051 0.83125007 8.0156122e-39
0.25626501 0.11320051 0.82875007 9.4929073e-39
0.25626501 0.11570051 0.82875007 9.5851029e-39
0.25876501 0.10820051 0.82875007 1.6405045e-38
0.25876501 0.10820051 0.83125007 1.6678383e-38
0.25876501 0.11070051 0.82875007 1.4927025e-38
0.26126501 0.10820051 0.82875007 1.6128099e-38
0.26126501 0.10820051 0.83125007 1.6404689e-38
0.26126501 0.11070051 0.82875007 1.4470032e-38
0.25876501 0.10820051 0.83375007 1.667913e-38
0.25876501 0.10820051 0.83625007 1.0962623e-38
0.26126501 0.10820051 0.83375007 1.6311774e-38
0.26126501 0.10820051 0.83625007 1.6680181e-38
0.25876501 0.11320051 0.82875007 9.9513673e-39
0.25876501 0.10820051 0.83875006 1.077861e-38
0.26126501 0.10820051 0.83875006 1.667913e-38
0.26126501 0.10820051 0.84125006 1.6311424e-38
0.26126501 0.10820051 0.84375006 1.6495074e-38
0.25376502 0.11820051 0.82875007 7.6493632e-39
0.25376502 0.11820051 0.83125007 7.5557271e-39
0.25376502 0.12070051 0.82875007 8.7528241e-39
0.25376502 0.12070051 0.83125007 8.1128427e-39
0.25626501 0.11820051 0.82875007 9.3092447e-39
0.25626501 0.11820051 0.83125007 9.3081615e-39
0.25626501 0.12070051 0.82875007 8.9415117e-39
0.25626501 0.12070051 0.83125007 9.5829379e-39
0.25376502 0.12070051 0.83375007 8.107089e-39
0.25626501 0.12320051 0.82875007 8.3901372e-39
0.25626501 0.12320051 0.83125007 8.757859e-39
0.25626501 0.1257005 0.83125007 8.3897869e-39
0.25376502 0.12320051 0.83375007 8.4816322e-39
0.25376502 0.12320051 0.83625007 6.906015e-39
0.25376502 0.1257005 0.83375007 8.847877e-39
0.25376502 0.1257005 0.83625007 9.399613e-39
0.25626501 0.12320051 0.83375007 8.6627921e-39
0.25626501 0.1257005 0.83375007 8.940458e-39
0.25626501 0.1257005 0.83625007 9.493273e-39
0.25876501 0.11820051 0.82875007 1.1149187e-38
0.25876501 0.12070051 0.82875007 1.2441728e-38
0.26126501 0.12070051 0.82875007 1.5756802e-38
0.26126501 0.12070051 0.83125007 1.6035926e-38
0.25876501 0.12320051 0.82875007 1.3362971e-38
0.25876501 0.12320051 0.83125007 1.1154207e-38
0.25876501 0.1257005 0.83125007 1.1985056e-38
0.26126501 0.12320051 0.82875007 1.548166e-38
0.26126501 0.12320051 0.83125007 1.5022853e-38
0.26126501 0.1257005 0.83125007 1.4837385e-38
0.25876501 0.1257005 0.83375007 1.2444595e-38
0.26126501 0.12320051 0.83375007 1.5208313e-38
0.26126501 0.1257005 0.83375007 1.5113614e-38
0.24376501 0.12820052 0.83375007 1.0687133e-38
0.24376501 0.12820052 0.83625007 1.0779329e-38
0.24376501 0.13070051 0.83375007 1.0318705e-38
0.24376501 0.13070051 0.83625007 1.0411257e-38
0.24626501 0.12820052 0.83625007 1.0687133e-38
0.24626501 0.13070051 0.83625007 1.0503452e-38
0.24376501 0.13320051 0.83375007 1.0780382e-38
0.24376501 0.13320051 0.83625007 1.0871876e-38
0.24376501 0.13570051 0.83375007 1.0781478e-38
0.24376501 0.13570051 0.83625007 1.0781478e-38
0.24626501 0.13320051 0.83625007 1.013466e-38
0.24876501 0.12820052 0.83625007 8.5694824e-39
0.24876501 0.13070051 0.83625007 9.8566507e-39
0.25126502 0.12820052 0.83625007 7.9255746e-39
0.25126502 0.13070051 0.83625007 9.3066985e-39
0.24626501 0.13070051 0.83875006 1.0226137e-38
0.24376501 0.13320051 0.83875006 1.0228305e-38
0.24376501 0.13570051 0.83875006 1.1057329e-38
0.24376501 0.13570051 0.84125006 1.2902684e-38
0.24626501 0.13320051 0.83875006 1.0409819e-38
0.24626501 0.13570051 0.83875006 9.8595206e-39
0.24626501 0.13570051 0.84125006 9.7665907e-39
0.24876501 0.12820052 0.83875006 8.659883e-39
0.24876501 0.13070051 0.83875006 8.5694852e-39
0.25126502 0.12820052 0.83875006 6.8167159e-39
0.25126502 0.13070051 0.83875006 6.7245202e-39
0.24876501 0.13320051 0.83875006 8.8442742e-39
0.24876501 0.13570051 0.83875006 8.6609788e-39
0.24876501 0.13570051 0.84125006 9.7644523e-39
0.25126502 0.13320051 0.83875006 7.2802051e-39
0.25126502 0.13320051 0.84125006 7.6489947e-39
0.25126502 0.13570051 0.83875006 7.8308608e-39
0.24376501 0.13820051 0.83625007 1.1241736e-38
0.24376501 0.1407005 0.83625007 1.13332e-38
0.24376501 0.13820051 0.83875006 1.0781829e-38
0.24376501 0.13820051 0.84125006 1.2994138e-38
0.24376501 0.1407005 0.83875006 1.0781829e-38
0.24626501 0.13820051 0.83875006 9.5836441e-39
0.24626501 0.13820051 0.84125006 9.6740419e-39
0.24626501 0.1407005 0.83875006 9.397448e-39
0.24626501 0.1407005 0.84125006 9.6758398e-39
0.24376501 0.1432005 0.83875006 1.1149888e-38
0.24376501 0.1432005 0.84125006 1.1425749e-38
0.24626501 0.1432005 0.84125006 9.6747608e-39
0.24376501 0.1432005 0.84375006 1.16105e-38
0.24376501 0.14570051 0.84375006 1.1703062e-38
0.24376501 0.14570051 0.84625012 1.2256611e-38
0.24626501 0.1432005 0.84375006 1.1150259e-38
0.24626501 0.14570051 0.84375006 1.1243158e-38
0.24876501 0.13820051 0.83875006 9.0297641e-39
0.24876501 0.13820051 0.84125006 8.2921991e-39
0.24876501 0.1407005 0.83875006 9.3041986e-39
0.24876501 0.1407005 0.84125006 8.2918459e-39
0.25126502 0.13820051 0.83875006 7.4649551e-39
0.25126502 0.13820051 0.84125006 7.7390001e-39
0.25126502 0.1407005 0.83875006 7.3730944e-39
0.25126502 0.1407005 0.84125006 7.9230466e-39
0.25126502 0.1407005 0.84375006 8.0152591e-39
0.24876501 0.1432005 0.84125006 8.8435708e-39
0.25126502 0.1432005 0.84125006 7.9222969e-39
0.24876501 0.1432005 0.84375006 8.4762302e-39
0.24876501 0.14570051 0.84375006 9.3063482e-39
0.25126502 0.1432005 0.84375006 8.0156122e-39
0.25126502 0.14570051 0.84375006 8.2000006e-39
0.25376502 0.12820052 0.83625007 9.6758552e-39
0.25376502 0.13070051 0.83625007 9.8613198e-39
0.25626501 0.12820052 0.83375007 8.940458e-39
0.25626501 0.12820052 0.83625007 9.493273e-39
0.25626501 0.13070051 0.83375007 9.5825848e-39
0.25626501 0.13070051 0.83625007 1.013863e-38
0.25376502 0.13320051 0.83625007 1.0137924e-38
0.25376502 0.13570051 0.83625007 1.0230478e-38
0.25626501 0.13320051 0.83625007 1.0230472e-38
0.25626501 0.13570051 0.83625007 9.9545847e-39
0.26126501 0.12820052 0.83125007 1.7600728e-38
0.26126501 0.13070051 0.83125007 1.483701e-38
0.25876501 0.12820052 0.83375007 1.2997413e-38
0.25876501 0.12820052 0.83625007 9.216319e-39
0.25876501 0.13070051 0.83375007 1.3550574e-38
0.25876501 0.13070051 0.83625007 9.9520665e-39
0.26126501 0.12820052 0.83375007 1.5298361e-38
0.26126501 0.12820052 0.83625007 1.4745537e-38
0.26126501 0.13070051 0.83375007 1.5206151e-38
0.26126501 0.13070051 0.83625007 1.4469652e-38
0.25876501 0.13320051 0.83375007 1.4838086e-38
0.25876501 0.13320051 0.83625007 1.0689283e-38
0.25876501 0.13570051 0.83625007 1.1242101e-38
0.26126501 0.13320051 0.83375007 1.5205795e-38
0.26126501 0.13320051 0.83625007 1.5206871e-38
0.26126501 0.13570051 0.83625007 1.5206866e-38
0.25376502 0.12820052 0.83875006 6.6334008e-39
0.25376502 0.13070051 0.83875006 7.0947419e-39
0.25626501 0.12820052 0.83875006 9.8609695e-39
0.25626501 0.13070051 0.83875006 9.7687739e-39
0.25376502 0.13320051 0.83875006 7.5571522e-39
0.25376502 0.13320051 0.84125006 6.9114296e-39
0.25376502 0.13570051 0.83875006 7.741549e-39
0.25376502 0.13570051 0.84125006 8.0174227e-39
0.25626501 0.13320051 0.83875006 1.0046433e-38
0.25626501 0.13570051 0.83875006 1.0230823e-38
0.25876501 0.13570051 0.83875006 1.133358e-38
0.26126501 0.13320051 0.83875006 1.520542e-38
0.26126501 0.13570051 0.83875006 1.5297992e-38
0.25626501 0.13820051 0.83625007 9.9549378e-39
0.25876501 0.13820051 0.83625007 1.1521567e-38
0.26126501 0.13820051 0.83625007 1.5299417e-38
0.25376502 0.13820051 0.83875006 8.1092694e-39
0.25376502 0.13820051 0.84125006 9.4903891e-39
0.25376502 0.1407005 0.83875006 9.8595206e-39
0.25376502 0.1407005 0.84125006 9.5822344e-39
0.25626501 0.13820051 0.83875006 1.0139329e-38
0.25626501 0.13820051 0.84125006 1.0965519e-38
0.25626501 0.1407005 0.83875006 1.050524e-38
0.25626501 0.1407005 0.84125006 1.050524e-38
0.25376502 0.1432005 0.84125006 1.0043916e-38
0.25626501 0.1432005 0.84125006 1.050524e-38
0.25626501 0.14570051 0.84125006 1.0320859e-38
0.25376502 0.1432005 0.84375006 1.004321e-38
0.25376502 0.14570051 0.84375006 1.0319759e-38
0.25626501 0.1432005 0.84375006 1.0965525e-38
0.25626501 0.14570051 0.84375006 1.013863e-38
0.25876501 0.13820051 0.83875006 1.2074021e-38
0.25876501 0.1407005 0.83875006 1.2810151e-38
0.26126501 0.13820051 0.83875006 1.5116118e-38
0.26126501 0.1407005 0.83875006 1.5391628e-38
0.25876501 0.1432005 0.83875006 1.2628285e-38
0.25876501 0.1432005 0.84125006 1.2439911e-38
0.25876501 0.14570051 0.84125006 1.4191628e-38
0.26126501 0.1432005 0.83875006 1.4840978e-38
0.26126501 0.1432005 0.84125006 1.5666417e-38
0.26126501 0.14570051 0.84125006 1.5114316e-38
0.25876501 0.1432005 0.84375006 1.2533544e-38
0.25876501 0.14570051 0.84375006 1.3548056e-38
0.26126501 0.1432005 0.84375006 1.5482023e-38
0.26126501 0.14570051 0.84375006 1.4377834e-38
0.26376501 0.10570051 0.83375007 1.0134702e-38
0.26376501 0.10570051 0.83875006 1.1240333e-38
0.26376501 0.10570051 0.84125006 1.5299458e-38
0.26376501 0.10820051 0.82125008 4.795993e-39
0.26376501 0.11070051 0.82125008 7.9259571e-39
0.266265 0.11070051 0.82125008 6.2703916e-39
0.26376501 0.10820051 0.82375008 8.2925648e-39
0.26376501 0.10820051 0.82625008 3.8729647e-39
0.26376501 0.11070051 0.82375008 9.4021774e-39
0.26376501 0.11070051 0.82625008 9.861715e-39
0.26376501 0.11320051 0.82125008 5.6225041e-39
0.26376501 0.11320051 0.82375008 1.124681e-38
0.26376501 0.11320051 0.82625008 1.1430125e-38
0.26376501 0.11570051 0.82375008 1.4471844e-38
0.26376501 0.11570051 0.82625008 1.5483458e-38
0.266265 0.11320051 0.82375008 4.1481069e-39
0.266265 0.11570051 0.82375008 1.0505633e-38
0.266265 0.11570051 0.82625008 9.9546113e-39
0.26376501 0.11820051 0.82375008 1.4931003e-38
0.26376501 0.11820051 0.82625008 1.5115025e-38
0.26376501 0.12070051 0.82625008 1.548273e-38
0.266265 0.11820051 0.82375008 1.5298361e-38
0.266265 0.11820051 0.82625008 1.3548069e-38
0.26376501 0.10820051 0.82875007 3.5049011e-39
0.26376501 0.10820051 0.83125007 1.1064224e-38
0.266265 0.11570051 0.82875007 7.7415588e-39
0.26376501 0.10820051 0.83875006 1.852338e-38
0.26376501 0.10820051 0.84125006 1.6588354e-38
0.26376501 0.10820051 0.84375006 1.8522645e-38
0.26376501 0.12070051 0.82875007 1.5203629e-38
0.26376501 0.12070051 0.83125007 1.5756452e-38
0.266265 0.11820051 0.82875007 1.3363322e-38
0.266265 0.12070051 0.82875007 1.5206162e-38
0.26376501 0.12320051 0.83125007 1.5203985e-38
0.26376501 0.1257005 0.83125007 1.5203982e-38
0.26376501 0.12320051 0.83375007 1.5665326e-38
0.26376501 0.1257005 0.83375007 1.5389098e-38
0.26376501 0.1257005 0.83625007 1.5296896e-38
0.266265 0.12320051 0.83375007 1.548129e-38
0.266265 0.1257005 0.83375007 1.5204348e-38
0.266265 0.1257005 0.83625007 1.5204701e-38
0.26376501 0.12820052 0.83125007 1.7507796e-38
0.26376501 0.13070051 0.83125007 1.5111433e-38
0.26376501 0.12820052 0.83375007 1.5297262e-38
0.26376501 0.12820052 0.83625007 1.5297252e-38
0.26376501 0.13070051 0.83375007 1.5205422e-38
0.26376501 0.13070051 0.83625007 1.5205422e-38
0.266265 0.12820052 0.83375007 1.492884e-38
0.266265 0.12820052 0.83625007 1.5204698e-38
0.266265 0.13070051 0.83375007 1.5296543e-38
0.266265 0.13070051 0.83625007 1.5296899e-38
0.26376501 0.13320051 0.83375007 1.5113599e-38
0.26376501 0.13320051 0.83625007 1.4837363e-38
0.26376501 0.13570051 0.83625007 1.483701e-38
0.268765 0.13070051 0.83125007 1.6956062e-38
0.271265 0.13070051 0.83125007 1.7968772e-38
0.26376501 0.13320051 0.83875006 1.502212e-38
0.26376501 0.13570051 0.83875006 1.5298701e-38
0.26376501 0.13820051 0.83875006 1.5482732e-38
0.26376501 0.1407005 0.83875006 1.5665323e-38
0.26376501 0.14570051 0.84375006 1.5023203e-38
0.24126501 0.10820051 0.84875011 1.815244e-38
0.23876502 0.11320051 0.84875011 1.5849351e-38
0.23876502 0.11320051 0.85125011 1.6125584e-38
0.23876502 0.11570051 0.84875011 1.6403244e-38
0.23876502 0.11570051 0.85125011 1.6125581e-38
0.24126501 0.11320051 0.84875011 1.6309975e-38
0.24126501 0.11570051 0.84875011 1.5112152e-38
0.23876502 0.11320051 0.85625011 1.5848998e-38
0.23876502 0.11570051 0.85625011 1.6125581e-38
0.23876502 0.11570051 0.8587501 1.5942269e-38
0.236265 0.12070051 0.84875011 1.8797807e-38
0.236265 0.12320051 0.84875011 1.6217776e-38
0.236265 0.12320051 0.85125011 1.8152437e-38
0.236265 0.1257005 0.84875011 1.6217058e-38
0.236265 0.1257005 0.85125011 1.6215257e-38
0.23376501 0.12320051 0.85625011 1.8521944e-38
0.23376501 0.1257005 0.85625011 1.8336112e-38
0.236265 0.12320051 0.85625011 1.8153163e-38
0.236265 0.1257005 0.85375011 1.8151001e-38
0.236265 0.1257005 0.85625011 1.8243917e-38
0.23876502 0.12070051 0.84875011 1.612738e-38
0.23876502 0.12070051 0.85125011 1.8521225e-38
0.24126501 0.11820051 0.84875011 1.2534248e-38
0.24126501 0.12070051 0.84875011 1.1520468e-38
0.24126501 0.12070051 0.85125011 1.2626097e-38
0.23876502 0.11820051 0.85625011 1.6309972e-38
0.24126501 0.11820051 0.85375011 1.6035186e-38
0.24126501 0.11820051 0.85625011 1.6126663e-38
0.23876502 0.12320051 0.84875011 1.612738e-38
0.23876502 0.12320051 0.85125011 1.8704538e-38
0.23876502 0.1257005 0.84875011 1.6034464e-38
0.23876502 0.1257005 0.85125011 1.6309975e-38
0.24126501 0.12320051 0.84875011 1.151975e-38
0.24126501 0.12320051 0.85125011 1.5295098e-38
0.24126501 0.1257005 0.85125011 1.4556816e-38
0.23876502 0.12320051 0.85375011 1.8703819e-38
0.23876502 0.1257005 0.85375011 1.861162e-38
0.23876502 0.1257005 0.85625011 1.6493637e-38
0.24126501 0.1257005 0.85375011 1.8336478e-38
0.236265 0.12320051 0.8587501 1.7875853e-38
0.23876502 0.11820051 0.8612501 1.5666402e-38
0.23876502 0.12070051 0.8612501 1.5665323e-38
0.24126501 0.11820051 0.8612501 1.5850792e-38
0.24126501 0.12070051 0.8612501 1.5850073e-38
0.23876502 0.12070051 0.8637501 1.5665326e-38
0.24126501 0.12070051 0.8637501 1.8336834e-38
0.23876502 0.12320051 0.8587501 1.842903e-38
0.23876502 0.12320051 0.8612501 1.8151364e-38
0.23876502 0.1257005 0.8612501 1.8152084e-38
0.24126501 0.12320051 0.8587501 1.8153163e-38
0.23876502 0.1257005 0.8637501 1.8243914e-38
0.24126501 0.12320051 0.8637501 1.8429027e-38
0.23126501 0.13070051 0.85125011 1.5941913e-38
0.23126501 0.13320051 0.85125011 1.6033029e-38
0.23376501 0.13070051 0.85125011 1.5941562e-38
0.236265 0.12820052 0.84875011 1.8613774e-38
0.236265 0.12820052 0.85375011 1.796697e-38
0.23376501 0.13320051 0.85125011 1.6125581e-38
0.236265 0.13320051 0.85375011 1.6217776e-38
0.23876502 0.12820052 0.84875011 1.492884e-38
0.23876502 0.12820052 0.85125011 1.5021035e-38
0.23876502 0.13070051 0.84875011 1.714044e-38
0.23876502 0.13070051 0.85125011 1.4744444e-38
0.24126501 0.12820052 0.84875011 1.133285e-38
0.24126501 0.12820052 0.85125011 1.1332856e-38
0.24126501 0.13070051 0.84875011 1.0043197e-38
0.24126501 0.13070051 0.85125011 1.0688211e-38
0.23876502 0.12820052 0.85375011 1.8243917e-38
0.23876502 0.12820052 0.85625011 1.8244633e-38
0.23876502 0.13070051 0.85375011 1.621813e-38
0.23876502 0.13070051 0.85625011 1.8061323e-38
0.24126501 0.12820052 0.85375011 1.5482013e-38
0.24126501 0.13070051 0.85375011 1.6954988e-38
0.24126501 0.13320051 0.84875011 9.4892961e-39
0.24126501 0.13320051 0.85125011 8.8485902e-39
0.24126501 0.13570051 0.84875011 8.6613291e-39
0.24126501 0.13570051 0.85125011 8.9407929e-39
0.23876502 0.13320051 0.85375011 1.6033385e-38
0.24126501 0.13320051 0.85375011 9.4892961e-39
0.24126501 0.13570051 0.85375011 9.5814932e-39
0.24126501 0.13570051 0.85625011 1.3729943e-38
0.23376501 0.12820052 0.8587501 1.8336831e-38
0.23376501 0.13070051 0.8587501 1.8429383e-38
0.236265 0.12820052 0.8587501 1.8244636e-38
0.236265 0.13070051 0.8587501 1.815244e-38
0.236265 0.13320051 0.8612501 1.8429383e-38
0.23876502 0.12820052 0.8612501 1.815244e-38
0.23876502 0.13070051 0.8587501 1.7969128e-38
0.24126501 0.13820051 0.85625011 8.7535107e-39
0.23876502 0.1432005 0.84875011 1.1055896e-38
0.23876502 0.14570051 0.84875011 9.856987e-39
0.23876502 0.14570051 0.85125011 9.9495624e-39
0.24126501 0.1432005 0.84875011 1.1240289e-38
0.24126501 0.14570051 0.84875011 1.0227209e-38
0.23876502 0.14570051 0.85375011 1.1792386e-38
0.23876502 0.14570051 0.85625011 1.2530309e-38
0.24126501 0.1432005 0.85375011 1.0597436e-38
0.24126501 0.14570051 0.85375011 1.0872578e-38
0.24126501 0.14570051 0.85625011 1.0597789e-38
0.23876502 0.14570051 0.8587501 1.2069696e-38
0.24376501 0.13320051 0.85375011 8.5727068e-39
0.24376501 0.13570051 0.85375011 8.664199e-39
0.24376501 0.13820051 0.85625011 9.4925569e-39
0.24376501 0.14570051 0.85375011 1.1798876e-38
0.24376501 0.14570051 0.85625011 1.1430418e-38
0.23876502 0.14820051 0.84375006 1.041196e-38
0.23876502 0.14820051 0.84625012 1.0780733e-38
0.23876502 0.15070051 0.84375006 1.1150942e-38
0.23876502 0.15070051 0.84625012 1.0689285e-38
0.24126501 0.14820051 0.84375006 1.2897662e-38
0.24126501 0.14820051 0.84625012 1.142433e-38
0.24126501 0.15070051 0.84375006 1.2899087e-38
0.24126501 0.15070051 0.84625012 1.1702343e-38
0.23876502 0.15320051 0.84625012 1.1149873e-38
0.24126501 0.15320051 0.84625012 1.1702714e-38
0.24126501 0.1557005 0.84625012 1.1797057e-38
0.24376501 0.14820051 0.84375006 1.1885655e-38
0.24376501 0.14820051 0.84625012 1.161015e-38
0.24376501 0.15070051 0.84375006 1.2162951e-38
0.24376501 0.15070051 0.84625012 1.1885658e-38
0.24626501 0.14820051 0.84375006 1.0782182e-38
0.24626501 0.14820051 0.84625012 1.0689266e-38
0.24626501 0.15070051 0.84375006 1.0964775e-38
0.24626501 0.15070051 0.84625012 1.0872225e-38
0.24376501 0.15320051 0.84625012 1.1792742e-38
0.24376501 0.1557005 0.84625012 1.225768e-38
0.24626501 0.15320051 0.84625012 1.0870077e-38
0.24626501 0.1557005 0.84625012 9.6754895e-39
0.24876501 0.14820051 0.84375006 8.755694e-39
0.24876501 0.14820051 0.84625012 9.398527e-39
0.24876501 0.15070051 0.84375006 9.6743922e-39
0.24876501 0.15070051 0.84625012 9.4892905e-39
0.25126502 0.14820051 0.84375006 7.5571522e-39
0.25126502 0.14820051 0.84625012 9.2137952e-39
0.25126502 0.15070051 0.84625012 9.2137952e-39
0.24876501 0.15320051 0.84625012 9.856285e-39
0.25126502 0.15320051 0.84625012 9.3985438e-39
0.25876501 0.15070051 0.83625007 1.7140459e-38
0.26126501 0.15070051 0.83625007 1.7232654e-38
0.25876501 0.15320051 0.83625007 1.7140456e-38
0.26126501 0.15320051 0.83625007 1.7140456e-38
0.25626501 0.14820051 0.83875006 1.2257668e-38
0.25626501 0.14820051 0.84125006 1.050489e-38
0.25626501 0.15070051 0.83875006 1.1056976e-38
0.25626501 0.15070051 0.84125006 1.1609441e-38
0.25376502 0.14820051 0.84375006 9.9553175e-39
0.25376502 0.14820051 0.84625012 1.0415217e-38
0.25376502 0.15070051 0.84375006 1.050849e-38
0.25376502 0.15070051 0.84625012 1.0783293e-38
0.25626501 0.14820051 0.84375006 9.9542371e-39
0.25626501 0.14820051 0.84625012 1.0691802e-38
0.25626501 0.15070051 0.84375006 1.0596737e-38
0.25626501 0.15070051 0.84625012 1.1426848e-38
0.25626501 0.15320051 0.83875006 1.1978222e-38
0.25626501 0.15320051 0.84125006 1.2255529e-38
0.25626501 0.1557005 0.83875006 1.2440993e-38
0.25626501 0.1557005 0.84125006 1.2440993e-38
0.25376502 0.15320051 0.84625012 1.1795273e-38
0.25376502 0.1557005 0.84625012 1.1795273e-38
0.25626501 0.15320051 0.84375006 1.0966947e-38
0.25626501 0.15320051 0.84625012 1.1242086e-38
0.25626501 0.1557005 0.84375006 1.1611613e-38
0.25626501 0.1557005 0.84625012 1.1703415e-38
0.25876501 0.14820051 0.83875006 1.4928487e-38
0.25876501 0.14820051 0.84125006 1.4467136e-38
0.25876501 0.15070051 0.83875006 1.5573856e-38
0.25876501 0.15070051 0.84125006 1.5297265e-38
0.26126501 0.14820051 0.83875006 1.4836291e-38
0.26126501 0.14820051 0.84125006 1.4929208e-38
0.26126501 0.15070051 0.83875006 1.5204713e-38
0.26126501 0.15070051 0.84125006 1.5113597e-38
0.25876501 0.14820051 0.84375006 1.4191628e-38
0.25876501 0.15070051 0.84375006 1.4191628e-38
0.25876501 0.15070051 0.84625012 1.244063e-38
0.26126501 0.14820051 0.84375006 1.5389816e-38
0.26126501 0.15070051 0.84375006 1.5204713e-38
0.25876501 0.15320051 0.83875006 1.548129e-38
0.25876501 0.15320051 0.84125006 1.5298348e-38
0.25876501 0.1557005 0.83875006 1.5482008e-38
0.25876501 0.1557005 0.84125006 1.5299417e-38
0.26126501 0.15320051 0.83875006 1.5296899e-38
0.26126501 0.15320051 0.84125006 1.5298701e-38
0.26126501 0.1557005 0.84125006 1.5482379e-38
0.25376502 0.1582005 0.84625012 1.225552e-38
0.25376502 0.16070051 0.84625012 1.2256258e-38
0.25626501 0.1582005 0.84375006 1.1979668e-38
0.25626501 0.1582005 0.84625012 1.1426495e-38
0.25626501 0.16070051 0.84625012 1.1889255e-38
0.25876501 0.1582005 0.84125006 1.5114303e-38
0.26126501 0.1582005 0.84125006 1.5204713e-38
0.25876501 0.1582005 0.84375006 1.5207219e-38
0.25876501 0.1582005 0.84625012 1.2625377e-38
0.25876501 0.16070051 0.84625012 1.2350232e-38
0.26126501 0.1582005 0.84375006 1.5389816e-38
0.26126501 0.16070051 0.84625012 1.4746985e-38
0.26376501 0.14820051 0.84375006 1.5296915e-38
0.26376501 0.15070051 0.84375006 1.5204713e-38
0.23876502 0.14820051 0.84875011 8.6634983e-39
0.23876502 0.14820051 0.85125011 9.3063482e-39
0.23876502 0.15070051 0.84875011 8.2025216e-39
0.23876502 0.15070051 0.85125011 8.2032082e-39
0.24126501 0.14820051 0.84875011 9.5829351e-39
0.24126501 0.14820051 0.85125011 1.0964077e-38
0.24126501 0.15070051 0.84875011 1.0781481e-38
0.23876502 0.14820051 0.85375011 1.0686762e-38
0.23876502 0.14820051 0.85625011 1.077931e-38
0.23876502 0.15070051 0.85375011 1.0042467e-38
0.23876502 0.15070051 0.85625011 1.0226142e-38
0.24126501 0.14820051 0.85375011 8.7553408e-39
0.24126501 0.14820051 0.85625011 1.1519018e-38
0.24126501 0.15070051 0.85375011 9.9509693e-39
0.23876502 0.15320051 0.84875011 8.6602207e-39
0.23876502 0.15320051 0.85125011 7.6500485e-39
0.23876502 0.1557005 0.84875011 9.4896058e-39
0.23876502 0.1557005 0.85125011 8.2914354e-39
0.24126501 0.15320051 0.84875011 1.1889255e-38
0.24126501 0.15320051 0.85125011 1.1060917e-38
0.24126501 0.1557005 0.84875011 1.1429715e-38
0.24126501 0.1557005 0.85125011 1.161157e-38
0.23876502 0.15320051 0.85625011 8.9368426e-39
0.23876502 0.1557005 0.85375011 7.4642363e-39
0.23876502 0.1557005 0.85625011 8.0152394e-39
0.24126501 0.15320051 0.85375011 8.2928745e-39
0.24126501 0.15320051 0.85625011 7.8344229e-39
0.24126501 0.1557005 0.85375011 7.9237445e-39
0.24126501 0.1557005 0.85625011 7.7418966e-39
0.23876502 0.14820051 0.8587501 1.1793109e-38
0.23876502 0.15070051 0.8587501 1.1701993e-38
0.23876502 0.15320051 0.8587501 1.0597084e-38
0.23876502 0.1557005 0.8587501 8.2914732e-39
0.24126501 0.15320051 0.8587501 8.2921444e-39
0.24126501 0.1557005 0.8587501 9.0283194e-39
0.23876502 0.1582005 0.84875011 9.3988942e-39
0.23876502 0.1582005 0.85125011 7.7415434e-39
0.24126501 0.1582005 0.84875011 1.2073627e-38
0.24126501 0.1582005 0.85125011 1.179741e-38
0.24126501 0.16070051 0.84875011 1.2163684e-38
0.24126501 0.16070051 0.85125011 1.2165469e-38
0.23876502 0.1582005 0.85375011 8.2903844e-39
0.23876502 0.1582005 0.85625011 8.1996111e-39
0.23876502 0.16070051 0.85375011 8.5644503e-39
0.23876502 0.16070051 0.85625011 8.8421232e-39
0.24126501 0.1582005 0.85375011 7.9266592e-39
0.24126501 0.1582005 0.85625011 7.926306e-39
0.24126501 0.16070051 0.85375011 1.1154955e-38
0.24126501 0.16070051 0.85625011 8.2043349e-39
0.24126501 0.16320051 0.85125011 1.2900533e-38
0.23876502 0.16320051 0.85625011 8.8431826e-39
0.23876502 0.16570051 0.85625011 8.3836506e-39
0.24126501 0.16320051 0.85375011 1.2440998e-38
0.24126501 0.16320051 0.85625011 1.2074737e-38
0.24126501 0.16570051 0.85375011 1.2625394e-38
0.24126501 0.16570051 0.85625011 1.2717589e-38
0.236265 0.16070051 0.8587501 1.4834492e-38
0.236265 0.16320051 0.8587501 1.4558625e-38
0.236265 0.16320051 0.8637501 1.8707784e-38
0.236265 0.16570051 0.8637501 1.8891102e-38
0.23876502 0.1582005 0.8587501 8.291441e-39
0.23876502 0.1582005 0.8612501 1.4744078e-38
0.23876502 0.16070051 0.8587501 8.4744141e-39
0.23876502 0.16070051 0.8612501 1.3727387e-38
0.24126501 0.1582005 0.8587501 7.9215963e-39
0.24126501 0.16070051 0.8587501 8.0145136e-39
0.23876502 0.16070051 0.8637501 1.5480214e-38
0.24126501 0.16070051 0.8637501 1.2440264e-38
0.24126501 0.16070051 0.8662501 1.3451522e-38
0.23876502 0.16320051 0.8587501 9.5753541e-39
0.23876502 0.16320051 0.8612501 1.2064635e-38
0.23876502 0.16570051 0.8587501 8.8424764e-39
0.23876502 0.16570051 0.8612501 9.856285e-39
0.24126501 0.16320051 0.8587501 9.03012e-39
0.24126501 0.16570051 0.8587501 9.2137952e-39
0.24126501 0.16570051 0.8612501 8.1982014e-39
0.23876502 0.16320051 0.8637501 1.3544103e-38
0.23876502 0.16570051 0.8637501 1.2991651e-38
0.23876502 0.16570051 0.8662501 1.2991285e-38
0.24126501 0.16320051 0.8637501 1.1700547e-38
0.24126501 0.16570051 0.8637501 9.6740363e-39
0.24126501 0.16070051 0.8687501 1.3731706e-38
0.24126501 0.16070051 0.87125009 1.6033758e-38
0.23876502 0.16320051 0.8687501 1.4834126e-38
0.23876502 0.16320051 0.87125009 1.916696e-38
0.23876502 0.16570051 0.8687501 1.2715066e-38
0.23876502 0.16570051 0.87125009 1.8799257e-38
0.24126501 0.16320051 0.8687501 1.1701263e-38
0.24126501 0.16320051 0.87125009 1.5663161e-38
0.24126501 0.16570051 0.8687501 9.2141512e-39
0.24126501 0.16570051 0.87125009 1.1055881e-38
0.24126501 0.16820051 0.85375011 1.3177505e-38
0.24126501 0.16820051 0.85625011 1.3085664e-38
0.24126501 0.17070051 0.85625011 1.3729949e-38
0.24126501 0.1732005 0.85625011 1.4375669e-38
0.24126501 0.17570052 0.85625011 1.4007609e-38
0.236265 0.16820051 0.8612501 1.9998523e-38
0.236265 0.17070051 0.8612501 1.8894674e-38
0.236265 0.16820051 0.8637501 1.7695427e-38
0.236265 0.17070051 0.8637501 1.7507796e-38
0.236265 0.1732005 0.8637501 1.640791e-38
0.236265 0.17570052 0.8637501 1.585042e-38
0.236265 0.17570052 0.8662501 1.7969493e-38
0.23876502 0.16820051 0.8587501 9.6725902e-39
0.23876502 0.16820051 0.8612501 8.6609816e-39
0.23876502 0.17070051 0.8587501 9.6740391e-39
0.23876502 0.17070051 0.8612501 9.0286697e-39
0.24126501 0.16820051 0.8587501 9.8588171e-39
0.24126501 0.16820051 0.8612501 8.5687818e-39
0.24126501 0.17070051 0.8587501 1.068643e-38
0.24126501 0.17070051 0.8612501 9.3985466e-39
0.23876502 0.16820051 0.8637501 1.1515078e-38
0.23876502 0.16820051 0.8662501 1.2162969e-38
0.23876502 0.17070051 0.8637501 1.0502351e-38
0.23876502 0.17070051 0.8662501 1.0687468e-38
0.24126501 0.16820051 0.8637501 9.1190829e-39
0.24126501 0.17070051 0.8637501 8.1103217e-39
0.23876502 0.1732005 0.8587501 9.675837e-39
0.23876502 0.1732005 0.8612501 8.4747532e-39
0.23876502 0.17570052 0.8587501 9.6747426e-39
0.23876502 0.17570052 0.8612501 8.7524163e-39
0.24126501 0.1732005 0.8587501 1.2069712e-38
0.24126501 0.1732005 0.8612501 9.9509749e-39
0.24126501 0.17570052 0.8587501 1.2164418e-38
0.24126501 0.17570052 0.8612501 1.0321181e-38
0.23876502 0.1732005 0.8637501 9.4918115e-39
0.23876502 0.1732005 0.8662501 1.0317957e-38
0.23876502 0.17570052 0.8637501 9.0293914e-39
0.23876502 0.17570052 0.8662501 9.488922e-39
0.24126501 0.1732005 0.8637501 7.9262654e-39
0.24126501 0.1732005 0.8662501 8.2928801e-39
0.24126501 0.17570052 0.8637501 8.5694642e-39
0.24126501 0.17570052 0.8662501 7.5575053e-39
0.236265 0.17820051 0.8637501 1.5299754e-38
0.236265 0.17820051 0.8662501 1.769256e-38
0.23876502 0.17820051 0.8612501 8.8489434e-39
0.24126501 0.17820051 0.8587501 1.2257697e-38
0.24126501 0.17820051 0.8612501 1.1060564e-38
0.24126501 0.18070051 0.8587501 1.2717233e-38
0.24126501 0.18070051 0.8612501 1.1614131e-38
0.23876502 0.17820051 0.8637501 9.7676571e-39
0.23876502 0.17820051 0.8662501 9.0300766e-39
0.23876502 0.18070051 0.8662501 8.8471455e-39
0.24126501 0.17820051 0.8637501 8.203225e-39
0.24126501 0.17820051 0.8662501 8.111028e-39
0.24126501 0.18070051 0.8637501 1.1613775e-38
0.24126501 0.18070051 0.8662501 8.6638753e-39
0.24126501 0.18320051 0.8587501 1.5942622e-38
0.24126501 0.18320051 0.8612501 1.1891422e-38
0.24126501 0.18570051 0.8587501 1.5759672e-38
0.24126501 0.18570051 0.8612501 1.3270763e-38
0.24126501 0.18320051 0.8637501 1.2904146e-38
0.24126501 0.18320051 0.8662501 8.6638459e-39
0.24126501 0.18570051 0.8637501 1.3548051e-38
0.24126501 0.18570051 0.8662501 8.8475379e-39
0.236265 0.17570052 0.8687501 1.7234456e-38
0.236265 0.17570052 0.87125009 1.6126307e-38
0.23876502 0.16820051 0.8687501 1.1977503e-38
0.23876502 0.16820051 0.87125009 1.852339e-38
0.23876502 0.17070051 0.8687501 1.7049695e-38
0.24126501 0.16820051 0.8687501 9.672237e-39
0.23876502 0.1732005 0.8687501 1.0042099e-38
0.23876502 0.17570052 0.8687501 9.3048965e-39
0.23876502 0.17570052 0.87125009 1.4929909e-38
0.23876502 0.17570052 0.87375009 1.5850792e-38
0.236265 0.17820051 0.8687501 1.44686e-38
0.236265 0.17820051 0.87125009 1.4375679e-38
0.236265 0.18070051 0.87125009 1.3732114e-38
0.23876502 0.17820051 0.8687501 1.400828e-38
0.23876502 0.17820051 0.87125009 1.465188e-38
0.23876502 0.18070051 0.8687501 9.1215842e-39
0.23876502 0.18070051 0.87125009 1.2625377e-38
0.24126501 0.17820051 0.8687501 9.6761901e-39
0.24126501 0.17820051 0.87125009 8.7531618e-39
0.24126501 0.18070051 0.8687501 1.0043871e-38
0.24126501 0.18070051 0.87125009 8.7538807e-39
0.23876502 0.17820051 0.87375009 1.5205798e-38
0.23876502 0.18070051 0.87375009 1.4377104e-38
0.24126501 0.18070051 0.87375009 9.0293886e-39
0.23876502 0.18320051 0.8687501 8.5709187e-39
0.24126501 0.18320051 0.8687501 8.6634983e-39
0.24126501 0.18320051 0.87125009 8.7545995e-39
0.24376501 0.14820051 0.85375011 1.1149541e-38
0.24376501 0.15320051 0.84875011 1.216439e-38
0.24376501 0.1557005 0.84875011 1.2073637e-38
0.24376501 0.1557005 0.85125011 1.1430085e-38
0.24626501 0.1557005 0.84875011 1.0967648e-38
0.25126502 0.15070051 0.84875011 7.6468297e-39
0.24876501 0.15320051 0.84875011 1.1423957e-38
0.24876501 0.1557005 0.84875011 9.6733329e-39
0.24876501 0.1557005 0.85125011 9.3988942e-39
0.25126502 0.15320051 0.84875011 9.3063482e-39
0.25126502 0.1557005 0.84875011 8.2929053e-39
0.25126502 0.1557005 0.85125011 9.2141512e-39
0.24376501 0.1582005 0.84875011 1.2807986e-38
0.24376501 0.1582005 0.85125011 1.2073637e-38
0.24376501 0.16070051 0.84875011 1.2716493e-38
0.24376501 0.16070051 0.85125011 1.2809407e-38
0.24626501 0.1582005 0.84875011 1.0687486e-38
0.24626501 0.1582005 0.85125011 1.0506671e-38
0.24626501 0.16070051 0.84875011 1.05038e-38
0.24626501 0.16070051 0.85125011 1.0504875e-38
0.24376501 0.16070051 0.85375011 1.2073993e-38
0.24376501 0.16320051 0.85125011 1.2994154e-38
