# .PCD v0.7 - Point Cloud Data file format
VERSION 0.7
FIELDS x y z rgb
SIZE 4 4 4 4
TYPE F F F F
COUNT 1 1 1 1
WIDTH 759
HEIGHT 1
VIEWPOINT 0 0 0 1 0 0 0
POINTS 759
DATA ascii
-0.21450011 0.13080533 0.96475011 1.6771329e-38
-0.21450011 0.13080533 0.96725011 1.6218888e-38
-0.2095001 0.12580533 0.96725011 1.4375663e-38
-0.2120001 0.12830533 0.96725011 1.4651189e-38
-0.2120001 0.13080533 0.96475011 1.5483474e-38
-0.2120001 0.13080533 0.96725011 1.0322689e-38
-0.2095001 0.12830533 0.96475011 1.2438462e-38
-0.2095001 0.12830533 0.96725011 1.3178901e-38
-0.2095001 0.13080533 0.96475011 1.032374e-38
-0.2095001 0.13080533 0.96725011 9.6801908e-39
-0.21450011 0.12580533 0.9772501 1.6403635e-38
-0.21700011 0.13080533 0.9722501 1.6953196e-38
-0.21450011 0.12830533 0.9722501 1.5945175e-38
-0.21450011 0.13080533 0.96975011 1.5026465e-38
-0.21450011 0.13080533 0.9722501 1.539309e-38
-0.21450011 0.12830533 0.9747501 1.5577118e-38
-0.21450011 0.12830533 0.9772501 1.5665704e-38
-0.21450011 0.13080533 0.9747501 1.6038449e-38
-0.2120001 0.12580533 0.96975011 1.5481673e-38
-0.2095001 0.12580533 0.96975011 1.4927786e-38
-0.2120001 0.12580533 0.9747501 1.456478e-38
-0.2120001 0.12580533 0.9772501 1.5578178e-38
-0.2095001 0.12580533 0.9772501 1.0415222e-38
-0.2120001 0.12830533 0.96975011 1.4009425e-38
-0.2120001 0.12830533 0.9722501 1.3917595e-38
-0.2120001 0.13080533 0.96975011 1.0600715e-38
-0.2120001 0.13080533 0.9722501 1.2074047e-38
-0.2095001 0.12830533 0.96975011 1.3178195e-38
-0.2095001 0.12830533 0.9722501 1.0321557e-38
-0.2095001 0.13080533 0.96975011 1.0603569e-38
-0.2095001 0.13080533 0.9722501 1.1516892e-38
-0.2120001 0.12830533 0.9747501 1.446788e-38
-0.2120001 0.12830533 0.9772501 1.437713e-38
-0.2095001 0.12830533 0.9747501 1.0871891e-38
-0.2095001 0.12830533 0.9772501 9.5869162e-39
-0.20700011 0.12580533 0.96725011 1.0964425e-38
-0.20700011 0.12830533 0.96475011 1.1608701e-38
-0.20700011 0.12830533 0.96725011 1.0504869e-38
-0.20700011 0.13080533 0.96475011 1.1430087e-38
-0.20700011 0.13080533 0.96725011 1.2442486e-38
-0.20450011 0.12830533 0.96475011 1.5850834e-38
-0.20450011 0.13080533 0.96475011 1.6221041e-38
-0.20450011 0.13080533 0.96725011 1.5761529e-38
-0.20200011 0.13080533 0.96725011 1.6127418e-38
-0.19950011 0.13080533 0.96725011 1.5390575e-38
-0.20700011 0.12830533 0.96975011 1.1332898e-38
-0.20700011 0.12830533 0.9722501 1.0967355e-38
-0.20700011 0.13080533 0.96975011 1.2163727e-38
-0.20700011 0.13080533 0.9722501 1.1612359e-38
-0.20450011 0.12830533 0.96975011 1.4836332e-38
-0.20450011 0.12830533 0.9722501 1.530088e-38
-0.20450011 0.13080533 0.96975011 1.6220337e-38
-0.20450011 0.13080533 0.9722501 1.5670038e-38
-0.20700011 0.12830533 0.9747501 1.4194199e-38
-0.20700011 0.12830533 0.9772501 1.3917616e-38
-0.20700011 0.13080533 0.9747501 1.594196e-38
-0.20450011 0.12830533 0.9747501 1.5299108e-38
-0.20450011 0.12830533 0.9772501 1.5849409e-38
-0.20200011 0.12830533 0.9722501 1.6499423e-38
-0.20200011 0.13080533 0.96975011 1.64962e-38
-0.20200011 0.13080533 0.9722501 1.5670038e-38
-0.19950011 0.12830533 0.9722501 1.6772415e-38
-0.19950011 0.13080533 0.96975011 1.6221041e-38
-0.19950011 0.13080533 0.9722501 1.2256997e-38
-0.20200011 0.12830533 0.9747501 1.6588381e-38
-0.20200011 0.12830533 0.9772501 1.6772415e-38
-0.19950011 0.12830533 0.9747501 1.4006903e-38
-0.19950011 0.12830533 0.9772501 1.4099114e-38
-0.19950011 0.13080533 0.9747501 1.2069367e-38
-0.19950011 0.13080533 0.9772501 1.2255204e-38
-0.1970001 0.13080533 0.96725011 1.0780793e-38
-0.1970001 0.12580533 0.9772501 1.0410569e-38
-0.1945001 0.12580533 0.9747501 1.0410901e-38
-0.1945001 0.12580533 0.9772501 1.0503803e-38
-0.1970001 0.13080533 0.96975011 1.1795653e-38
-0.1970001 0.13080533 0.9722501 1.1977485e-38
-0.1945001 0.12830533 0.9722501 1.1241036e-38
-0.1945001 0.13080533 0.9722501 1.1333949e-38
-0.1970001 0.12830533 0.9747501 1.2626075e-38
-0.1970001 0.12830533 0.9772501 1.2625024e-38
-0.1970001 0.13080533 0.9747501 1.1332134e-38
-0.1970001 0.13080533 0.9772501 1.0689616e-38
-0.1945001 0.12830533 0.9747501 1.0321617e-38
-0.1945001 0.12830533 0.9772501 1.0318352e-38
-0.1945001 0.13080533 0.9747501 1.0782943e-38
-0.1945001 0.13080533 0.9772501 1.1518711e-38
-0.19200011 0.12580533 0.9747501 1.2623236e-38
-0.19200011 0.12580533 0.9772501 1.161376e-38
-0.19200011 0.12830533 0.9722501 1.391471e-38
-0.19200011 0.13080533 0.9722501 1.5390556e-38
-0.19200011 0.12830533 0.9747501 1.4006553e-38
-0.19200011 0.12830533 0.9772501 1.4096969e-38
-0.19200011 0.13080533 0.9747501 1.5298714e-38
-0.19200011 0.13080533 0.9772501 1.5112899e-38
-0.2095001 0.11080533 1.0122501 1.474159e-38
-0.2095001 0.11080533 1.0147501 1.474229e-38
-0.21450011 0.12080533 0.99475008 1.6679143e-38
-0.21450011 0.12080533 0.99725008 1.6035929e-38
-0.2120001 0.11580534 0.99725008 1.502285e-38
-0.2095001 0.11580534 0.99725008 1.3825028e-38
-0.2120001 0.12080533 0.99225008 1.5576036e-38
-0.2095001 0.12080533 0.99225008 1.1796374e-38
-0.2120001 0.11830533 0.99475008 1.6220323e-38
-0.2120001 0.11830533 0.99725008 1.3179674e-38
-0.2120001 0.12080533 0.99475008 1.5024666e-38
-0.2120001 0.12080533 0.99725008 1.1336118e-38
-0.2095001 0.11830533 0.99475008 1.0873674e-38
-0.2095001 0.11830533 0.99725008 1.1245353e-38
-0.2095001 0.12080533 0.99475008 1.0875863e-38
-0.2095001 0.12080533 0.99725008 1.1423979e-38
-0.21450011 0.12830533 0.9797501 1.5573508e-38
-0.21450011 0.12830533 0.98725009 1.5575673e-38
-0.2120001 0.12580533 0.9797501 1.5210092e-38
-0.2095001 0.12580533 0.9797501 9.6794719e-39
-0.2120001 0.12580533 0.98475009 1.0323743e-38
-0.2120001 0.12580533 0.98725009 1.0969505e-38
-0.2095001 0.12580533 0.98475009 1.0140093e-38
-0.2095001 0.12580533 0.98725009 1.1979301e-38
-0.2120001 0.12830533 0.9797501 1.4652272e-38
-0.2095001 0.12830533 0.9797501 9.679116e-39
-0.2095001 0.13080533 0.9797501 1.1425093e-38
-0.2120001 0.12830533 0.98475009 1.0963374e-38
-0.2120001 0.12830533 0.98725009 1.087368e-38
-0.2095001 0.12830533 0.98475009 1.0137576e-38
-0.2095001 0.12830533 0.98725009 1.1614131e-38
-0.21450011 0.12330534 0.99475008 1.5392361e-38
-0.21450011 0.12330534 0.99725008 1.5576039e-38
-0.21450011 0.12580533 0.99475008 1.1703826e-38
-0.21450011 0.12580533 0.99725008 1.3824325e-38
-0.21450011 0.12830533 0.99225008 1.5392707e-38
-0.2120001 0.12330534 0.99225008 1.1613775e-38
-0.2120001 0.12580533 0.98975009 1.1888936e-38
-0.2120001 0.12580533 0.99225008 1.1517964e-38
-0.2095001 0.12330534 0.98975009 1.087621e-38
-0.2095001 0.12330534 0.99225008 1.1058804e-38
-0.2095001 0.12580533 0.98975009 1.2163334e-38
-0.2120001 0.12330534 0.99475008 1.4562596e-38
-0.2120001 0.12580533 0.99475008 1.2534277e-38
-0.2120001 0.12830533 0.99225008 1.0966958e-38
-0.21450011 0.12080533 0.99975008 1.6217818e-38
-0.21450011 0.11830533 1.0047501 1.6219619e-38
-0.21450011 0.11830533 1.0072501 1.6493685e-38
-0.2120001 0.11580534 0.99975008 1.4930301e-38
-0.2095001 0.11580534 0.99975008 1.400942e-38
-0.2120001 0.11330533 1.0047501 1.631179e-38
-0.2120001 0.11330533 1.0072501 1.5485276e-38
-0.2120001 0.11580534 1.0047501 1.6126679e-38
-0.2120001 0.11580534 1.0072501 1.6035225e-38
-0.2095001 0.11330533 1.0047501 1.1428315e-38
-0.2095001 0.11330533 1.0072501 1.1059885e-38
-0.2095001 0.11580534 1.0047501 1.5118639e-38
-0.2120001 0.11830533 0.99975008 1.3271507e-38
-0.2120001 0.12080533 0.99975008 1.5944825e-38
-0.2095001 0.11830533 0.99975008 1.2071176e-38
-0.2120001 0.11830533 1.0047501 1.5114342e-38
-0.2120001 0.11830533 1.0072501 1.5573871e-38
-0.2095001 0.11830533 1.0047501 1.4374615e-38
-0.21450011 0.11330533 1.0097501 1.6677345e-38
-0.21450011 0.11580534 1.0097501 1.6494386e-38
-0.21450011 0.11580534 1.0122501 1.7320902e-38
-0.2120001 0.11330533 1.0097501 1.5668235e-38
-0.2095001 0.11330533 1.0097501 1.2535736e-38
-0.2095001 0.11330533 1.0122501 1.2161911e-38
-0.2120001 0.11330533 1.0147501 1.2901643e-38
-0.2095001 0.11330533 1.0147501 1.1062406e-38
-0.21450011 0.12330534 0.99975008 1.640184e-38
-0.20450011 0.10580534 1.0147501 2.1372844e-38
-0.20700011 0.10830534 1.0097501 1.2256293e-38
-0.20700011 0.10830534 1.0122501 1.2621128e-38
-0.20700011 0.11080533 1.0097501 1.2163712e-38
-0.20700011 0.11080533 1.0122501 1.2346305e-38
-0.20450011 0.10830534 1.0097501 1.298951e-38
-0.20450011 0.10830534 1.0122501 1.6584781e-38
-0.20450011 0.11080533 1.0097501 1.1888905e-38
-0.20450011 0.11080533 1.0122501 1.4931359e-38
-0.20700011 0.10830534 1.0147501 1.3722403e-38
-0.20700011 0.11080533 1.0147501 1.2621804e-38
-0.20450011 0.10830534 1.0147501 2.0360451e-38
-0.20450011 0.11080533 1.0147501 1.492919e-38
-0.20200011 0.10580534 1.0122501 2.1100549e-38
-0.19950011 0.10580534 1.0122501 2.2760429e-38
-0.20200011 0.10580534 1.0147501 2.1374978e-38
-0.19950011 0.10580534 1.0147501 2.3126335e-38
-0.20200011 0.10830534 1.0097501 1.8889283e-38
-0.20200011 0.10830534 1.0122501 1.9442437e-38
-0.20200011 0.11080533 1.0097501 1.5299067e-38
-0.20200011 0.11080533 1.0122501 1.5850073e-38
-0.19950011 0.10830534 1.0097501 2.2853695e-38
-0.19950011 0.10830534 1.0122501 2.3314654e-38
-0.19950011 0.11080533 1.0097501 2.055205e-38
-0.19950011 0.11080533 1.0122501 2.0369101e-38
-0.20200011 0.10830534 1.0147501 2.0176042e-38
-0.20200011 0.11080533 1.0147501 1.6307811e-38
-0.19950011 0.10830534 1.0147501 2.2485654e-38
-0.19950011 0.11080533 1.0147501 2.1470408e-38
-0.1970001 0.10580534 1.0122501 2.2577853e-38
-0.1970001 0.10830534 1.0097501 2.2212307e-38
-0.1970001 0.10830534 1.0122501 2.1568743e-38
-0.1970001 0.11080533 1.0097501 2.0000353e-38
-0.1970001 0.11080533 1.0122501 1.3547018e-38
-0.1945001 0.11080533 1.0122501 1.4833359e-38
-0.1970001 0.11080533 1.0147501 1.3913271e-38
-0.1945001 0.11080533 1.0147501 1.5199624e-38
-0.20200011 0.12080533 0.98725009 1.7600753e-38
-0.19950011 0.12080533 0.98725009 1.7049747e-38
-0.20700011 0.11580534 0.99725008 1.0320518e-38
-0.20450011 0.11580534 0.99725008 1.5577469e-38
-0.20700011 0.11830533 0.99225008 9.9517176e-39
-0.20700011 0.12080533 0.98975009 9.957128e-39
-0.20700011 0.12080533 0.99225008 1.0510302e-38
-0.20450011 0.11830533 0.99225008 1.3629507e-38
-0.20450011 0.12080533 0.98975009 1.4187365e-38
-0.20450011 0.12080533 0.99225008 1.418629e-38
-0.20700011 0.11830533 0.99475008 1.0413424e-38
-0.20700011 0.11830533 0.99725008 9.0322977e-39
-0.20450011 0.11830533 0.99475008 1.3721349e-38
-0.20450011 0.11830533 0.99725008 2.1193493e-38
-0.20200011 0.11580534 0.99725008 1.8245046e-38
-0.19950011 0.11580534 0.99725008 2.2301654e-38
-0.20200011 0.11830533 0.98975009 2.275578e-38
-0.20200011 0.11830533 0.99225008 2.2572483e-38
-0.20200011 0.12080533 0.98975009 2.0641059e-38
-0.20200011 0.12080533 0.99225008 2.1376441e-38
-0.19950011 0.11830533 0.98975009 2.2851944e-38
-0.19950011 0.11830533 0.99225008 2.3219294e-38
-0.19950011 0.12080533 0.98975009 1.8795328e-38
-0.19950011 0.12080533 0.99225008 1.9163387e-38
-0.20200011 0.11830533 0.99475008 2.3502711e-38
-0.20200011 0.11830533 0.99725008 2.2943055e-38
-0.19950011 0.11830533 0.99475008 2.340296e-38
-0.19950011 0.11830533 0.99725008 2.1378609e-38
-0.20700011 0.12580533 0.9797501 1.1154602e-38
-0.20450011 0.12580533 0.9797501 1.6955386e-38
-0.20700011 0.12330534 0.98725009 1.170527e-38
-0.20700011 0.12580533 0.98475009 1.3362997e-38
-0.20700011 0.12580533 0.98725009 1.2442835e-38
-0.20450011 0.12330534 0.98725009 1.5296235e-38
-0.20450011 0.12580533 0.98475009 1.6682041e-38
-0.20450011 0.12580533 0.98725009 1.5669682e-38
-0.20700011 0.12830533 0.9797501 1.1799971e-38
-0.20700011 0.13080533 0.9797501 1.4559386e-38
-0.20450011 0.12830533 0.9797501 1.6497998e-38
-0.20450011 0.13080533 0.9797501 1.6590914e-38
-0.20700011 0.12830533 0.98475009 1.3366236e-38
-0.20700011 0.12830533 0.98725009 1.4284228e-38
-0.20450011 0.12830533 0.98475009 1.5671129e-38
-0.20450011 0.12830533 0.98725009 1.6588752e-38
-0.20450011 0.13080533 0.98475009 1.6405434e-38
-0.20200011 0.12580533 0.9797501 1.7048283e-38
-0.19950011 0.12580533 0.9797501 1.548273e-38
-0.20200011 0.12330534 0.98725009 1.5851575e-38
-0.20200011 0.12580533 0.98475009 1.7048298e-38
-0.20200011 0.12580533 0.98725009 1.5392742e-38
-0.19950011 0.12330534 0.98475009 1.6219579e-38
-0.19950011 0.12330534 0.98725009 1.5760065e-38
-0.19950011 0.12580533 0.98475009 1.4746286e-38
-0.19950011 0.12580533 0.98725009 1.5575673e-38
-0.20200011 0.12830533 0.9797501 1.6956087e-38
-0.20200011 0.13080533 0.9797501 1.6401131e-38
-0.19950011 0.12830533 0.9797501 1.520401e-38
-0.19950011 0.13080533 0.9797501 1.1610854e-38
-0.20200011 0.12830533 0.98475009 1.5665719e-38
-0.20200011 0.12830533 0.98725009 1.5758633e-38
-0.20200011 0.13080533 0.98475009 1.7047935e-38
-0.19950011 0.12830533 0.98475009 1.4925262e-38
-0.19950011 0.12830533 0.98725009 1.511577e-38
-0.20700011 0.12330534 0.98975009 1.1706342e-38
-0.20700011 0.12330534 0.99225008 1.3085308e-38
-0.20700011 0.12580533 0.98975009 1.3359397e-38
-0.20450011 0.12330534 0.98975009 1.4653389e-38
-0.20450011 0.12330534 0.99225008 1.5568136e-38
-0.20450011 0.12580533 0.98975009 1.5303422e-38
-0.20200011 0.12330534 0.98975009 1.5851572e-38
-0.20200011 0.12580533 0.98975009 1.5026834e-38
-0.19950011 0.12330534 0.98975009 1.2258426e-38
-0.19950011 0.12580533 0.98975009 1.0138295e-38
-0.19950011 0.12830533 0.98975009 1.004501e-38
-0.1970001 0.11830533 0.98725009 1.9812359e-38
-0.1970001 0.12080533 0.98475009 1.3913962e-38
-0.1970001 0.12080533 0.98725009 1.3270407e-38
-0.1945001 0.11830533 0.98725009 1.0869023e-38
-0.1945001 0.12080533 0.98475009 1.0502724e-38
-0.1945001 0.12080533 0.98725009 1.0135756e-38
-0.19200011 0.11830533 0.98725009 9.9524197e-39
-0.19200011 0.12080533 0.98475009 1.1147024e-38
-0.19200011 0.12080533 0.98725009 9.9542371e-39
-0.1970001 0.11580534 0.98975009 2.1652669e-38
-0.1945001 0.11580534 0.98975009 1.0684967e-38
-0.1970001 0.11580534 0.99725008 1.4740889e-38
-0.1970001 0.11830533 0.98975009 2.0273335e-38
-0.1970001 0.11830533 0.99225008 2.0548477e-38
-0.1970001 0.12080533 0.98975009 1.7325531e-38
-0.1945001 0.11830533 0.98975009 9.7665907e-39
-0.1945001 0.11830533 0.99225008 1.0042449e-38
-0.1945001 0.12080533 0.98975009 9.8616884e-39
-0.1970001 0.11830533 0.99475008 1.2987727e-38
-0.1970001 0.11830533 0.99725008 1.2343437e-38
-0.1945001 0.11830533 0.99725008 1.0406597e-38
-0.1970001 0.12580533 0.9797501 9.9546141e-39
-0.1945001 0.12580533 0.9797501 9.7705718e-39
-0.1970001 0.12330534 0.98475009 1.087297e-38
-0.1970001 0.12330534 0.98725009 1.0229772e-38
-0.1970001 0.12580533 0.98475009 8.8497015e-39
-0.1970001 0.12580533 0.98725009 1.1328168e-38
-0.1945001 0.12330534 0.98475009 1.004321e-38
-0.1945001 0.12330534 0.98725009 9.860629e-39
-0.1945001 0.12580533 0.98475009 1.1975689e-38
-0.1945001 0.12580533 0.98725009 1.1973538e-38
-0.1970001 0.12830533 0.9797501 9.7680494e-39
-0.1970001 0.13080533 0.9797501 9.9531231e-39
-0.1945001 0.12830533 0.9797501 9.6769482e-39
-0.1945001 0.13080533 0.9797501 1.114885e-38
-0.1970001 0.12830533 0.98475009 1.1239235e-38
-0.1970001 0.12830533 0.98725009 1.096085e-38
-0.1970001 0.13080533 0.98475009 1.0782945e-38
-0.1970001 0.13080533 0.98725009 9.9513505e-39
-0.1945001 0.12830533 0.98725009 1.1521211e-38
-0.19200011 0.12330534 0.98725009 1.16988e-38
-0.19200011 0.12580533 0.98725009 1.2530311e-38
-0.1970001 0.12330534 0.98975009 1.0230478e-38
-0.1970001 0.12580533 0.98975009 1.0685316e-38
-0.1945001 0.12330534 0.98975009 9.4003571e-39
-0.1945001 0.12330534 0.99225008 1.0870487e-38
-0.1945001 0.12580533 0.98975009 1.1607273e-38
-0.1945001 0.12330534 0.99475008 1.0779682e-38
-0.1945001 0.12330534 0.99725008 1.0596737e-38
-0.1945001 0.12580533 0.99475008 1.1148501e-38
-0.1945001 0.12580533 0.99725008 1.1332895e-38
-0.1970001 0.12830533 0.98975009 9.1266485e-39
-0.1970001 0.13080533 0.99225008 9.2156099e-39
-0.1945001 0.12830533 0.98975009 1.1155659e-38
-0.1945001 0.12830533 0.99225008 1.1154952e-38
-0.1945001 0.13080533 0.98975009 1.3730327e-38
-0.20700011 0.11580534 0.99975008 1.0045008e-38
-0.20450011 0.11580534 0.99975008 1.1984706e-38
-0.20700011 0.11330533 1.0047501 1.1335341e-38
-0.20700011 0.11330533 1.0072501 1.0966579e-38
-0.20700011 0.11580534 1.0047501 1.0138642e-38
-0.20450011 0.11330533 1.0072501 1.1427907e-38
-0.20450011 0.11580534 1.0047501 1.6305698e-38
-0.20700011 0.11830533 0.99975008 1.2983406e-38
-0.20700011 0.11830533 1.0047501 1.0408748e-38
-0.20200011 0.11580534 0.99975008 2.1563367e-38
-0.19950011 0.11580534 0.99975008 2.3499838e-38
-0.20200011 0.11580534 1.0047501 2.2115823e-38
-0.20200011 0.11580534 1.0072501 2.2756518e-38
-0.19950011 0.11580534 1.0047501 2.2391684e-38
-0.19950011 0.11580534 1.0072501 1.9072642e-38
-0.20200011 0.11830533 0.99975008 2.3494789e-38
-0.19950011 0.11830533 0.99975008 2.1837429e-38
-0.20200011 0.11830533 1.0047501 2.3036348e-38
-0.19950011 0.11830533 1.0047501 2.3499477e-38
-0.19950011 0.11830533 1.0072501 1.344511e-38
-0.20700011 0.11330533 1.0097501 1.1519024e-38
-0.20700011 0.11330533 1.0122501 1.1059883e-38
-0.20700011 0.11580534 1.0122501 1.2071109e-38
-0.20450011 0.11330533 1.0097501 1.2441741e-38
-0.20450011 0.11330533 1.0122501 1.5668588e-38
-0.20450011 0.11580534 1.0122501 1.3729246e-38
-0.20700011 0.11330533 1.0147501 1.2533939e-38
-0.20700011 0.11580534 1.0147501 1.3176788e-38
-0.20450011 0.11330533 1.0147501 1.5852982e-38
-0.20450011 0.11580534 1.0147501 1.7417428e-38
-0.20200011 0.11330533 1.0097501 1.9622608e-38
-0.20200011 0.11330533 1.0122501 1.7504594e-38
-0.20200011 0.11580534 1.0122501 1.9807355e-38
-0.19950011 0.11330533 1.0097501 2.0729316e-38
-0.19950011 0.11330533 1.0122501 2.1008394e-38
-0.19950011 0.11580534 1.0097501 1.8980796e-38
-0.19950011 0.11580534 1.0122501 2.0637116e-38
-0.20200011 0.11330533 1.0147501 1.7594269e-38
-0.20200011 0.11580534 1.0147501 2.017288e-38
-0.19950011 0.11330533 1.0147501 2.1742712e-38
-0.19950011 0.11580534 1.0147501 2.0452299e-38
-0.1970001 0.11580534 0.99975008 1.4925283e-38
-0.1970001 0.11580534 1.0072501 1.5383369e-38
-0.1945001 0.11580534 1.0072501 1.2433109e-38
-0.1970001 0.11830533 0.99975008 1.2802257e-38
-0.1970001 0.11830533 1.0047501 1.0041045e-38
-0.1970001 0.11830533 1.0072501 1.0315834e-38
-0.1970001 0.12080533 1.0072501 1.0133212e-38
-0.1945001 0.11830533 1.0047501 1.1516175e-38
-0.1945001 0.11830533 1.0072501 1.1789885e-38
-0.1970001 0.11330533 1.0097501 1.9626867e-38
-0.1970001 0.11330533 1.0122501 1.4743375e-38
-0.1970001 0.11580534 1.0097501 1.5475565e-38
-0.1970001 0.11580534 1.0122501 1.5570259e-38
-0.1945001 0.11330533 1.0122501 1.5939417e-38
-0.1945001 0.11580534 1.0097501 1.26175e-38
-0.1945001 0.11580534 1.0122501 1.6675865e-38
-0.1970001 0.11330533 1.0147501 1.5476268e-38
-0.1970001 0.11580534 1.0147501 1.2709657e-38
-0.1945001 0.11330533 1.0147501 1.6304602e-38
-0.1945001 0.11580534 1.0147501 1.6859183e-38
-0.1970001 0.11830533 1.0097501 1.4272302e-38
-0.1970001 0.11830533 1.0122501 1.3165594e-38
-0.1970001 0.12080533 1.0122501 1.1423979e-38
-0.1945001 0.11830533 1.0097501 1.1698768e-38
-0.1945001 0.11830533 1.0122501 1.2716125e-38
-0.1945001 0.12080533 1.0122501 1.2715084e-38
-0.19200011 0.11330533 1.0122501 2.0912936e-38
-0.19200011 0.11580534 1.0122501 2.0083141e-38
-0.19950011 0.14580533 0.93475008 1.5574559e-38
-0.19950011 0.14580533 0.93725008 1.6218875e-38
-0.19950011 0.14830533 0.93475008 1.2444598e-38
-0.19950011 0.14830533 0.93725008 1.2350249e-38
-0.19950011 0.15080534 0.93725008 9.4889402e-39
-0.1970001 0.14580533 0.93225008 1.0134294e-38
-0.1945001 0.14580533 0.93225008 1.0503831e-38
-0.1970001 0.14580533 0.93475008 9.3993075e-39
-0.1970001 0.14580533 0.93725008 9.029411e-39
-0.1970001 0.14830533 0.93475008 1.032374e-38
-0.1970001 0.14830533 0.93725008 1.0042153e-38
-0.1970001 0.15080534 0.93725008 1.1701995e-38
-0.19950011 0.15330534 0.93725008 8.2950731e-39
-0.1970001 0.15330534 0.93725008 1.0691799e-38
-0.21950011 0.14330533 0.94975007 1.566642e-38
-0.21950011 0.14580533 0.94975007 1.7599995e-38
-0.21950011 0.14330533 0.95475012 1.6404002e-38
-0.21950011 0.14580533 0.95475012 1.686604e-38
-0.21950011 0.14830533 0.94975007 1.9256642e-38
-0.21450011 0.13580534 0.95475012 1.5025389e-38
-0.21700011 0.13830534 0.95475012 1.6495105e-38
-0.21700011 0.14080533 0.95475012 1.5945894e-38
-0.21450011 0.13830534 0.95475012 1.5207613e-38
-0.21450011 0.14080533 0.95475012 1.2074021e-38
-0.2120001 0.13580534 0.95475012 1.0507803e-38
-0.2095001 0.13330534 0.95475012 9.4943324e-39
-0.2095001 0.13580534 0.95475012 9.6819831e-39
-0.2120001 0.14080533 0.94975007 1.0596014e-38
-0.2095001 0.13830534 0.94975007 9.6787685e-39
-0.2095001 0.14080533 0.94975007 9.9560742e-39
-0.2120001 0.13830534 0.95475012 1.0505635e-38
-0.2120001 0.14080533 0.95475012 1.0506336e-38
-0.2095001 0.13830534 0.95475012 8.5741964e-39
-0.2095001 0.14080533 0.95475012 9.2199553e-39
-0.21700011 0.14330533 0.94475007 1.667878e-38
-0.21700011 0.14330533 0.94725007 1.6403985e-38
-0.21700011 0.14580533 0.94475007 1.8057393e-38
-0.21700011 0.14580533 0.94725007 1.6681648e-38
-0.21450011 0.14330533 0.94475007 1.5574225e-38
-0.21450011 0.14330533 0.94725007 1.0322683e-38
-0.21450011 0.14580533 0.94475007 1.5392354e-38
-0.21450011 0.14580533 0.94725007 9.676951e-39
-0.21700011 0.15080534 0.94225007 1.151834e-38
-0.21450011 0.14830533 0.93975008 1.4558963e-38
-0.21450011 0.14830533 0.94225007 1.5482732e-38
-0.21450011 0.15080534 0.93975008 1.1612664e-38
-0.21450011 0.15080534 0.94225007 1.1337872e-38
-0.21700011 0.14830533 0.94475007 1.6491512e-38
-0.21700011 0.14830533 0.94725007 1.6956087e-38
-0.21700011 0.15080534 0.94475007 1.5295843e-38
-0.21450011 0.14830533 0.94475007 1.5023203e-38
-0.21450011 0.14830533 0.94725007 1.4840978e-38
-0.21450011 0.15080534 0.94475007 1.4191622e-38
-0.2120001 0.14580533 0.94225007 1.0506375e-38
-0.2095001 0.14580533 0.94225007 1.0879826e-38
-0.2120001 0.14330533 0.94475007 1.1056639e-38
-0.2120001 0.14330533 0.94725007 9.4950709e-39
-0.2120001 0.14580533 0.94475007 9.9560771e-39
-0.2120001 0.14580533 0.94725007 8.761124e-39
-0.2095001 0.14330533 0.94475007 1.0784012e-38
-0.2095001 0.14330533 0.94725007 1.0693614e-38
-0.2095001 0.14580533 0.94475007 1.1062066e-38
-0.2095001 0.14580533 0.94725007 1.0697232e-38
-0.2120001 0.14830533 0.93975008 1.5483783e-38
-0.2120001 0.14830533 0.94225007 1.2904906e-38
-0.2120001 0.15080534 0.93975008 1.5210089e-38
-0.2120001 0.15080534 0.94225007 1.6404338e-38
-0.2095001 0.14830533 0.93975008 1.5208329e-38
-0.2095001 0.14830533 0.94225007 1.2628318e-38
-0.2095001 0.15080534 0.93975008 1.5760421e-38
-0.2095001 0.15080534 0.94225007 1.6404338e-38
-0.2120001 0.14830533 0.94475007 1.382466e-38
-0.2120001 0.14830533 0.94725007 1.0782239e-38
-0.2120001 0.15080534 0.94475007 1.622069e-38
-0.2095001 0.14830533 0.94475007 1.2813067e-38
-0.21700011 0.14330533 0.94975007 1.6220687e-38
-0.21700011 0.14580533 0.94975007 1.6681298e-38
-0.21450011 0.14330533 0.94975007 1.1152447e-38
-0.21700011 0.14330533 0.95475012 1.5116866e-38
-0.21450011 0.14330533 0.95475012 9.8638758e-39
-0.21700011 0.14830533 0.94975007 1.7230153e-38
-0.2120001 0.14330533 0.94975007 1.0325555e-38
-0.2095001 0.14330533 0.94975007 1.0875882e-38
-0.2120001 0.14330533 0.95475012 1.0966984e-38
-0.21950011 0.13830534 0.96225011 1.622032e-38
-0.21950011 0.14080533 0.96225011 1.5852629e-38
-0.21950011 0.14080533 0.96725011 1.5944452e-38
-0.21950011 0.13330534 0.9722501 1.640037e-38
-0.21950011 0.13580534 0.96975011 1.658547e-38
-0.21950011 0.13580534 0.9722501 1.6215272e-38
-0.21950011 0.13330534 0.9747501 1.5664603e-38
-0.21950011 0.13580534 0.9747501 1.603483e-38
-0.22200011 0.14330533 0.95975012 1.6033775e-38
-0.21950011 0.14330533 0.95975012 1.7504945e-38
-0.21950011 0.14330533 0.96225011 1.6220693e-38
-0.21700011 0.13330534 0.96225011 1.6402894e-38
-0.21700011 0.13580534 0.95975012 1.6494386e-38
-0.21700011 0.13580534 0.96225011 1.6860276e-38
-0.21450011 0.13330534 0.95975012 1.5577471e-38
-0.21450011 0.13330534 0.96225011 1.4653357e-38
-0.21450011 0.13580534 0.95975012 1.5209059e-38
-0.21450011 0.13580534 0.96225011 1.2718333e-38
-0.21700011 0.13330534 0.96725011 1.6128124e-38
-0.21700011 0.13580534 0.96725011 1.5577471e-38
-0.21450011 0.13330534 0.96475011 1.4562959e-38
-0.21450011 0.13330534 0.96725011 1.5853698e-38
-0.21700011 0.13830534 0.95975012 1.6128843e-38
-0.21700011 0.13830534 0.96225011 1.6035931e-38
-0.21700011 0.14080533 0.95975012 1.5852979e-38
-0.21700011 0.14080533 0.96225011 1.4929954e-38
-0.21450011 0.13830534 0.95975012 1.5665719e-38
-0.21450011 0.13830534 0.96225011 1.1060251e-38
-0.21450011 0.14080533 0.95975012 1.3825382e-38
-0.21700011 0.13830534 0.96725011 1.667878e-38
-0.2120001 0.13330534 0.95975012 1.4470764e-38
-0.2120001 0.13330534 0.96225011 1.3733533e-38
-0.2120001 0.13580534 0.95975012 1.115245e-38
-0.2120001 0.13580534 0.96225011 1.188712e-38
-0.2095001 0.13330534 0.95975012 1.004677e-38
-0.2095001 0.13330534 0.96225011 9.4006976e-39
-0.2095001 0.13580534 0.95975012 1.0322674e-38
-0.2095001 0.13580534 0.96225011 1.0966984e-38
-0.2120001 0.13330534 0.96475011 1.3274004e-38
-0.2120001 0.13330534 0.96725011 9.9542638e-39
-0.2095001 0.13330534 0.96475011 9.3095922e-39
-0.2095001 0.13330534 0.96725011 8.9418999e-39
-0.2095001 0.13580534 0.96725011 9.9532044e-39
-0.2120001 0.13830534 0.95975012 1.0597831e-38
-0.2095001 0.13830534 0.96225011 1.1797114e-38
-0.21700011 0.13330534 0.96975011 1.5300526e-38
-0.21700011 0.13330534 0.9722501 1.6770271e-38
-0.21700011 0.13580534 0.96975011 1.6219241e-38
-0.21450011 0.13330534 0.96975011 1.5113968e-38
-0.21450011 0.13330534 0.9722501 1.5392371e-38
-0.21700011 0.13330534 0.9747501 1.603341e-38
-0.2120001 0.13330534 0.96975011 1.1056286e-38
-0.2095001 0.13330534 0.96975011 1.2166227e-38
-0.21700011 0.14330533 0.95975012 1.6589102e-38
-0.2120001 0.15330534 0.93975008 1.4200529e-38
-0.2095001 0.15330534 0.93975008 1.6676611e-38
-0.20700011 0.13830534 0.94725007 1.2811262e-38
-0.20700011 0.14080533 0.94475007 1.4931764e-38
-0.20700011 0.14080533 0.94725007 1.4654812e-38
-0.20450011 0.13830534 0.94725007 1.6865005e-38
-0.20450011 0.14080533 0.94475007 1.6037377e-38
-0.20450011 0.14080533 0.94725007 1.6314701e-38
-0.19950011 0.13580534 0.94475007 1.5943395e-38
-0.19950011 0.13580534 0.94725007 1.5666423e-38
-0.20200011 0.13830534 0.94225007 1.677279e-38
-0.20200011 0.14080533 0.94225007 1.6313592e-38
-0.19950011 0.13830534 0.93975008 1.4557571e-38
-0.19950011 0.13830534 0.94225007 1.502035e-38
-0.19950011 0.14080533 0.93975008 1.2532865e-38
-0.19950011 0.14080533 0.94225007 1.2533583e-38
-0.20200011 0.13830534 0.94475007 1.6865342e-38
-0.20200011 0.13830534 0.94725007 1.6866411e-38
-0.20200011 0.14080533 0.94475007 1.5852985e-38
-0.20200011 0.14080533 0.94725007 1.7049723e-38
-0.19950011 0.13830534 0.94475007 1.4930304e-38
-0.19950011 0.13830534 0.94725007 1.5021063e-38
-0.19950011 0.14080533 0.94475007 1.2073684e-38
-0.20700011 0.13580534 0.95475012 1.1244294e-38
-0.20450011 0.13580534 0.95475012 1.5025765e-38
-0.20700011 0.13830534 0.94975007 1.4010887e-38
-0.20700011 0.14080533 0.94975007 1.5117232e-38
-0.20450011 0.13830534 0.94975007 1.6407615e-38
-0.20450011 0.14080533 0.94975007 1.640797e-38
-0.20700011 0.13830534 0.95475012 1.2445353e-38
-0.20700011 0.14080533 0.95475012 1.3639972e-38
-0.20450011 0.13830534 0.95475012 1.5764396e-38
-0.20450011 0.14080533 0.95475012 1.6405805e-38
-0.20200011 0.13580534 0.95475012 1.6035222e-38
-0.19950011 0.13580534 0.95475012 1.5390562e-38
-0.20200011 0.13830534 0.94975007 1.4933917e-38
-0.19950011 0.13830534 0.94975007 1.4746636e-38
-0.20200011 0.13830534 0.95475012 1.613246e-38
-0.20200011 0.14080533 0.95475012 1.6863554e-38
-0.19950011 0.13830534 0.95475012 1.5112893e-38
-0.20700011 0.14580533 0.94225007 1.7969882e-38
-0.20450011 0.14580533 0.94225007 1.8522705e-38
-0.20700011 0.14330533 0.94475007 1.5854075e-38
-0.20700011 0.14330533 0.94725007 1.4381096e-38
-0.20700011 0.14580533 0.94475007 1.7511797e-38
-0.20450011 0.14330533 0.94475007 1.5578933e-38
-0.20450011 0.14330533 0.94725007 1.5945894e-38
-0.20450011 0.14580533 0.94475007 1.8339743e-38
-0.20450011 0.14580533 0.94725007 1.72334e-38
-0.20700011 0.14830533 0.93975008 1.5575654e-38
-0.20700011 0.14830533 0.94225007 1.6034872e-38
-0.20700011 0.15080534 0.93975008 1.5209388e-38
-0.20700011 0.15080534 0.94225007 9.7684208e-39
-0.20450011 0.14830533 0.93975008 1.4838089e-38
-0.20450011 0.14830533 0.94225007 1.6309992e-38
-0.20450011 0.15080534 0.93975008 9.6776517e-39
-0.20450011 0.15080534 0.94225007 8.7531744e-39
-0.20700011 0.14830533 0.94475007 1.686102e-38
-0.20450011 0.14830533 0.94475007 1.6861345e-38
-0.20450011 0.15080534 0.94475007 1.4741927e-38
-0.20200011 0.14330533 0.94225007 1.5115067e-38
-0.20200011 0.14580533 0.93975008 1.7965212e-38
-0.20200011 0.14580533 0.94225007 1.5298376e-38
-0.19950011 0.14330533 0.93975008 9.1223297e-39
-0.19950011 0.14330533 0.94225007 9.9521114e-39
-0.19950011 0.14580533 0.93975008 1.6401118e-38
-0.19950011 0.14580533 0.94225007 9.2134477e-39
-0.20200011 0.14330533 0.94475007 1.4748074e-38
-0.20200011 0.14330533 0.94725007 1.5577118e-38
-0.20200011 0.14580533 0.94475007 1.594373e-38
-0.19950011 0.14330533 0.94475007 9.4929227e-39
-0.19950011 0.14580533 0.94475007 9.3981963e-39
-0.20200011 0.14830533 0.93975008 1.4557909e-38
-0.20200011 0.14830533 0.94225007 1.5206852e-38
-0.20200011 0.15080534 0.93975008 8.107805e-39
-0.20200011 0.15080534 0.94225007 7.3684407e-39
-0.19950011 0.14830533 0.93975008 1.3362593e-38
-0.19950011 0.14830533 0.94225007 9.5825595e-39
-0.19950011 0.15080534 0.93975008 8.9397335e-39
-0.19950011 0.15080534 0.94225007 1.0965146e-38
-0.20200011 0.14830533 0.94475007 1.5575275e-38
-0.19950011 0.15080534 0.94475007 1.0690004e-38
-0.20700011 0.14330533 0.94975007 1.493213e-38
-0.20450011 0.14330533 0.94975007 1.6038449e-38
-0.1970001 0.13580534 0.94475007 1.4652994e-38
-0.1970001 0.13830534 0.93975008 1.3636655e-38
-0.1970001 0.13830534 0.94225007 9.9513477e-39
-0.1970001 0.14080533 0.93975008 1.0779329e-38
-0.1970001 0.14080533 0.94225007 9.6747804e-39
-0.1945001 0.13830534 0.93975008 9.9513505e-39
-0.1945001 0.13830534 0.94225007 9.3085146e-39
-0.1945001 0.14080533 0.93975008 1.0226156e-38
-0.1945001 0.14080533 0.94225007 9.9510142e-39
-0.1970001 0.13830534 0.94475007 9.3999886e-39
-0.1970001 0.13830534 0.94725007 9.2148812e-39
-0.1970001 0.14080533 0.94475007 9.678023e-39
-0.1970001 0.14080533 0.94725007 9.9513477e-39
-0.1945001 0.13830534 0.94475007 9.1252024e-39
-0.1945001 0.13830534 0.94725007 9.3085146e-39
-0.1945001 0.14080533 0.94475007 1.0227954e-38
-0.1945001 0.14080533 0.94725007 9.5858274e-39
-0.1970001 0.13580534 0.95475012 1.032015e-38
-0.1945001 0.13580534 0.95475012 1.0781128e-38
-0.1970001 0.13830534 0.94975007 1.0133959e-38
-0.1970001 0.14080533 0.94975007 1.0133609e-38
-0.1970001 0.13830534 0.95475012 1.0410158e-38
-0.1970001 0.14080533 0.95475012 9.3088677e-39
-0.1945001 0.13830534 0.95475012 1.1977485e-38
-0.1970001 0.14330533 0.93975008 8.6638725e-39
-0.1970001 0.14330533 0.94225007 1.1147726e-38
-0.1970001 0.14580533 0.93975008 9.763732e-39
-0.1970001 0.14580533 0.94225007 8.4798273e-39
-0.1945001 0.14330533 0.93975008 1.1238842e-38
-0.1970001 0.14330533 0.94475007 9.6747552e-39
-0.1970001 0.14330533 0.94725007 1.0412679e-38
-0.1970001 0.14580533 0.94475007 8.755694e-39
-0.1970001 0.14580533 0.94725007 1.1980725e-38
-0.1970001 0.14830533 0.93975008 1.068678e-38
-0.1970001 0.14830533 0.94225007 9.6776727e-39
-0.1970001 0.14580533 0.95475012 1.151291e-38
-0.20700011 0.13330534 0.96225011 1.3548827e-38
-0.20700011 0.13580534 0.95975012 1.5484938e-38
-0.20700011 0.13580534 0.96225011 1.5115786e-38
-0.20450011 0.13330534 0.96225011 1.4744489e-38
-0.20450011 0.13580534 0.95975012 1.6037729e-38
-0.20450011 0.13580534 0.96225011 1.502468e-38
-0.20700011 0.13330534 0.96475011 1.2998515e-38
-0.20700011 0.13330534 0.96725011 1.3272956e-38
-0.20700011 0.13580534 0.96475011 1.4381099e-38
-0.20700011 0.13580534 0.96725011 1.46516e-38
-0.20450011 0.13330534 0.96475011 1.5393838e-38
-0.20450011 0.13330534 0.96725011 1.6130661e-38
-0.20450011 0.13580534 0.96475011 1.5206909e-38
-0.20450011 0.13580534 0.96725011 1.6311481e-38
-0.20700011 0.13830534 0.95975012 1.6588396e-38
-0.20700011 0.13830534 0.96225011 1.5577134e-38
-0.20450011 0.13830534 0.95975012 1.6771358e-38
-0.20450011 0.13830534 0.96225011 1.6403285e-38
-0.20200011 0.13330534 0.96225011 1.6587653e-38
-0.20200011 0.13580534 0.95975012 1.5117582e-38
-0.20200011 0.13580534 0.96225011 1.5395597e-38
-0.19950011 0.13330534 0.96225011 1.4743741e-38
-0.19950011 0.13580534 0.95975012 1.1058804e-38
-0.19950011 0.13580534 0.96225011 1.2994915e-38
-0.20200011 0.13330534 0.96475011 1.5945531e-38
-0.20200011 0.13330534 0.96725011 1.6035578e-38
-0.20200011 0.13580534 0.96475011 1.6128474e-38
-0.20200011 0.13580534 0.96725011 1.4471117e-38
-0.19950011 0.13330534 0.96475011 1.3733521e-38
-0.19950011 0.13330534 0.96725011 1.4469682e-38
-0.19950011 0.13580534 0.96475011 1.0971967e-38
-0.19950011 0.13580534 0.96725011 1.3275417e-38
-0.20200011 0.13830534 0.95975012 1.4562243e-38
-0.20200011 0.13830534 0.96225011 1.594514e-38
-0.20200011 0.14080533 0.95975012 1.4193438e-38
-0.19950011 0.13830534 0.95975012 1.0136853e-38
-0.19950011 0.13830534 0.96225011 9.9524617e-39
-0.19950011 0.14080533 0.95975012 9.8584458e-39
-0.19950011 0.13830534 0.96475011 1.0228307e-38
-0.20700011 0.13330534 0.96975011 1.3639583e-38
-0.20450011 0.13330534 0.96975011 1.6313257e-38
-0.20450011 0.13330534 0.9722501 1.6494791e-38
-0.20450011 0.13580534 0.96975011 1.6587695e-38
-0.20200011 0.13330534 0.96975011 1.5942308e-38
-0.20200011 0.13330534 0.9722501 1.6218525e-38
-0.20200011 0.13580534 0.96975011 1.5296915e-38
-0.19950011 0.13330534 0.96975011 1.4652272e-38
-0.19950011 0.13330534 0.9722501 1.0964468e-38
-0.19950011 0.13580534 0.96975011 1.4100832e-38
-0.19950011 0.13580534 0.9722501 1.0043165e-38
-0.19950011 0.13330534 0.9747501 1.0410916e-38
-0.19950011 0.13580534 0.9747501 9.6754418e-39
-0.19950011 0.14330533 0.95975012 1.0132512e-38
-0.1970001 0.13330534 0.96225011 1.4191971e-38
-0.1970001 0.13580534 0.95975012 1.0135405e-38
-0.1970001 0.13580534 0.96225011 1.0044264e-38
-0.1970001 0.13330534 0.96475011 9.3999662e-39
-0.1970001 0.13330534 0.96725011 9.8599003e-39
-0.1970001 0.13580534 0.96475011 9.0358584e-39
-0.1970001 0.13580534 0.96725011 8.9418621e-39
-0.1945001 0.13330534 0.96475011 1.0686783e-38
-0.1945001 0.13580534 0.96475011 1.0229772e-38
-0.1970001 0.13830534 0.95975012 1.0224692e-38
-0.1970001 0.13830534 0.96225011 1.1607982e-38
-0.1970001 0.14080533 0.95975012 9.9513673e-39
-0.1945001 0.13830534 0.96225011 1.3910737e-38
-0.1970001 0.13830534 0.96475011 9.4950737e-39
-0.1970001 0.13830534 0.96725011 1.2069361e-38
-0.1970001 0.14080533 0.96725011 1.3450851e-38
-0.1945001 0.13830534 0.96475011 1.1148504e-38
-0.1970001 0.13330534 0.96975011 1.004501e-38
-0.1970001 0.13330534 0.9722501 1.0409808e-38
-0.1970001 0.13580534 0.96975011 9.9535309e-39
-0.1970001 0.13580534 0.9722501 1.0503096e-38
-0.1970001 0.13330534 0.9747501 1.0042817e-38
-0.1970001 0.13330534 0.9772501 1.0876192e-38
-0.1970001 0.13580534 0.9747501 1.0595666e-38
-0.1970001 0.13580534 0.9772501 1.2071514e-38
-0.1945001 0.13330534 0.9747501 1.1059182e-38
-0.1945001 0.13330534 0.9772501 1.1888552e-38
-0.1945001 0.13580534 0.9747501 1.372924e-38
-0.1945001 0.13580534 0.9772501 1.3177861e-38
-0.1970001 0.13830534 0.96975011 1.1332176e-38
-0.19200011 0.13330534 0.9747501 1.5758619e-38
-0.19200011 0.13330534 0.9772501 1.6034477e-38
-0.19200011 0.13580534 0.9772501 1.6953196e-38
-0.20700011 0.15330534 0.93975008 1.4658735e-38
-0.20450011 0.15330534 0.93975008 9.4032256e-39
-0.20200011 0.15330534 0.93975008 8.1103217e-39
-0.19950011 0.15330534 0.93975008 8.4798329e-39
-0.2120001 0.11080533 1.0197501 1.5203291e-38
-0.2095001 0.11080533 1.0197501 1.5384428e-38
-0.2095001 0.11330533 1.0197501 1.234738e-38
-0.20700011 0.10830534 1.0197501 1.7592414e-38
-0.20700011 0.11080533 1.0197501 1.2806182e-38
-0.20450011 0.10830534 1.0197501 2.0911456e-38
-0.20450011 0.11080533 1.0197501 1.722583e-38
-0.20200011 0.10830534 1.0197501 2.340183e-38
-0.20700011 0.11330533 1.0197501 1.1610538e-38
