# .PCD v0.7 - Point Cloud Data file format
VERSION 0.7
FIELDS x y z rgb
SIZE 4 4 4 4
TYPE F F F F
COUNT 1 1 1 1
WIDTH 544
HEIGHT 1
VIEWPOINT 0 0 0 1 0 0 0
POINTS 544
DATA ascii
0.07287059 0.092748888 1.0297501 1.7322333e-38
0.07287059 0.095248885 1.0297501 1.7781159e-38
0.065370589 0.092748888 1.03725 1.8702387e-38
0.065370589 0.095248885 1.03725 1.7781512e-38
0.067870587 0.092748888 1.03725 1.8611989e-38
0.067870587 0.095248885 1.03725 1.8427958e-38
0.065370589 0.092748888 1.0397501 1.7690761e-38
0.065370589 0.095248885 1.0397501 1.7047544e-38
0.067870587 0.092748888 1.0397501 1.7967703e-38
0.067870587 0.095248885 1.0397501 1.796914e-38
0.070370585 0.092748888 1.0347501 1.7325551e-38
0.070370585 0.092748888 1.03725 1.7322686e-38
0.070370585 0.095248885 1.0347501 1.73252e-38
0.070370585 0.095248885 1.03725 1.8153166e-38
0.07287059 0.092748888 1.0347501 1.6220297e-38
0.07287059 0.092748888 1.03725 1.7231558e-38
0.07287059 0.095248885 1.0347501 1.6127393e-38
0.07287059 0.095248885 1.03725 1.7138654e-38
0.070370585 0.092748888 1.0397501 1.7508147e-38
0.070370585 0.095248885 1.0397501 1.8521228e-38
0.07287059 0.092748888 1.0397501 1.7045392e-38
0.07287059 0.095248885 1.0397501 1.7138654e-38
0.075370587 0.092748888 1.0297501 1.7506364e-38
0.075370587 0.095248885 1.0297501 1.796555e-38
0.077870585 0.092748888 1.0297501 1.630888e-38
0.077870585 0.095248885 1.0297501 1.6494718e-38
0.08037059 0.092748888 1.0297501 1.6124862e-38
0.08037059 0.095248885 1.0297501 1.5759319e-38
0.082870588 0.095248885 1.0297501 1.548166e-38
0.075370587 0.092748888 1.0347501 1.6404689e-38
0.075370587 0.092748888 1.03725 1.5850786e-38
0.075370587 0.095248885 1.0347501 1.6404338e-38
0.075370587 0.095248885 1.03725 1.7413448e-38
0.077870585 0.092748888 1.0347501 1.6312127e-38
0.077870585 0.092748888 1.03725 1.6309625e-38
0.077870585 0.095248885 1.0347501 1.6586932e-38
0.077870585 0.095248885 1.03725 1.7413446e-38
0.08037059 0.092748888 1.0347501 1.640037e-38
0.08037059 0.092748888 1.03725 1.5666758e-38
0.08037059 0.095248885 1.0347501 1.5757874e-38
0.08037059 0.095248885 1.03725 1.7045023e-38
0.082870588 0.095248885 1.0347501 1.5756449e-38
0.065370589 0.095248885 1.0447501 1.6496161e-38
0.065370589 0.095248885 1.04725 1.7139737e-38
0.067870587 0.095248885 1.0447501 1.750672e-38
0.070370585 0.095248885 1.0447501 1.7137587e-38
0.085370585 0.095248885 1.0272501 1.7508512e-38
0.08787059 0.095248885 1.0247501 1.6400022e-38
0.08787059 0.095248885 1.0272501 1.603448e-38
0.090370588 0.095248885 1.0247501 1.6676236e-38
0.090370588 0.095248885 1.0272501 1.6033385e-38
0.092870586 0.095248885 1.0247501 1.6860629e-38
0.092870586 0.095248885 1.0272501 1.6952843e-38
0.085370585 0.095248885 1.0347501 1.5575281e-38
0.092870586 0.095248885 1.03725 1.7412707e-38
0.095370591 0.095248885 1.0272501 1.7043941e-38
0.097870588 0.095248885 1.0272501 1.6493275e-38
0.095370591 0.095248885 1.0297501 1.7966251e-38
0.097870588 0.095248885 1.0297501 1.9072598e-38
0.10037059 0.095248885 1.0272501 1.6493275e-38
0.095370591 0.095248885 1.0347501 1.8241764e-38
0.097870588 0.095248885 1.0347501 1.8887134e-38
0.062870592 0.097748883 1.0447501 1.5941928e-38
0.062870592 0.097748883 1.04725 1.6124524e-38
0.062870592 0.10024889 1.0447501 1.6859923e-38
0.062870592 0.10024889 1.04725 1.649042e-38
0.062870592 0.097748883 1.0497501 1.6219228e-38
0.062870592 0.10024889 1.0497501 1.6214553e-38
0.062870592 0.10274889 1.04725 1.6770975e-38
0.065370589 0.097748883 1.0397501 1.7691109e-38
0.065370589 0.10024889 1.0397501 1.5019956e-38
0.067870587 0.097748883 1.0397501 1.7875859e-38
0.067870587 0.10024889 1.0397501 1.5019956e-38
0.065370589 0.10274889 1.0397501 1.4469655e-38
0.065370589 0.10524888 1.0397501 1.7324121e-38
0.067870587 0.10274889 1.0397501 1.4100874e-38
0.067870587 0.10524888 1.0397501 1.6218132e-38
0.070370585 0.097748883 1.03725 1.7968051e-38
0.07287059 0.097748883 1.0347501 1.7506743e-38
0.07287059 0.097748883 1.03725 1.667913e-38
0.07287059 0.10024889 1.0347501 1.6125578e-38
0.07287059 0.10024889 1.03725 1.640072e-38
0.070370585 0.097748883 1.0397501 1.7876572e-38
0.070370585 0.10024889 1.0397501 1.5938669e-38
0.07287059 0.097748883 1.0397501 1.7691096e-38
0.07287059 0.10024889 1.0397501 1.612306e-38
0.07287059 0.10274889 1.0347501 1.6398922e-38
0.07287059 0.10274889 1.03725 1.6305643e-38
0.07287059 0.10524888 1.03725 1.5294381e-38
0.070370585 0.10274889 1.0397501 1.4740853e-38
0.070370585 0.10524888 1.0397501 1.5386959e-38
0.07287059 0.10274889 1.0397501 1.5201829e-38
0.07287059 0.10524888 1.0397501 1.4833785e-38
0.077870585 0.097748883 1.0297501 1.7510317e-38
0.077870585 0.10024889 1.0297501 1.8521944e-38
0.077870585 0.10274889 1.0297501 1.8058802e-38
0.077870585 0.10524888 1.0297501 1.5109281e-38
0.08037059 0.097748883 1.0272501 1.7508162e-38
0.08037059 0.10024889 1.0272501 1.8243935e-38
0.082870588 0.097748883 1.0272501 1.7322683e-38
0.082870588 0.10024889 1.0272501 1.7876579e-38
0.08037059 0.097748883 1.0297501 1.7785828e-38
0.08037059 0.10024889 1.0297501 1.7876575e-38
0.082870588 0.097748883 1.0297501 1.6859203e-38
0.082870588 0.10024889 1.0297501 1.7414897e-38
0.08037059 0.10274889 1.0272501 1.8243564e-38
0.082870588 0.10274889 1.0272501 1.667694e-38
0.08037059 0.10274889 1.0297501 1.7784376e-38
0.08037059 0.10524888 1.0297501 1.5753556e-38
0.082870588 0.10274889 1.0297501 1.6769483e-38
0.082870588 0.10524888 1.0297501 1.5936854e-38
0.075370587 0.097748883 1.0347501 1.7322351e-38
0.075370587 0.097748883 1.03725 1.6771326e-38
0.075370587 0.10024889 1.0347501 1.7505982e-38
0.075370587 0.10024889 1.03725 1.7138644e-38
0.077870585 0.097748883 1.0347501 1.7234103e-38
0.077870585 0.097748883 1.03725 1.6863889e-38
0.077870585 0.10024889 1.0347501 1.8245727e-38
0.077870585 0.10024889 1.03725 1.6311787e-38
0.075370587 0.10274889 1.0347501 1.7319788e-38
0.075370587 0.10274889 1.03725 1.6858459e-38
0.075370587 0.10524888 1.0347501 1.5108537e-38
0.075370587 0.10524888 1.03725 1.492524e-38
0.077870585 0.10274889 1.0347501 1.7966975e-38
0.077870585 0.10274889 1.03725 1.7045376e-38
0.077870585 0.10524888 1.0347501 1.4467136e-38
0.077870585 0.10524888 1.03725 1.3821766e-38
0.08037059 0.097748883 1.0347501 1.7325206e-38
0.08037059 0.097748883 1.03725 1.8428679e-38
0.08037059 0.10024889 1.0347501 1.8336478e-38
0.08037059 0.10024889 1.03725 1.7603235e-38
0.082870588 0.097748883 1.0347501 1.6588001e-38
0.082870588 0.10024889 1.0347501 1.7783304e-38
0.08037059 0.10274889 1.0347501 1.8059524e-38
0.08037059 0.10274889 1.03725 1.8241764e-38
0.08037059 0.10524888 1.0347501 1.5384776e-38
0.08037059 0.10524888 1.03725 1.4376019e-38
0.082870588 0.10274889 1.0347501 1.8059524e-38
0.082870588 0.10524888 1.0347501 1.5476972e-38
0.082870588 0.10774889 1.0297501 1.6121615e-38
0.082870588 0.11024889 1.0297501 1.6030145e-38
0.077870585 0.10774889 1.0347501 1.6400705e-38
0.08037059 0.10774889 1.0347501 1.5661738e-38
0.082870588 0.10774889 1.0347501 1.5292596e-38
0.065370589 0.097748883 1.0447501 1.7232667e-38
0.065370589 0.097748883 1.04725 1.7874799e-38
0.065370589 0.10024889 1.0447501 1.6767726e-38
0.065370589 0.10024889 1.04725 1.6767726e-38
0.067870587 0.097748883 1.0447501 1.7599639e-38
0.067870587 0.10024889 1.0447501 1.7689667e-38
0.065370589 0.10274889 1.0447501 1.5850814e-38
0.065370589 0.10274889 1.04725 1.548096e-38
0.067870587 0.10274889 1.0447501 1.4192694e-38
0.070370585 0.10024889 1.0447501 1.8058802e-38
0.10037059 0.10524888 1.0222501 1.6311787e-38
0.10287059 0.10524888 1.0222501 1.7418134e-38
0.10037059 0.10774889 1.0222501 1.7228689e-38
0.10037059 0.11024889 1.0222501 1.5200032e-38
0.10287059 0.10774889 1.0222501 1.8796014e-38
0.10287059 0.11024889 1.0222501 1.6029792e-38
0.10037059 0.11274888 1.0222501 1.5662089e-38
0.10287059 0.11274888 1.0222501 1.5663508e-38
0.10537059 0.10274889 1.0197501 1.6219926e-38
0.10537059 0.10274889 1.0222501 1.6953894e-38
0.10537059 0.10524888 1.0197501 1.658906e-38
0.10537059 0.10524888 1.0222501 1.658584e-38
0.10787059 0.10274889 1.0197501 1.6307455e-38
0.10787059 0.10274889 1.0222501 1.5757519e-38
0.10787059 0.10524888 1.0197501 1.8795684e-38
0.10787059 0.10524888 1.0222501 1.6675512e-38
0.11037059 0.10274889 1.0147501 1.5204704e-38
0.11037059 0.10524888 1.0147501 2.3499796e-38
0.11287059 0.10274889 1.0147501 1.5019954e-38
0.11287059 0.10524888 1.0147501 2.2761871e-38
0.11037059 0.10274889 1.0197501 1.6309975e-38
0.11037059 0.10274889 1.0222501 1.5758225e-38
0.11037059 0.10524888 1.0197501 2.3501237e-38
0.11037059 0.10524888 1.0222501 1.713649e-38
0.11287059 0.10274889 1.0197501 1.5019954e-38
0.11287059 0.10524888 1.0197501 2.3405755e-38
0.10537059 0.11024889 1.0147501 1.5753553e-38
0.10787059 0.11024889 1.0147501 1.6305643e-38
0.10537059 0.10774889 1.0197501 1.6773098e-38
0.10537059 0.10774889 1.0222501 1.6865298e-38
0.10537059 0.11024889 1.0197501 1.6307808e-38
0.10537059 0.11024889 1.0222501 1.5572038e-38
0.10787059 0.10774889 1.0197501 1.9806579e-38
0.10787059 0.10774889 1.0222501 1.9622888e-38
0.10787059 0.11024889 1.0197501 1.7411268e-38
0.10787059 0.11024889 1.0222501 1.6765523e-38
0.10537059 0.11274888 1.0147501 1.43717e-38
0.10787059 0.11274888 1.0147501 1.4740107e-38
0.10787059 0.11524889 1.0147501 1.4832306e-38
0.10537059 0.11274888 1.0197501 1.4464983e-38
0.10537059 0.11274888 1.0222501 1.5202548e-38
0.10537059 0.11524889 1.0197501 1.5109265e-38
0.10787059 0.11274888 1.0197501 1.5108537e-38
0.10787059 0.11524889 1.0197501 1.4560038e-38
0.11037059 0.10774889 1.0147501 2.3501923e-38
0.11037059 0.11024889 1.0147501 1.6396392e-38
0.11287059 0.10774889 1.0147501 2.3501563e-38
0.11287059 0.11024889 1.0147501 1.6488587e-38
0.11037059 0.10774889 1.0197501 2.3499789e-38
0.11037059 0.10774889 1.0222501 2.3500519e-38
0.11037059 0.11024889 1.0197501 1.7504531e-38
0.11287059 0.10774889 1.0197501 2.3501224e-38
0.11287059 0.11024889 1.0197501 2.0727061e-38
0.11037059 0.11274888 1.0147501 1.4741562e-38
0.11037059 0.11524889 1.0147501 1.3638451e-38
0.11287059 0.11274888 1.0147501 1.455681e-38
0.11287059 0.11524889 1.0147501 1.4191625e-38
0.11037059 0.11274888 1.0197501 1.5108537e-38
0.11037059 0.11524889 1.0197501 1.4006864e-38
0.11537059 0.10524888 1.0147501 2.2484896e-38
0.11787059 0.10274889 1.0147501 1.6214542e-38
0.11787059 0.10524888 1.0147501 1.7601786e-38
0.11537059 0.10524888 1.0197501 2.2578158e-38
0.11787059 0.10274889 1.0197501 1.6492571e-38
0.11787059 0.10524888 1.0197501 1.5754991e-38
0.12037059 0.10524888 1.0147501 1.5942266e-38
0.12287059 0.10524888 1.0147501 1.4746962e-38
0.12037059 0.10274889 1.0222501 1.6397852e-38
0.12037059 0.10524888 1.0197501 1.5297268e-38
0.12037059 0.10524888 1.0222501 1.6123413e-38
0.12287059 0.10524888 1.0197501 1.4931354e-38
0.12287059 0.10524888 1.0222501 1.5849351e-38
0.11787059 0.10774889 1.0122501 1.9999592e-38
0.11787059 0.11024889 1.0122501 2.1748788e-38
0.11787059 0.11524889 1.0122501 1.5752482e-38
0.12037059 0.10774889 1.0122501 1.7602866e-38
0.12037059 0.11024889 1.0122501 2.1380366e-38
0.12287059 0.11024889 1.0122501 2.0553122e-38
0.12037059 0.11524889 1.0122501 1.5291864e-38
0.12287059 0.11274888 1.0122501 1.8613072e-38
0.12287059 0.11524889 1.0122501 1.4556829e-38
0.11537059 0.10774889 1.0147501 2.3503028e-38
0.11537059 0.11024889 1.0147501 1.9159016e-38
0.11787059 0.10774889 1.0147501 1.9724806e-38
0.11787059 0.11024889 1.0147501 2.0915425e-38
0.11537059 0.10774889 1.0197501 2.3502672e-38
0.11537059 0.11024889 1.0197501 2.2019949e-38
0.11787059 0.10774889 1.0197501 2.3313603e-38
0.11787059 0.11024889 1.0197501 2.3497954e-38
0.11537059 0.11274888 1.0147501 1.5842512e-38
0.11537059 0.11524889 1.0147501 1.4831955e-38
0.11787059 0.11274888 1.0147501 1.6488956e-38
0.11787059 0.11524889 1.0147501 1.5659918e-38
0.11537059 0.11274888 1.0197501 1.9621071e-38
0.12037059 0.10774889 1.0147501 1.7235525e-38
0.12037059 0.11024889 1.0147501 2.1744825e-38
0.12287059 0.10774889 1.0147501 1.6037701e-38
0.12287059 0.11024889 1.0147501 2.1290687e-38
0.12037059 0.10774889 1.0197501 1.7326272e-38
0.12037059 0.10774889 1.0222501 1.6032666e-38
0.12037059 0.11024889 1.0197501 2.1563675e-38
0.12287059 0.10774889 1.0197501 1.5762209e-38
0.12037059 0.11274888 1.0147501 1.6581151e-38
0.12037059 0.11524889 1.0147501 1.5843949e-38
0.12287059 0.11274888 1.0147501 1.6492571e-38
0.12287059 0.11524889 1.0147501 1.6213811e-38
0.11037059 0.11774889 1.0147501 1.6495424e-38
0.11287059 0.11774889 1.0147501 1.5850055e-38
0.12287059 0.11774889 1.0122501 1.3913243e-38
0.11537059 0.11774889 1.0147501 1.5476974e-38
0.11787059 0.11774889 1.0147501 1.4831958e-38
0.12037059 0.11774889 1.0147501 1.4739762e-38
0.12287059 0.11774889 1.0147501 1.4464633e-38
0.085370585 0.097748883 1.0272501 1.7691465e-38
0.085370585 0.10024889 1.0272501 1.7876579e-38
0.08787059 0.097748883 1.0247501 1.7230133e-38
0.08787059 0.097748883 1.0272501 1.6217779e-38
0.08787059 0.10024889 1.0272501 1.7049692e-38
0.085370585 0.097748883 1.0297501 1.7227985e-38
0.085370585 0.10024889 1.0297501 1.7322702e-38
0.08787059 0.097748883 1.0297501 1.5942281e-38
0.08787059 0.10024889 1.0297501 1.7140456e-38
0.085370585 0.10274889 1.0272501 1.6953528e-38
0.085370585 0.10524888 1.0272501 1.7043571e-38
0.08787059 0.10274889 1.0272501 1.7140809e-38
0.08787059 0.10524888 1.0272501 1.6861345e-38
0.085370585 0.10274889 1.0297501 1.704643e-38
0.085370585 0.10524888 1.0297501 1.6398192e-38
0.08787059 0.10274889 1.0297501 1.7417749e-38
0.08787059 0.10524888 1.0297501 1.6766987e-38
0.090370588 0.097748883 1.0247501 1.6678051e-38
0.090370588 0.097748883 1.0272501 1.612666e-38
0.090370588 0.10024889 1.0272501 1.667913e-38
0.092870586 0.097748883 1.0247501 1.6217073e-38
0.092870586 0.097748883 1.0272501 1.6034464e-38
0.092870586 0.10024889 1.0272501 1.6494739e-38
0.090370588 0.097748883 1.0297501 1.6217076e-38
0.090370588 0.10024889 1.0297501 1.7138333e-38
0.092870586 0.097748883 1.0297501 1.6125581e-38
0.092870586 0.10024889 1.0297501 1.6863149e-38
0.090370588 0.10274889 1.0272501 1.815068e-38
0.090370588 0.10524888 1.0272501 1.8149941e-38
0.092870586 0.10274889 1.0272501 1.815068e-38
0.092870586 0.10524888 1.0247501 1.8426528e-38
0.092870586 0.10524888 1.0272501 1.8241764e-38
0.090370588 0.10274889 1.0297501 1.7142254e-38
0.092870586 0.10274889 1.0297501 1.7599294e-38
0.085370585 0.097748883 1.0347501 1.7229039e-38
0.085370585 0.10024889 1.0347501 1.7598547e-38
0.08787059 0.097748883 1.0347501 1.6033758e-38
0.085370585 0.10274889 1.0347501 1.7691459e-38
0.085370585 0.10524888 1.0347501 1.6305288e-38
0.090370588 0.097748883 1.0347501 1.6033738e-38
0.092870586 0.097748883 1.0347501 1.6402522e-38
0.085370585 0.10774889 1.0272501 1.5017791e-38
0.085370585 0.11024889 1.0272501 1.4558966e-38
0.08787059 0.10774889 1.0272501 1.455646e-38
0.08787059 0.11024889 1.0272501 1.7600323e-38
0.085370585 0.10774889 1.0297501 1.5015268e-38
0.085370585 0.11024889 1.0297501 1.501707e-38
0.08787059 0.10774889 1.0297501 1.4649359e-38
0.08787059 0.11024889 1.0297501 1.3454043e-38
0.090370588 0.10774889 1.0247501 1.4649362e-38
0.090370588 0.10774889 1.0272501 1.556952e-38
0.090370588 0.11024889 1.0272501 1.5847918e-38
0.092870586 0.10774889 1.0247501 1.4926319e-38
0.092870586 0.11024889 1.0247501 1.5294745e-38
0.092870586 0.11024889 1.0272501 1.5572044e-38
0.090370588 0.10774889 1.0297501 1.5569876e-38
0.085370585 0.10774889 1.0347501 1.5476246e-38
0.095370591 0.097748883 1.0272501 1.6034114e-38
0.095370591 0.10024889 1.0247501 1.6954244e-38
0.095370591 0.10024889 1.0272501 1.6126312e-38
0.097870588 0.097748883 1.0272501 1.6035186e-38
0.097870588 0.10024889 1.0272501 1.5575301e-38
0.095370591 0.097748883 1.0297501 1.5574928e-38
0.095370591 0.10024889 1.0297501 1.6676584e-38
0.097870588 0.097748883 1.0297501 1.5482732e-38
0.097870588 0.10024889 1.0297501 1.5759319e-38
0.095370591 0.10274889 1.0247501 1.7598916e-38
0.095370591 0.10274889 1.0272501 1.7230484e-38
0.095370591 0.10524888 1.0247501 1.7323035e-38
0.097870588 0.10274889 1.0247501 1.6773494e-38
0.097870588 0.10274889 1.0272501 1.5944068e-38
0.097870588 0.10524888 1.0247501 1.6590875e-38
0.097870588 0.10524888 1.0272501 1.6773471e-38
0.097870588 0.10274889 1.0297501 1.6034464e-38
0.10037059 0.097748883 1.0272501 1.5482013e-38
0.10037059 0.10024889 1.0272501 1.5760391e-38
0.10037059 0.097748883 1.0297501 1.492884e-38
0.10037059 0.10024889 1.0297501 1.5574928e-38
0.10287059 0.10024889 1.0297501 1.5757874e-38
0.10037059 0.10274889 1.0247501 1.6957159e-38
0.10037059 0.10274889 1.0272501 1.6681298e-38
0.10037059 0.10524888 1.0247501 1.6035926e-38
0.10037059 0.10524888 1.0272501 1.6406844e-38
0.10287059 0.10274889 1.0247501 1.6957159e-38
0.10287059 0.10274889 1.0272501 1.6957159e-38
0.10287059 0.10524888 1.0247501 1.6866045e-38
0.10287059 0.10524888 1.0272501 1.8062062e-38
0.10037059 0.10274889 1.0297501 1.6587653e-38
0.10287059 0.10274889 1.0297501 1.6309972e-38
0.095370591 0.097748883 1.0347501 1.6307811e-38
0.097870588 0.097748883 1.0347501 1.5299067e-38
0.097870588 0.10024889 1.0347501 1.5942266e-38
0.10037059 0.097748883 1.0347501 1.502212e-38
0.10037059 0.097748883 1.03725 1.6768429e-38
0.10037059 0.10024889 1.0347501 1.5483105e-38
0.10037059 0.10024889 1.03725 1.557241e-38
0.10287059 0.097748883 1.0347501 1.4376367e-38
0.10287059 0.097748883 1.03725 1.7229042e-38
0.10287059 0.10024889 1.0347501 1.5849348e-38
0.10287059 0.10024889 1.03725 1.5297971e-38
0.095370591 0.10774889 1.0247501 1.5570592e-38
0.095370591 0.11024889 1.0247501 1.4372422e-38
0.097870588 0.10774889 1.0247501 1.6491104e-38
0.097870588 0.11024889 1.0247501 1.4649006e-38
0.095370591 0.11274888 1.0247501 1.4742997e-38
0.097870588 0.11274888 1.0247501 1.4374214e-38
0.10037059 0.10774889 1.0247501 1.7505281e-38
0.10037059 0.10774889 1.0272501 1.7601417e-38
0.10037059 0.11024889 1.0247501 1.4740853e-38
0.10037059 0.11024889 1.0272501 1.5752482e-38
0.10287059 0.10774889 1.0247501 1.861127e-38
0.10287059 0.10774889 1.0272501 1.824321e-38
0.10287059 0.11024889 1.0247501 1.5570612e-38
0.10037059 0.11274888 1.0247501 1.3638454e-38
0.10287059 0.11274888 1.0247501 1.4283823e-38
0.10537059 0.10274889 1.0247501 1.5755722e-38
0.10537059 0.10274889 1.0272501 1.6865298e-38
0.10537059 0.10524888 1.0247501 1.7418838e-38
0.10787059 0.10274889 1.0247501 1.5942616e-38
0.10787059 0.10524888 1.0247501 1.5944068e-38
0.10537059 0.10274889 1.0297501 1.5388391e-38
0.10787059 0.10274889 1.0297501 1.5756815e-38
0.10537059 0.097748883 1.0347501 1.5390517e-38
0.10537059 0.10024889 1.0347501 1.6033738e-38
0.10537059 0.10024889 1.03725 1.5482364e-38
0.10537059 0.10274889 1.0347501 1.5204363e-38
0.10787059 0.10274889 1.0347501 1.612523e-38
0.10537059 0.10774889 1.0247501 1.8707412e-38
0.10537059 0.11024889 1.0247501 1.5848621e-38
0.13537058 0.11274888 0.99975008 2.3500854e-38
0.13537058 0.11524889 0.99975008 2.2570608e-38
0.13787059 0.11274888 0.99975008 2.3501961e-38
0.13787059 0.11524889 0.99975008 2.220401e-38
0.14287059 0.11024889 0.99975008 1.7045344e-38
0.14037059 0.11274888 0.99975008 2.0086378e-38
0.14037059 0.11524889 0.99975008 2.2020701e-38
0.14287059 0.11274888 0.99975008 1.851761e-38
0.14287059 0.11524889 0.99975008 1.9809055e-38
0.12537059 0.10274889 1.0122501 1.4744432e-38
0.12537059 0.10524888 1.0122501 1.5297615e-38
0.12787059 0.10274889 1.0122501 1.5942616e-38
0.12787059 0.10524888 1.0122501 1.6217429e-38
0.13287058 0.10524888 1.00475 1.6860259e-38
0.12537059 0.10524888 1.0147501 1.5481644e-38
0.12787059 0.10524888 1.0147501 1.5942622e-38
0.12537059 0.10524888 1.0197501 1.4744797e-38
0.12537059 0.10524888 1.0222501 1.4836992e-38
0.13037059 0.10524888 1.0147501 1.6031607e-38
0.13287058 0.10524888 1.0147501 1.685883e-38
0.13037059 0.10524888 1.0197501 1.6860626e-38
0.12537059 0.10774889 1.0097501 1.649364e-38
0.12537059 0.10774889 1.0122501 1.5574928e-38
0.12537059 0.11024889 1.0097501 2.036694e-38
0.12537059 0.11024889 1.0122501 2.0644967e-38
0.12787059 0.10774889 1.0097501 1.5850423e-38
0.12787059 0.10774889 1.0122501 1.465153e-38
0.12787059 0.11024889 1.0097501 1.8065286e-38
0.12787059 0.11024889 1.0122501 1.8158571e-38
0.12537059 0.11274888 1.0097501 2.165441e-38
0.12537059 0.11274888 1.0122501 1.9720472e-38
0.12537059 0.11524889 1.0097501 1.6030148e-38
0.12537059 0.11524889 1.0122501 1.5199313e-38
0.12787059 0.11274888 1.0097501 2.0365857e-38
0.12787059 0.11274888 1.0122501 2.0548827e-38
0.12787059 0.11524889 1.0097501 1.6857012e-38
0.12787059 0.11524889 1.0122501 1.6120909e-38
0.13037059 0.10774889 1.00475 1.5203982e-38
0.13037059 0.10774889 1.0072501 1.5296543e-38
0.13037059 0.11024889 1.00475 1.5845032e-38
0.13037059 0.11024889 1.0072501 1.5569167e-38
0.13287058 0.10774889 1.00475 1.5389098e-38
0.13287058 0.10774889 1.0072501 1.5480211e-38
0.13287058 0.11024889 1.00475 1.6491124e-38
0.13287058 0.11024889 1.0072501 1.6855943e-38
0.13037059 0.10774889 1.0097501 1.5942619e-38
0.13037059 0.10774889 1.0122501 1.5296899e-38
0.13037059 0.11024889 1.0097501 1.5391613e-38
0.13037059 0.11024889 1.0122501 1.5208669e-38
0.13287058 0.10774889 1.0097501 1.5849354e-38
0.13037059 0.11274888 1.00475 2.3490782e-38
0.13037059 0.11274888 1.0072501 2.3493304e-38
0.13037059 0.11524889 1.00475 1.7870429e-38
0.13037059 0.11524889 1.0072501 1.7961545e-38
0.13287058 0.11274888 1.00475 2.3496184e-38
0.13287058 0.11524889 1.00475 1.934448e-38
0.13037059 0.11274888 1.0097501 1.9903807e-38
0.13037059 0.11274888 1.0122501 1.9903458e-38
0.13037059 0.11524889 1.0097501 1.6949208e-38
0.12537059 0.10774889 1.0147501 1.5756802e-38
0.12537059 0.11024889 1.0147501 1.9443173e-38
0.12787059 0.10774889 1.0147501 1.5574209e-38
0.12537059 0.11524889 1.0147501 1.860584e-38
0.13537058 0.10524888 1.00475 1.6677314e-38
0.13537058 0.10774889 1.00475 1.4835571e-38
0.13537058 0.10774889 1.0072501 1.5388013e-38
0.13537058 0.11024889 1.00475 1.612447e-38
0.13787059 0.10774889 1.00475 1.5662089e-38
0.13787059 0.10774889 1.0072501 1.5203644e-38
0.13787059 0.11024889 1.00475 1.4556829e-38
0.13787059 0.11024889 1.0072501 1.4651898e-38
0.13537058 0.11274888 1.00475 2.3502649e-38
0.13537058 0.11524889 1.00475 2.2202546e-38
0.13787059 0.11274888 1.00475 2.3503393e-38
0.13787059 0.11524889 1.00475 2.1928865e-38
0.14037059 0.10774889 1.00475 1.6399651e-38
0.14037059 0.10774889 1.0072501 1.6032682e-38
0.14037059 0.11024889 1.00475 1.5662808e-38
0.14037059 0.11024889 1.0072501 1.4836291e-38
0.14287059 0.10774889 1.00475 1.5753558e-38
0.14287059 0.10774889 1.0072501 1.5386222e-38
0.14287059 0.11024889 1.00475 1.4100874e-38
0.14287059 0.11024889 1.0072501 1.4838439e-38
0.14037059 0.10774889 1.0097501 1.5756818e-38
0.14287059 0.10774889 1.0097501 1.6398575e-38
0.14037059 0.11274888 1.00475 2.0917956e-38
0.14037059 0.11524889 1.00475 2.1468246e-38
0.14287059 0.11274888 1.00475 1.824462e-38
0.14287059 0.11524889 1.00475 1.9443509e-38
0.13537058 0.11774889 0.99975008 1.5017438e-38
0.13537058 0.12024888 0.99975008 1.4098709e-38
0.13787059 0.11774889 0.99975008 1.4834492e-38
0.13787059 0.12024888 0.99975008 1.3825016e-38
0.13537058 0.12274889 0.99975008 1.7598547e-38
0.13787059 0.12274889 0.99975008 1.7506011e-38
0.14037059 0.11774889 0.99975008 1.1973538e-38
0.14037059 0.12024888 0.99975008 1.1056246e-38
0.14287059 0.11774889 0.99975008 1.1972822e-38
0.14287059 0.12024888 0.99975008 9.8566311e-39
0.14037059 0.12274889 0.99975008 1.4191622e-38
0.14287059 0.12274889 0.99975008 1.1510759e-38
0.12787059 0.11774889 1.0072501 1.4923422e-38
0.12787059 0.12024888 1.0072501 1.6031217e-38
0.12537059 0.11774889 1.0097501 1.4925237e-38
0.12537059 0.11774889 1.0122501 1.4372422e-38
0.12537059 0.12024888 1.0097501 1.5662442e-38
0.12787059 0.11774889 1.0097501 1.5108183e-38
0.12787059 0.12024888 1.0097501 1.5478046e-38
0.13037059 0.11774889 1.00475 1.345334e-38
0.13037059 0.11774889 1.0072501 1.5661328e-38
0.13037059 0.12024888 1.00475 1.3083845e-38
0.13037059 0.12024888 1.0072501 1.3727037e-38
0.13287058 0.11774889 1.00475 1.4464246e-38
0.13287058 0.12024888 1.00475 1.4095459e-38
0.13037059 0.12274889 1.00475 1.7231543e-38
0.13287058 0.12274889 1.00475 1.6401424e-38
0.13537058 0.11774889 1.00475 1.648859e-38
0.13537058 0.12024888 1.00475 1.3178195e-38
0.13787059 0.11774889 1.00475 1.9440307e-38
0.13537058 0.12274889 1.00475 1.6033733e-38
0.14037059 0.11774889 1.00475 1.833396e-38
0.14287059 0.11774889 1.00475 1.1328168e-38
0.14287059 0.12024888 1.00475 9.3967263e-39
0.14287059 0.12274889 1.00475 8.6592033e-39
0.14537059 0.11024889 0.99975008 1.5204685e-38
0.14537059 0.11274888 0.99975008 1.57568e-38
0.14537059 0.11524889 0.99975008 1.879602e-38
0.14787059 0.11524889 0.99975008 1.8703819e-38
0.14537059 0.10774889 1.00475 1.5662089e-38
0.14537059 0.11024889 1.00475 1.3916441e-38
0.14787059 0.11024889 1.00475 1.5299375e-38
0.14537059 0.11274888 1.00475 1.5206499e-38
0.14537059 0.11524889 1.00475 1.916696e-38
0.14787059 0.11274888 1.00475 1.5575281e-38
0.14787059 0.11524889 1.00475 1.8704888e-38
0.15037058 0.11524889 1.0072501 1.8336834e-38
0.14537059 0.11774889 0.99975008 1.2616742e-38
0.14537059 0.11774889 1.00475 1.2431626e-38
0.14537059 0.12024888 1.00475 1.0593009e-38
0.14787059 0.11774889 1.00475 1.7410189e-38
0.14787059 0.12024888 1.00475 1.658572e-38
0.14787059 0.12024888 1.0072501 1.6036865e-38
0.14537059 0.12274889 1.00475 9.5814876e-39
0.14787059 0.12274889 1.00475 1.5574557e-38
0.15037058 0.11774889 1.00475 1.8889652e-38
0.15037058 0.11774889 1.0072501 1.870454e-38
0.15037058 0.12024888 1.0072501 1.8333977e-38
0.15037058 0.12024888 1.0097501 1.7505295e-38
