# .PCD v0.7 - Point Cloud Data file format
VERSION 0.7
FIELDS x y z rgb
SIZE 4 4 4 4
TYPE F F F F
COUNT 1 1 1 1
WIDTH 578
HEIGHT 1
VIEWPOINT 0 0 0 1 0 0 0
POINTS 578
DATA ascii
-0.32652667 0.087916441 1.05925 1.7229786e-38
-0.32652667 0.087916441 1.0617501 1.612561e-38
-0.32402667 0.087916441 1.05925 1.7690405e-38
-0.32152668 0.085416444 1.05925 1.4190937e-38
-0.32152668 0.087916441 1.05925 1.6863894e-38
-0.32402667 0.085416444 1.0617501 1.6496537e-38
-0.32402667 0.087916441 1.0617501 1.6401837e-38
-0.32152668 0.085416444 1.0617501 1.4375684e-38
-0.33402669 0.087916441 1.06925 1.5755719e-38
-0.32902667 0.087916441 1.06675 1.769039e-38
-0.32902667 0.087916441 1.06925 1.7413098e-38
-0.32652667 0.087916441 1.06675 1.667913e-38
-0.32652667 0.087916441 1.06925 1.6402172e-38
-0.31902668 0.085416444 1.05925 1.4555776e-38
-0.31902668 0.087916441 1.05925 1.6772415e-38
-0.31652668 0.085416444 1.05925 1.4279189e-38
-0.31652668 0.087916441 1.05925 1.5850817e-38
-0.31902668 0.085416444 1.0617501 1.4005104e-38
-0.31652668 0.085416444 1.0617501 1.3361887e-38
-0.31652668 0.087916441 1.0617501 1.6953544e-38
-0.31402668 0.085416444 1.05925 1.3545918e-38
-0.31402668 0.087916441 1.05925 1.4652626e-38
-0.31152669 0.085416444 1.0567501 1.4830879e-38
-0.31152669 0.085416444 1.05925 1.4005457e-38
-0.31152669 0.087916441 1.0567501 1.409765e-38
-0.31152669 0.087916441 1.05925 1.4097669e-38
-0.31152669 0.085416444 1.0617501 1.4651174e-38
-0.31152669 0.087916441 1.0617501 1.3635595e-38
-0.30902669 0.085416444 1.05925 1.4743022e-38
-0.30902669 0.087916441 1.05925 1.3083876e-38
-0.30652669 0.085416444 1.05925 1.5480211e-38
-0.30652669 0.087916441 1.05925 1.3084577e-38
-0.30902669 0.085416444 1.0617501 1.5388744e-38
-0.30902669 0.087916441 1.0617501 1.3360788e-38
-0.30652669 0.085416444 1.0617501 1.6033385e-38
-0.30652669 0.087916441 1.0617501 1.3084577e-38
-0.30402669 0.085416444 1.05925 1.7412001e-38
-0.30402669 0.087916441 1.05925 1.3638469e-38
-0.30152667 0.087916441 1.05925 1.3730665e-38
-0.30402669 0.085416444 1.0617501 1.5759335e-38
-0.30402669 0.087916441 1.0617501 1.3269338e-38
-0.30152667 0.087916441 1.0617501 1.4833773e-38
-0.30652669 0.087916441 1.06675 1.5756818e-38
-0.30652669 0.087916441 1.06925 1.5941913e-38
-0.30402669 0.087916441 1.06675 1.3730315e-38
-0.30402669 0.087916441 1.06925 1.6402891e-38
-0.30152667 0.087916441 1.06675 1.4373177e-38
-0.30152667 0.087916441 1.06925 1.6582966e-38
-0.33152667 0.095416442 1.0617501 1.6034461e-38
-0.32652667 0.090416439 1.05925 1.7135071e-38
-0.32652667 0.092916444 1.05925 1.3176785e-38
-0.32902667 0.090416439 1.0617501 1.5204e-38
-0.32902667 0.092916444 1.0617501 1.4835585e-38
-0.32652667 0.090416439 1.0617501 1.5664272e-38
-0.32652667 0.092916444 1.0617501 1.3544851e-38
-0.32652667 0.095416442 1.05925 1.4836304e-38
-0.32652667 0.097916439 1.05925 1.5205449e-38
-0.32902667 0.095416442 1.0617501 1.5481679e-38
-0.32652667 0.095416442 1.0617501 1.4746246e-38
-0.32402667 0.090416439 1.05925 1.7595689e-38
-0.32402667 0.092916444 1.05925 1.3176785e-38
-0.32152668 0.090416439 1.05925 1.6771329e-38
-0.32152668 0.092916444 1.05925 1.409622e-38
-0.32402667 0.090416439 1.0617501 1.5848663e-38
-0.32402667 0.092916444 1.0617501 1.33601e-38
-0.32402667 0.095416442 1.05925 1.3638119e-38
-0.32402667 0.097916439 1.0567501 1.3913246e-38
-0.32402667 0.097916439 1.05925 1.3637763e-38
-0.32152668 0.095416442 1.0567501 1.3269687e-38
-0.32152668 0.095416442 1.05925 1.3268985e-38
-0.32152668 0.097916439 1.0567501 1.3177494e-38
-0.32152668 0.097916439 1.05925 1.2626135e-38
-0.33402669 0.090416439 1.06925 1.4557179e-38
-0.33402669 0.092916444 1.06925 1.5018184e-38
-0.33152667 0.090416439 1.06925 1.5387665e-38
-0.33152667 0.092916444 1.06925 1.3729596e-38
-0.33152667 0.095416442 1.06675 1.5666402e-38
-0.32902667 0.090416439 1.06675 1.6582616e-38
-0.32902667 0.090416439 1.06925 1.6767729e-38
-0.32902667 0.092916444 1.06675 1.391398e-38
-0.32652667 0.090416439 1.06675 1.6952121e-38
-0.32902667 0.095416442 1.06675 1.4374609e-38
-0.31152669 0.095416442 1.05425 1.4188403e-38
-0.31152669 0.097916439 1.05425 1.3083845e-38
-0.31902668 0.090416439 1.05925 1.640579e-38
-0.31902668 0.092916444 1.0567501 1.4649382e-38
-0.31902668 0.092916444 1.05925 1.5199681e-38
-0.31652668 0.090416439 1.05925 1.6128843e-38
-0.31652668 0.092916444 1.0567501 1.4925968e-38
-0.31652668 0.092916444 1.05925 1.5845051e-38
-0.31652668 0.090416439 1.0617501 1.7506364e-38
-0.31652668 0.092916444 1.0617501 1.7412727e-38
-0.31902668 0.095416442 1.0567501 1.308458e-38
-0.31902668 0.095416442 1.05925 1.3360453e-38
-0.31902668 0.097916439 1.0567501 1.2440672e-38
-0.31902668 0.097916439 1.05925 1.2349542e-38
-0.31652668 0.095416442 1.0567501 1.3545199e-38
-0.31652668 0.095416442 1.05925 1.345265e-38
-0.31652668 0.097916439 1.0567501 1.2256279e-38
-0.31652668 0.097916439 1.05925 1.2441738e-38
-0.31402668 0.090416439 1.05925 1.5851167e-38
-0.31402668 0.092916444 1.0567501 1.5571688e-38
-0.31402668 0.092916444 1.05925 1.5571338e-38
-0.31152669 0.090416439 1.0567501 1.6033408e-38
-0.31152669 0.090416439 1.05925 1.5388757e-38
-0.31152669 0.092916444 1.0567501 1.6219591e-38
-0.31402668 0.095416442 1.0567501 1.3635951e-38
-0.31402668 0.095416442 1.05925 1.3912542e-38
-0.31402668 0.097916439 1.0567501 1.253103e-38
-0.31402668 0.097916439 1.05925 1.29931e-38
-0.31152669 0.095416442 1.0567501 1.4098353e-38
-0.31152669 0.095416442 1.05925 1.4098006e-38
-0.31152669 0.097916439 1.0567501 1.2346324e-38
-0.30902669 0.095416442 1.05425 1.4282024e-38
-0.30902669 0.097916439 1.05425 1.345228e-38
-0.30402669 0.092916444 1.05425 1.7968068e-38
-0.30152667 0.090416439 1.05425 1.6404338e-38
-0.30152667 0.092916444 1.05425 1.6679846e-38
-0.30152667 0.097916439 1.04925 1.437027e-38
-0.30402669 0.095416442 1.05425 1.6399301e-38
-0.30402669 0.097916439 1.05425 1.556917e-38
-0.30152667 0.095416442 1.05425 1.6492586e-38
-0.30152667 0.097916439 1.05425 1.3728161e-38
-0.30902669 0.090416439 1.0567501 1.4650473e-38
-0.30902669 0.090416439 1.05925 1.4651192e-38
-0.30902669 0.092916444 1.0567501 1.6036282e-38
-0.30902669 0.092916444 1.05925 1.6311787e-38
-0.30652669 0.090416439 1.05925 1.4282414e-38
-0.30652669 0.092916444 1.0567501 1.6955364e-38
-0.30652669 0.092916444 1.05925 1.6771708e-38
-0.30902669 0.090416439 1.0617501 1.5017085e-38
-0.30652669 0.090416439 1.0617501 1.3452653e-38
-0.30902669 0.095416442 1.0567501 1.4098353e-38
-0.30902669 0.095416442 1.05925 1.4374234e-38
-0.30902669 0.097916439 1.0567501 1.2346324e-38
-0.30652669 0.095416442 1.0567501 1.4465713e-38
-0.30652669 0.095416442 1.05925 1.4741927e-38
-0.30652669 0.097916439 1.0567501 1.2808002e-38
-0.30652669 0.097916439 1.05925 1.4281321e-38
-0.30402669 0.090416439 1.0567501 1.2349542e-38
-0.30402669 0.090416439 1.05925 1.2900183e-38
-0.30402669 0.092916444 1.0567501 1.7415263e-38
-0.30152667 0.090416439 1.0567501 1.3179662e-38
-0.30152667 0.090416439 1.05925 1.3913974e-38
-0.30152667 0.092916444 1.0567501 1.6954644e-38
-0.30152667 0.090416439 1.0617501 1.3452636e-38
-0.30402669 0.095416442 1.0567501 1.603161e-38
-0.30402669 0.097916439 1.0567501 1.2900198e-38
-0.30152667 0.095416442 1.0567501 1.6308906e-38
-0.30152667 0.097916439 1.0567501 1.6214542e-38
-0.30152667 0.10041644 1.04925 1.3451908e-38
-0.30152667 0.10291644 1.04925 1.345228e-38
-0.30402669 0.10041644 1.05425 1.280835e-38
-0.30152667 0.10041644 1.05425 1.2623971e-38
-0.29902667 0.087916441 1.05925 1.4465729e-38
-0.29902667 0.087916441 1.06675 1.6765575e-38
-0.28652668 0.090416439 1.04425 1.483158e-38
-0.28652668 0.092916444 1.04425 1.4369548e-38
-0.28902668 0.095416442 1.04425 1.8151381e-38
-0.28902668 0.097916439 1.04425 1.5477343e-38
-0.28652668 0.095416442 1.04425 1.7322349e-38
-0.28652668 0.097916439 1.04425 1.529584e-38
-0.28402668 0.090416439 1.04425 1.4924507e-38
-0.28402668 0.092916444 1.04425 1.3452258e-38
-0.28152668 0.090416439 1.0417501 1.4924507e-38
-0.28152668 0.090416439 1.04425 1.4556107e-38
-0.28152668 0.092916444 1.0417501 1.3821401e-38
-0.28152668 0.092916444 1.04425 1.3085296e-38
-0.28402668 0.095416442 1.04425 1.9809463e-38
-0.28402668 0.097916439 1.04425 1.9072951e-38
-0.28152668 0.095416442 1.04425 2.1102353e-38
-0.28152668 0.097916439 1.04425 2.0916842e-38
-0.28902668 0.10041644 1.04425 1.2807631e-38
-0.28902668 0.10291644 1.04425 1.289983e-38
-0.28652668 0.10041644 1.04425 1.2715434e-38
-0.28652668 0.10291644 1.04425 1.2807634e-38
-0.28902668 0.10541644 1.04425 1.437494e-38
-0.28652668 0.10541644 1.04425 1.3729571e-38
-0.28402668 0.10041644 1.04425 1.4095504e-38
-0.28402668 0.10291644 1.04425 1.2807281e-38
-0.28152668 0.10041644 1.04425 1.4462099e-38
-0.28152668 0.10291644 1.04425 1.2622876e-38
-0.28402668 0.10541644 1.04425 1.2714015e-38
-0.28152668 0.10541644 1.04425 1.3083142e-38
-0.27402669 0.092916444 1.03425 1.3543442e-38
-0.27152669 0.092916444 1.03425 1.3177488e-38
-0.27402669 0.095416442 1.03425 1.6130292e-38
-0.27402669 0.097916439 1.03425 2.2487099e-38
-0.27152669 0.095416442 1.03425 1.4562944e-38
-0.27152669 0.097916439 1.03425 2.0829022e-38
-0.27652669 0.092916444 1.0367501 1.4559724e-38
-0.27902669 0.090416439 1.0417501 1.492524e-38
-0.27902669 0.092916444 1.0417501 1.3729201e-38
-0.27902669 0.092916444 1.04425 1.3177491e-38
-0.27652669 0.092916444 1.04425 1.6120208e-38
-0.27652669 0.095416442 1.0367501 1.9170211e-38
-0.27652669 0.097916439 1.0367501 2.165732e-38
-0.27902669 0.095416442 1.0417501 2.0916154e-38
-0.27902669 0.095416442 1.04425 2.0641376e-38
-0.27902669 0.097916439 1.0417501 2.1746961e-38
-0.27902669 0.097916439 1.04425 2.2023189e-38
-0.27652669 0.095416442 1.0417501 1.7972756e-38
-0.27652669 0.095416442 1.04425 1.80664e-38
-0.27652669 0.097916439 1.0417501 2.1380028e-38
-0.27652669 0.097916439 1.04425 2.110453e-38
-0.27402669 0.092916444 1.0367501 1.3176788e-38
-0.27152669 0.092916444 1.0367501 1.3178192e-38
-0.27402669 0.092916444 1.0417501 1.3821045e-38
-0.27402669 0.095416442 1.0367501 1.6038096e-38
-0.27402669 0.097916439 1.0367501 2.0920499e-38
-0.27152669 0.095416442 1.0367501 1.4840269e-38
-0.27152669 0.097916439 1.0367501 2.0645372e-38
-0.27402669 0.095416442 1.0417501 1.6221409e-38
-0.27402669 0.095416442 1.04425 1.308528e-38
-0.27402669 0.097916439 1.0417501 2.2579653e-38
-0.27652669 0.10041644 1.0367501 2.0363365e-38
-0.27902669 0.10041644 1.0417501 1.98098e-38
-0.27902669 0.10041644 1.04425 1.4646492e-38
-0.27902669 0.10291644 1.04425 1.2807267e-38
-0.27652669 0.10041644 1.0417501 1.501492e-38
-0.27652669 0.10041644 1.04425 1.5290425e-38
-0.27652669 0.10291644 1.04425 1.3912537e-38
-0.27902669 0.10541644 1.04425 1.3083142e-38
-0.27652669 0.10541644 1.0417501 1.2990596e-38
-0.27652669 0.10541644 1.04425 1.2439205e-38
-0.27652669 0.10791644 1.0417501 1.2346659e-38
-0.27402669 0.10041644 1.0367501 2.1377158e-38
-0.27152669 0.10041644 1.0367501 2.1471861e-38
-0.27152669 0.10291644 1.0367501 1.4281671e-38
-0.27402669 0.10041644 1.0417501 1.5753203e-38
-0.27402669 0.10291644 1.0417501 1.4189122e-38
-0.27152669 0.10041644 1.0417501 1.6584741e-38
-0.27152669 0.10291644 1.0417501 1.4281305e-38
-0.27152669 0.10541644 1.0367501 1.2439573e-38
-0.27152669 0.10791644 1.0367501 1.4282037e-38
-0.27402669 0.10541644 1.0417501 1.2990596e-38
-0.27402669 0.10791644 1.0417501 1.2622885e-38
-0.27152669 0.10541644 1.0417501 1.3452653e-38
-0.27152669 0.10791644 1.0417501 1.3084224e-38
-0.26902667 0.092916444 1.03175 1.3453687e-38
-0.26902667 0.092916444 1.03425 1.2993097e-38
-0.26652667 0.092916444 1.03175 1.3729943e-38
-0.26652667 0.092916444 1.03425 1.4467136e-38
-0.26902667 0.095416442 1.03175 1.3639918e-38
-0.26902667 0.095416442 1.03425 1.3640988e-38
-0.26902667 0.097916439 1.03425 2.0275849e-38
-0.26652667 0.095416442 1.03175 1.3268611e-38
-0.26652667 0.095416442 1.03425 1.3455157e-38
-0.26652667 0.097916439 1.03425 1.6679811e-38
-0.26402667 0.090416439 1.03175 1.8426879e-38
-0.26402667 0.092916444 1.03175 1.4283117e-38
-0.26402667 0.092916444 1.03425 1.4926337e-38
-0.26152667 0.090416439 1.03175 1.8703466e-38
-0.26152667 0.092916444 1.03175 1.6768082e-38
-0.26152667 0.092916444 1.03425 1.5941209e-38
-0.26402667 0.095416442 1.03175 1.3729949e-38
-0.26402667 0.095416442 1.03425 1.4465007e-38
-0.26402667 0.097916439 1.03425 1.5201168e-38
-0.26152667 0.095416442 1.03175 1.5017088e-38
-0.26152667 0.095416442 1.03425 1.4925265e-38
-0.26152667 0.097916439 1.03425 1.5480238e-38
-0.26652667 0.092916444 1.0417501 1.5294731e-38
-0.26902667 0.095416442 1.0367501 1.3360453e-38
-0.26902667 0.097916439 1.0367501 2.0460262e-38
-0.26652667 0.095416442 1.0367501 1.3729949e-38
-0.26652667 0.097916439 1.0367501 1.6033382e-38
-0.26652667 0.095416442 1.0417501 1.2993097e-38
-0.26652667 0.097916439 1.0417501 1.5850055e-38
-0.26402667 0.092916444 1.0367501 1.6402871e-38
-0.26152667 0.092916444 1.0367501 1.7045039e-38
-0.26402667 0.092916444 1.0417501 1.658512e-38
-0.26152667 0.092916444 1.0417501 1.6401466e-38
-0.26402667 0.095416442 1.0367501 1.4925984e-38
-0.26402667 0.097916439 1.0367501 1.4555799e-38
-0.26152667 0.095416442 1.0367501 1.5201829e-38
-0.26152667 0.097916439 1.0367501 1.3913959e-38
-0.26152667 0.095416442 1.04425 1.7320181e-38
-0.26402667 0.10041644 1.03425 1.9626864e-38
-0.26402667 0.10291644 1.03425 1.8790995e-38
-0.26152667 0.10041644 1.03425 1.9626869e-38
-0.26152667 0.10291644 1.03425 2.0358321e-38
-0.26402667 0.10541644 1.03425 1.3820347e-38
-0.26402667 0.10791644 1.03425 1.3084226e-38
-0.26152667 0.10541644 1.03425 1.3635595e-38
-0.26152667 0.10791644 1.03425 1.2806563e-38
-0.26902667 0.10041644 1.0367501 1.7228335e-38
-0.26902667 0.10291644 1.0367501 1.5568076e-38
-0.26652667 0.10041644 1.0367501 1.9441389e-38
-0.26652667 0.10291644 1.0367501 1.6858814e-38
-0.26902667 0.10041644 1.0417501 1.7874061e-38
-0.26902667 0.10541644 1.0367501 1.3175681e-38
-0.26902667 0.10791644 1.0367501 1.3083845e-38
-0.26652667 0.10541644 1.0367501 1.3451908e-38
-0.26652667 0.10791644 1.0367501 1.2715422e-38
-0.26902667 0.10791644 1.0417501 1.3174242e-38
-0.26402667 0.10041644 1.0367501 1.9442119e-38
-0.26402667 0.10291644 1.0367501 1.8333607e-38
-0.26152667 0.10041644 1.0367501 1.520542e-38
-0.26402667 0.10541644 1.0367501 1.3728147e-38
-0.26402667 0.10791644 1.0367501 1.2990596e-38
-0.26402667 0.11041644 1.03425 1.3361159e-38
-0.26152667 0.11041644 1.03425 1.3357218e-38
-0.29652667 0.092916444 1.04925 1.7597841e-38
-0.29902667 0.090416439 1.05425 1.5667121e-38
-0.29902667 0.092916444 1.05425 1.5851888e-38
-0.29652667 0.090416439 1.05425 1.4468936e-38
-0.29652667 0.092916444 1.05425 1.5483105e-38
-0.29902667 0.095416442 1.04925 1.5664605e-38
-0.29902667 0.097916439 1.0467501 1.3913261e-38
-0.29902667 0.097916439 1.04925 1.4280949e-38
-0.29652667 0.095416442 1.04925 1.6770234e-38
-0.29652667 0.097916439 1.0467501 1.4097274e-38
-0.29652667 0.097916439 1.04925 1.4465713e-38
-0.29902667 0.095416442 1.05425 1.7137587e-38
-0.29902667 0.097916439 1.05425 1.391254e-38
-0.29652667 0.095416442 1.05425 1.732198e-38
-0.29652667 0.097916439 1.05425 1.7320181e-38
-0.29402667 0.090416439 1.04925 1.4373886e-38
-0.29402667 0.092916444 1.04925 1.5941212e-38
-0.29152668 0.090416439 1.04925 1.3728517e-38
-0.29152668 0.092916444 1.0467501 1.5293675e-38
-0.29152668 0.092916444 1.04925 1.4741237e-38
-0.29402667 0.090416439 1.05425 1.3727095e-38
-0.29402667 0.092916444 1.05425 1.6031975e-38
-0.29152668 0.090416439 1.05425 1.3821395e-38
-0.29152668 0.092916444 1.05425 1.4003292e-38
-0.29402667 0.095416442 1.0467501 1.6680199e-38
-0.29402667 0.095416442 1.04925 1.6864244e-38
-0.29402667 0.097916439 1.0467501 1.4742646e-38
-0.29402667 0.097916439 1.04925 1.4373886e-38
-0.29152668 0.095416442 1.0467501 1.7048636e-38
-0.29152668 0.095416442 1.04925 1.7692573e-38
-0.29152668 0.097916439 1.0467501 1.5019233e-38
-0.29402667 0.095416442 1.05425 1.7047204e-38
-0.29902667 0.090416439 1.0567501 1.4006173e-38
-0.29902667 0.090416439 1.05925 1.3729959e-38
-0.29902667 0.092916444 1.0567501 1.6954644e-38
-0.29902667 0.092916444 1.05925 1.6582616e-38
-0.29652667 0.090416439 1.0567501 1.4006173e-38
-0.29652667 0.090416439 1.05925 1.4831608e-38
-0.29652667 0.092916444 1.0567501 1.6677698e-38
-0.29902667 0.090416439 1.0617501 1.3913256e-38
-0.29652667 0.090416439 1.0617501 1.547553e-38
-0.29902667 0.095416442 1.0567501 1.677095e-38
-0.29402667 0.092916444 1.0567501 1.3820357e-38
-0.29902667 0.10041644 1.0467501 1.2900186e-38
-0.29902667 0.10041644 1.04925 1.2442444e-38
-0.29902667 0.10291644 1.0467501 1.3452989e-38
-0.29902667 0.10291644 1.04925 1.2438501e-38
-0.29652667 0.10041644 1.0467501 1.3360788e-38
-0.29652667 0.10041644 1.04925 1.3545552e-38
-0.29652667 0.10291644 1.0467501 1.2991648e-38
-0.29652667 0.10291644 1.04925 1.2532122e-38
-0.29902667 0.10041644 1.05425 1.3268946e-38
-0.29402667 0.10041644 1.0467501 1.3913256e-38
-0.29402667 0.10041644 1.04925 1.3729218e-38
-0.29402667 0.10291644 1.0467501 1.1977519e-38
-0.29152668 0.10041644 1.0467501 1.428204e-38
-0.29152668 0.10291644 1.0467501 1.2715084e-38
-0.28902668 0.090416439 1.0467501 1.4465321e-38
-0.28902668 0.090416439 1.04925 1.3819964e-38
-0.28902668 0.092916444 1.0467501 1.4279164e-38
-0.28902668 0.092916444 1.04925 1.4373881e-38
-0.28652668 0.090416439 1.0467501 1.4096208e-38
-0.28652668 0.090416439 1.04925 1.427952e-38
-0.28652668 0.092916444 1.0467501 1.3175696e-38
-0.28652668 0.092916444 1.04925 1.3083845e-38
-0.28902668 0.095416442 1.0467501 1.7324868e-38
-0.28902668 0.095416442 1.04925 1.7048654e-38
-0.28902668 0.097916439 1.0467501 1.5296196e-38
-0.28652668 0.095416442 1.0467501 1.6956087e-38
-0.28652668 0.095416442 1.04925 1.7137938e-38
-0.28652668 0.097916439 1.0467501 1.5756815e-38
-0.28402668 0.090416439 1.0467501 1.4004012e-38
-0.28402668 0.090416439 1.04925 1.4924889e-38
-0.28402668 0.092916444 1.0467501 1.3728511e-38
-0.28402668 0.092916444 1.04925 1.3452987e-38
-0.28152668 0.090416439 1.04925 1.4741572e-38
-0.28152668 0.092916444 1.0467501 1.3728867e-38
-0.28152668 0.092916444 1.04925 1.2993097e-38
-0.28402668 0.095416442 1.0467501 1.8612722e-38
-0.28402668 0.095416442 1.04925 1.8428676e-38
-0.28402668 0.097916439 1.0467501 1.91655e-38
-0.28152668 0.095416442 1.0467501 1.8428676e-38
-0.28152668 0.095416442 1.04925 1.7874802e-38
-0.28152668 0.097916439 1.0467501 2.1652599e-38
-0.28402668 0.095416442 1.05425 1.8428695e-38
-0.28152668 0.095416442 1.05425 1.750674e-38
-0.28902668 0.10041644 1.0467501 1.4558615e-38
-0.28902668 0.10291644 1.0467501 1.2072217e-38
-0.28652668 0.10041644 1.0467501 1.4742646e-38
-0.28652668 0.10291644 1.0467501 1.2256608e-38
-0.28402668 0.10041644 1.0467501 1.6032301e-38
-0.28402668 0.10291644 1.0467501 1.3083495e-38
-0.28152668 0.10041644 1.0467501 1.8055556e-38
-0.28152668 0.10291644 1.0467501 1.4553564e-38
-0.27902669 0.092916444 1.0467501 1.41877e-38
-0.27902669 0.092916444 1.04925 1.4095136e-38
-0.27652669 0.092916444 1.0467501 1.4924189e-38
-0.27902669 0.095416442 1.0467501 1.7598916e-38
-0.27902669 0.095416442 1.04925 1.4927436e-38
-0.27652669 0.095416442 1.0467501 1.3453745e-38
-0.27652669 0.095416442 1.04925 1.3728892e-38
-0.27402669 0.095416442 1.0467501 1.3174951e-38
-0.27902669 0.10291644 1.0467501 1.3726684e-38
-0.25902668 0.092916444 1.03425 1.6216723e-38
-0.25652668 0.090416439 1.03175 1.9900563e-38
-0.25652668 0.090416439 1.03425 1.9164441e-38
-0.25652668 0.092916444 1.03175 1.8241048e-38
-0.25652668 0.092916444 1.03425 1.7045026e-38
-0.25902668 0.095416442 1.03425 1.5388016e-38
-0.25902668 0.097916439 1.03425 1.4927744e-38
-0.25652668 0.095416442 1.03425 1.6127377e-38
-0.25652668 0.097916439 1.03425 1.4006876e-38
-0.25402668 0.090416439 1.03175 2.0269705e-38
-0.25402668 0.090416439 1.03425 1.9256639e-38
-0.25402668 0.092916444 1.03175 1.8517275e-38
-0.25402668 0.092916444 1.03425 1.7135436e-38
-0.25152668 0.090416439 1.03175 2.0915072e-38
-0.25152668 0.090416439 1.03425 1.962542e-38
-0.25152668 0.092916444 1.03175 1.9071529e-38
-0.25152668 0.092916444 1.03425 1.7600007e-38
-0.25402668 0.095416442 1.03425 1.7136493e-38
-0.25152668 0.095416442 1.03425 1.566857e-38
-0.25152668 0.097916439 1.03425 1.4006158e-38
-0.25902668 0.092916444 1.0367501 1.6677701e-38
-0.25652668 0.092916444 1.0367501 1.6952825e-38
-0.25902668 0.092916444 1.0417501 1.6677698e-38
-0.25652668 0.092916444 1.0417501 1.6769894e-38
-0.25902668 0.095416442 1.0367501 1.5570612e-38
-0.25902668 0.097916439 1.0367501 1.326859e-38
-0.25652668 0.095416442 1.0367501 1.6126312e-38
-0.25652668 0.097916439 1.0367501 1.4006513e-38
-0.25902668 0.095416442 1.0417501 1.7413436e-38
-0.25902668 0.095416442 1.04425 1.7505278e-38
-0.25652668 0.095416442 1.0417501 1.6126312e-38
-0.25652668 0.095416442 1.04425 1.7412729e-38
-0.25652668 0.097916439 1.0417501 1.4098709e-38
-0.25402668 0.092916444 1.0367501 1.7139389e-38
-0.25152668 0.092916444 1.0367501 1.7690761e-38
-0.25402668 0.092916444 1.0417501 1.7229783e-38
-0.25402668 0.095416442 1.0367501 1.5576373e-38
-0.25402668 0.097916439 1.0367501 1.3821766e-38
-0.25152668 0.095416442 1.0367501 1.6586935e-38
-0.25152668 0.097916439 1.0367501 1.4280602e-38
-0.25402668 0.095416442 1.0417501 1.6309989e-38
-0.25402668 0.097916439 1.0417501 1.4280602e-38
-0.25152668 0.095416442 1.0417501 1.7227967e-38
-0.25152668 0.097916439 1.0417501 1.5660287e-38
-0.25902668 0.10041644 1.03425 2.0826839e-38
-0.25902668 0.10291644 1.03425 2.1745553e-38
-0.25652668 0.10041644 1.03425 2.1377158e-38
-0.25652668 0.10291644 1.03425 2.3311449e-38
-0.25902668 0.10541644 1.03425 1.363558e-38
-0.25902668 0.10791644 1.03175 1.3173544e-38
-0.25902668 0.10791644 1.03425 1.2991298e-38
-0.25652668 0.10541644 1.03425 1.5107469e-38
-0.25652668 0.10791644 1.03175 1.3265741e-38
-0.25652668 0.10791644 1.03425 1.3082438e-38
-0.25402668 0.10041644 1.03425 2.1468641e-38
-0.25402668 0.10291644 1.03425 2.3494415e-38
-0.25152668 0.10041644 1.03425 2.1469007e-38
-0.25152668 0.10291644 1.03175 1.9712929e-38
-0.25152668 0.10291644 1.03425 2.3216388e-38
-0.25402668 0.10541644 1.03425 1.5569893e-38
-0.25402668 0.10791644 1.03175 1.4003659e-38
-0.25402668 0.10791644 1.03425 1.3728867e-38
-0.25152668 0.10541644 1.03175 1.5660284e-38
-0.25152668 0.10541644 1.03425 1.5569893e-38
-0.25152668 0.10791644 1.03175 1.391216e-38
-0.25152668 0.10791644 1.03425 1.3821063e-38
-0.25902668 0.10041644 1.0367501 1.4376019e-38
-0.25652668 0.10041644 1.0367501 2.1284961e-38
-0.25652668 0.10291644 1.0367501 2.3313969e-38
-0.25652668 0.10041644 1.0417501 1.4006173e-38
-0.25402668 0.10041644 1.0367501 2.1467932e-38
-0.25402668 0.10291644 1.0367501 2.3495131e-38
-0.25152668 0.10041644 1.0367501 2.1467932e-38
-0.25402668 0.10041644 1.0417501 1.4371012e-38
-0.24902669 0.092916444 1.03425 1.778332e-38
-0.24652667 0.092916444 1.03425 1.9257008e-38
-0.24902669 0.095416442 1.03425 1.667948e-38
-0.24902669 0.097916439 1.03425 1.4834139e-38
-0.24652667 0.095416442 1.03425 1.7785478e-38
-0.24652667 0.097916439 1.03425 1.5294381e-38
-0.24402668 0.092916444 1.03425 1.94414e-38
-0.24402668 0.095416442 1.03175 1.8520875e-38
-0.24402668 0.095416442 1.03425 1.8338293e-38
-0.24402668 0.097916439 1.03175 1.5294729e-38
-0.24402668 0.097916439 1.03425 1.5294381e-38
-0.24152668 0.097916439 1.03175 1.5202533e-38
-0.24152668 0.097916439 1.03425 1.5384779e-38
-0.24902669 0.092916444 1.0367501 1.8519119e-38
-0.24652667 0.092916444 1.0367501 1.9166595e-38
-0.24902669 0.092916444 1.0417501 1.9439601e-38
-0.24902669 0.095416442 1.0367501 1.7784403e-38
-0.24902669 0.097916439 1.0367501 1.6676979e-38
-0.24652667 0.095416442 1.0367501 1.7875873e-38
-0.24652667 0.097916439 1.0367501 1.6859909e-38
-0.24902669 0.095416442 1.0417501 1.7781139e-38
-0.24402668 0.092916444 1.0367501 1.9442823e-38
-0.24402668 0.095416442 1.0367501 1.8613438e-38
-0.24402668 0.097916439 1.0367501 1.6767713e-38
-0.24902669 0.10041644 1.03425 2.0457687e-38
-0.24902669 0.10291644 1.03175 1.8795273e-38
-0.24902669 0.10291644 1.03425 2.2112571e-38
-0.24652667 0.10041644 1.03425 1.5938669e-38
-0.24652667 0.10291644 1.03175 1.547623e-38
-0.24652667 0.10291644 1.03425 1.6952825e-38
-0.24902669 0.10541644 1.03175 1.4926687e-38
-0.24902669 0.10541644 1.03425 1.4650473e-38
-0.24902669 0.10791644 1.03175 1.3174975e-38
-0.24902669 0.10791644 1.03425 1.2899476e-38
-0.24652667 0.10541644 1.03175 1.4096927e-38
-0.24652667 0.10541644 1.03425 1.4006903e-38
-0.24652667 0.10791644 1.03175 1.1884236e-38
-0.24652667 0.10791644 1.03425 1.1886402e-38
-0.24152668 0.10041644 1.02675 1.5844655e-38
-0.24152668 0.10291644 1.02675 1.6305288e-38
-0.24402668 0.10041644 1.03175 1.5935779e-38
-0.24402668 0.10041644 1.03425 1.5017072e-38
-0.24402668 0.10291644 1.03175 1.7317287e-38
-0.24402668 0.10291644 1.03425 1.621526e-38
-0.24152668 0.10041644 1.03175 1.5201088e-38
-0.24152668 0.10041644 1.03425 1.5201088e-38
-0.24152668 0.10291644 1.03175 1.5845398e-38
-0.24152668 0.10291644 1.03425 1.5845751e-38
-0.24402668 0.10541644 1.03175 1.5940471e-38
-0.24402668 0.10541644 1.03425 1.4836304e-38
-0.24402668 0.10791644 1.03175 1.271292e-38
-0.24402668 0.10791644 1.03425 1.1148837e-38
-0.24152668 0.10541644 1.03175 1.5845051e-38
-0.24152668 0.10541644 1.03425 1.5480214e-38
-0.24152668 0.10791644 1.03175 1.3447203e-38
-0.24152668 0.10791644 1.03425 1.1699825e-38
-0.24902669 0.10041644 1.0367501 1.4742316e-38
-0.24652667 0.10041644 1.0367501 1.5756776e-38
-0.24652667 0.10291644 1.0367501 1.6768782e-38
-0.25902668 0.11041644 1.03175 1.2714715e-38
-0.25902668 0.11041644 1.03425 1.2623939e-38
-0.25652668 0.11041644 1.03175 1.262252e-38
-0.25652668 0.11041644 1.03425 1.1979321e-38
-0.25402668 0.11041644 1.03175 1.2808706e-38
-0.25402668 0.11041644 1.03425 1.3085664e-38
-0.25152668 0.11041644 1.03175 1.3820357e-38
-0.25152668 0.11041644 1.03425 1.4280577e-38
-0.24902669 0.11041644 1.03175 1.3729949e-38
-0.24652667 0.11041644 1.03175 1.4006176e-38
-0.24652667 0.11041644 1.03425 1.225411e-38
-0.24402668 0.11041644 1.03175 1.2714731e-38
-0.24402668 0.11041644 1.03425 1.1055567e-38
-0.24152668 0.11041644 1.03175 1.188169e-38
-0.24152668 0.11041644 1.03425 1.0409099e-38
-0.23902668 0.097916439 1.03425 1.5292933e-38
-0.23902668 0.10041644 1.02675 1.6398189e-38
-0.23902668 0.10291644 1.02675 1.7596026e-38
-0.23902668 0.10041644 1.03175 1.5293284e-38
-0.23902668 0.10041644 1.03425 1.7320181e-38
-0.23902668 0.10291644 1.03175 1.6767713e-38
-0.23902668 0.10291644 1.03425 1.7597138e-38
-0.23652668 0.10291644 1.03175 2.0361918e-38
-0.23902668 0.10541644 1.03175 1.796555e-38
-0.23902668 0.10541644 1.03425 1.8336478e-38
-0.23902668 0.10791644 1.03175 1.3355008e-38
-0.23902668 0.10791644 1.03425 1.1883856e-38
-0.23652668 0.10541644 1.03175 1.9074033e-38
-0.23652668 0.10541644 1.03425 2.0362614e-38
-0.23652668 0.10791644 1.03175 1.5197867e-38
-0.23652668 0.10791644 1.03425 1.9806198e-38
-0.23902668 0.10041644 1.0367501 1.73209e-38
-0.23902668 0.10291644 1.0367501 1.759821e-38
-0.23902668 0.10541644 1.0367501 1.8336834e-38
-0.23902668 0.10791644 1.0367501 1.3819967e-38
-0.23652668 0.10541644 1.0367501 1.8980754e-38
-0.23652668 0.10791644 1.0367501 1.9070083e-38
-0.23902668 0.10791644 1.0417501 1.8336112e-38
-0.23902668 0.11041644 1.03175 1.2619255e-38
-0.23902668 0.11041644 1.03425 1.1239219e-38
