# .PCD v0.7 - Point Cloud Data file format
VERSION 0.7
FIELDS x y z rgb
SIZE 4 4 4 4
TYPE F F F F
COUNT 1 1 1 1
WIDTH 675
HEIGHT 1
VIEWPOINT 0 0 0 1 0 0 0
POINTS 675
DATA ascii
-0.36579195 0.15118308 0.91725004 1.5300865e-38
-0.36329195 0.15118308 0.91725004 1.5022853e-38
-0.36579195 0.15368308 0.91725004 1.4374962e-38
-0.36579195 0.15618308 0.91725004 1.0780775e-38
-0.36329195 0.15368308 0.91725004 1.3087092e-38
-0.36329195 0.15618308 0.91725004 9.7705718e-39
-0.37329194 0.16868308 0.88975 1.4929556e-38
-0.37329194 0.17118308 0.88975 1.4560429e-38
-0.37329194 0.17368308 0.88975 1.3914354e-38
-0.37329194 0.17618309 0.88975 1.3638467e-38
-0.36829194 0.16618308 0.88725001 1.4745893e-38
-0.36579195 0.16618308 0.88725001 1.3180405e-38
-0.36829194 0.16368309 0.88975 1.474519e-38
-0.36829194 0.16618308 0.88975 1.456224e-38
-0.37079194 0.16618308 0.89475006 1.4930653e-38
-0.37079194 0.16618308 0.89725006 1.4838092e-38
-0.36829194 0.16368309 0.89475006 1.5573503e-38
-0.36829194 0.16368309 0.89725006 1.4195603e-38
-0.36829194 0.16618308 0.89475006 1.2626132e-38
-0.36829194 0.16618308 0.89725006 1.207616e-38
-0.36579195 0.16618308 0.88975 1.2349545e-38
-0.36579195 0.16368309 0.89475006 1.0876207e-38
-0.36579195 0.16368309 0.89725006 1.0876561e-38
-0.36579195 0.16618308 0.89475006 9.7719941e-39
-0.36579195 0.16618308 0.89725006 9.7716255e-39
-0.36329195 0.16368309 0.89725006 1.0326964e-38
-0.36329195 0.16618308 0.89475006 1.0879084e-38
-0.36329195 0.16618308 0.89725006 9.127017e-39
-0.37079194 0.17118308 0.88475001 1.5020685e-38
-0.37079194 0.17118308 0.88725001 1.4745537e-38
-0.36829194 0.16868308 0.88475001 1.3735687e-38
-0.36829194 0.16868308 0.88725001 1.3089612e-38
-0.36829194 0.17118308 0.88475001 1.3182163e-38
-0.36829194 0.17118308 0.88725001 1.0138996e-38
-0.37079194 0.17368308 0.88475001 1.4007609e-38
-0.37079194 0.17368308 0.88725001 1.428312e-38
-0.37079194 0.17618309 0.88475001 1.5851515e-38
-0.37079194 0.17618309 0.88725001 1.5575654e-38
-0.36829194 0.17368308 0.88475001 1.2446044e-38
-0.36829194 0.17368308 0.88725001 9.9549644e-39
-0.36829194 0.17618309 0.88475001 1.4471099e-38
-0.36829194 0.17618309 0.88725001 1.4748394e-38
-0.36579195 0.16868308 0.88475001 1.0785068e-38
-0.36579195 0.16868308 0.88725001 1.1798169e-38
-0.36579195 0.17118308 0.88475001 9.5865701e-39
-0.36579195 0.17118308 0.88725001 9.7709613e-39
-0.36579195 0.17368308 0.88475001 1.1062404e-38
-0.36579195 0.17368308 0.88725001 1.1062069e-38
-0.36579195 0.17618309 0.88475001 1.2907015e-38
-0.36579195 0.17618309 0.88725001 1.2446397e-38
-0.36329195 0.17368308 0.88475001 1.1340068e-38
-0.36329195 0.17368308 0.88725001 1.2163009e-38
-0.36329195 0.17618309 0.88725001 1.3364031e-38
-0.37079194 0.16868308 0.88975 1.438e-38
-0.37079194 0.17118308 0.88975 1.4652272e-38
-0.36829194 0.16868308 0.88975 1.1984003e-38
-0.36829194 0.17118308 0.88975 9.403957e-39
-0.36829194 0.16868308 0.89475006 1.0138642e-38
-0.36829194 0.16868308 0.89725006 1.1887473e-38
-0.36829194 0.17118308 0.89475006 9.402878e-39
-0.37079194 0.17368308 0.88975 1.4283135e-38
-0.37079194 0.17618309 0.88975 1.4288505e-38
-0.36829194 0.17368308 0.88975 1.0326655e-38
-0.36829194 0.17618309 0.88975 1.2907018e-38
-0.36579195 0.16868308 0.88975 9.3103293e-39
-0.36579195 0.17118308 0.88975 1.0414531e-38
-0.36329195 0.16868308 0.88975 9.7720305e-39
-0.36329195 0.17118308 0.88975 1.4927433e-38
-0.36579195 0.16868308 0.89475006 9.0351717e-39
-0.36579195 0.16868308 0.89725006 9.0348032e-39
-0.36579195 0.17118308 0.89475006 8.1143042e-39
-0.36579195 0.17118308 0.89725006 1.0140443e-38
-0.36329195 0.16868308 0.89475006 1.0138295e-38
-0.36329195 0.16868308 0.89725006 1.1708139e-38
-0.36329195 0.17118308 0.89475006 1.1798522e-38
-0.36579195 0.17368308 0.88975 1.078728e-38
-0.36579195 0.17618309 0.88975 1.2539312e-38
-0.36329195 0.17368308 0.88975 1.4192016e-38
-0.36329195 0.17618309 0.88975 1.3549494e-38
-0.36329195 0.17368308 0.89475006 1.5666417e-38
-0.36829194 0.16118309 0.90725005 1.4472196e-38
-0.37079194 0.16618308 0.90225005 1.4285288e-38
-0.36829194 0.16368309 0.89975005 1.3084945e-38
-0.36829194 0.16368309 0.90225005 1.2809798e-38
-0.36829194 0.16618308 0.89975005 1.0508137e-38
-0.36829194 0.16618308 0.90225005 1.1059507e-38
-0.36829194 0.16368309 0.90475005 1.4103055e-38
-0.36829194 0.16368309 0.90725005 1.3734631e-38
-0.36829194 0.16618308 0.90475005 9.3117586e-39
-0.36579195 0.16118309 0.90225005 1.0140075e-38
-0.36329195 0.16118309 0.90225005 8.9422502e-39
-0.36579195 0.16118309 0.90725005 9.9582e-39
-0.36329195 0.16118309 0.90725005 8.2972508e-39
-0.36579195 0.16368309 0.89975005 1.0876914e-38
-0.36579195 0.16368309 0.90225005 1.0325545e-38
-0.36579195 0.16618308 0.89975005 8.9440677e-39
-0.36579195 0.16618308 0.90225005 8.9429593e-39
-0.36329195 0.16368309 0.89975005 9.5869204e-39
-0.36329195 0.16368309 0.90225005 9.1288149e-39
-0.36329195 0.16618308 0.89975005 1.1338286e-38
-0.36329195 0.16618308 0.90225005 9.402878e-39
-0.36579195 0.16368309 0.90475005 8.5759928e-39
-0.36579195 0.16368309 0.90725005 8.4845021e-39
-0.36329195 0.16368309 0.90475005 1.0419554e-38
-0.36329195 0.16368309 0.90725005 1.2720145e-38
-0.36329195 0.16618308 0.90475005 1.2263461e-38
-0.37079194 0.16118309 0.91225004 1.5300514e-38
-0.36829194 0.15868309 0.90975004 1.5297995e-38
-0.36829194 0.15868309 0.91225004 1.410306e-38
-0.36829194 0.16118309 0.90975004 1.2259851e-38
-0.36829194 0.16118309 0.91225004 1.3364403e-38
-0.36829194 0.15868309 0.91475004 1.4378202e-38
-0.36829194 0.15868309 0.91725004 1.4100539e-38
-0.37079194 0.16368309 0.91225004 1.4472916e-38
-0.36829194 0.16368309 0.90975004 1.3366922e-38
-0.36579195 0.15868309 0.90975004 1.4746985e-38
-0.36579195 0.15868309 0.91225004 1.0784017e-38
-0.36579195 0.16118309 0.90975004 8.2976067e-39
-0.36579195 0.16118309 0.91225004 9.6762195e-39
-0.36329195 0.15868309 0.91225004 8.9419195e-39
-0.36329195 0.16118309 0.90975004 9.679116e-39
-0.36329195 0.16118309 0.91225004 9.9560518e-39
-0.36579195 0.15868309 0.91475004 9.309623e-39
-0.36579195 0.15868309 0.91725004 1.2995268e-38
-0.36329195 0.15868309 0.91475004 9.1255919e-39
-0.36329195 0.15868309 0.91725004 8.6653102e-39
-0.36579195 0.16368309 0.90975004 8.9451215e-39
-0.36579195 0.16368309 0.91225004 8.6649599e-39
-0.36329195 0.16368309 0.90975004 1.0416687e-38
-0.36329195 0.16368309 0.91225004 9.1255919e-39
-0.36829194 0.16868308 0.89975005 9.5868783e-39
-0.36579195 0.16868308 0.89975005 8.9422698e-39
-0.36079195 0.15118308 0.91725004 1.2072233e-38
-0.36079195 0.15368308 0.91725004 1.0413419e-38
-0.36079195 0.15618308 0.91725004 9.7705718e-39
-0.35829195 0.15618308 0.91725004 1.4562962e-38
-0.35579196 0.15618308 0.91475004 1.5392354e-38
-0.35579196 0.15618308 0.91725004 1.5116486e-38
-0.35329196 0.15618308 0.91475004 1.4838795e-38
-0.35329196 0.15618308 0.91725004 1.5667121e-38
-0.35079196 0.15618308 0.91475004 1.4377457e-38
-0.35079196 0.15618308 0.91725004 1.4008341e-38
-0.34829196 0.15618308 0.91475004 1.4284542e-38
-0.34829196 0.15618308 0.91725004 1.0688945e-38
-0.36079195 0.16368309 0.89725006 1.3457338e-38
-0.36079195 0.16618308 0.89475006 1.2629372e-38
-0.36079195 0.16618308 0.89725006 1.465873e-38
-0.35829195 0.16618308 0.89475006 1.521085e-38
-0.35829195 0.16618308 0.89725006 1.5299811e-38
-0.35579196 0.16618308 0.89475006 1.5668585e-38
-0.35579196 0.16618308 0.89725006 1.42853e-38
-0.36079195 0.17368308 0.88725001 1.5205051e-38
-0.36079195 0.17618309 0.88725001 1.2806928e-38
-0.35829195 0.17368308 0.88725001 1.612701e-38
-0.35829195 0.17618309 0.88725001 1.548273e-38
-0.36079195 0.16868308 0.88975 1.4933174e-38
-0.36079195 0.17118308 0.88975 1.5574209e-38
-0.35829195 0.16868308 0.88975 1.5392354e-38
-0.35829195 0.17118308 0.88975 1.5298361e-38
-0.36079195 0.16868308 0.89475006 1.539306e-38
-0.36079195 0.17118308 0.89475006 1.6404689e-38
-0.35829195 0.16868308 0.89475006 1.5208669e-38
-0.35829195 0.17118308 0.89475006 1.3732111e-38
-0.36079195 0.17368308 0.88975 1.5389816e-38
-0.36079195 0.17618309 0.88975 1.2717955e-38
-0.35829195 0.17368308 0.88975 1.5205795e-38
-0.35829195 0.17618309 0.88975 1.2806928e-38
-0.36079195 0.17368308 0.89475006 1.5389113e-38
-0.35829195 0.17368308 0.89475006 1.4374962e-38
-0.35579196 0.16868308 0.88975 1.4376753e-38
-0.35579196 0.17118308 0.88975 1.3272205e-38
-0.35329196 0.16868308 0.88975 1.3915763e-38
-0.35329196 0.17118308 0.88975 1.1889974e-38
-0.35579196 0.16868308 0.89475006 1.3455507e-38
-0.35579196 0.16868308 0.89725006 1.4560077e-38
-0.35579196 0.17118308 0.89475006 1.1889271e-38
-0.35329196 0.16868308 0.89475006 1.0599984e-38
-0.35329196 0.16868308 0.89725006 1.4006903e-38
-0.35329196 0.17118308 0.89475006 8.3886911e-39
-0.35329196 0.17118308 0.89725006 8.7549877e-39
-0.35579196 0.17368308 0.88975 1.1522987e-38
-0.35579196 0.17618309 0.88975 1.0876914e-38
-0.35329196 0.17368308 0.88975 9.6762251e-39
-0.35579196 0.17368308 0.89475006 8.5730852e-39
-0.35329196 0.17368308 0.89475006 9.2170449e-39
-0.35079196 0.16868308 0.89475006 1.0966594e-38
-0.35079196 0.16868308 0.89725006 9.0340969e-39
-0.35079196 0.17118308 0.89475006 8.3869339e-39
-0.35079196 0.17118308 0.89725006 9.2177511e-39
-0.35079196 0.17368308 0.89475006 9.3092419e-39
-0.36079195 0.16368309 0.89975005 1.1615224e-38
-0.36079195 0.16368309 0.90225005 1.2904514e-38
-0.36079195 0.16618308 0.89975005 1.4841721e-38
-0.36079195 0.16618308 0.90225005 1.3918688e-38
-0.35829195 0.16368309 0.90225005 1.4932818e-38
-0.35829195 0.16618308 0.89975005 1.5575318e-38
-0.35829195 0.16618308 0.90225005 1.4377133e-38
-0.36079195 0.16368309 0.90475005 1.4656254e-38
-0.36079195 0.16368309 0.90725005 1.3643534e-38
-0.36079195 0.16618308 0.90475005 1.4749871e-38
-0.35829195 0.16368309 0.90475005 1.4380701e-38
-0.35829195 0.16368309 0.90725005 1.355094e-38
-0.35829195 0.16618308 0.90475005 1.5023203e-38
-0.35829195 0.16618308 0.90725005 1.400799e-38
-0.35579196 0.16368309 0.90225005 1.5115749e-38
-0.35579196 0.16618308 0.89975005 1.382466e-38
-0.35579196 0.16618308 0.90225005 1.4008694e-38
-0.35329196 0.16618308 0.89975005 1.327436e-38
-0.35329196 0.16618308 0.90225005 1.3364757e-38
-0.35579196 0.16368309 0.90475005 1.3733186e-38
-0.35579196 0.16368309 0.90725005 1.4009425e-38
-0.35579196 0.16618308 0.90475005 1.4467524e-38
-0.35579196 0.16618308 0.90725005 1.4283839e-38
-0.35329196 0.16368309 0.90725005 1.3548772e-38
-0.35329196 0.16618308 0.90475005 1.2626488e-38
-0.35329196 0.16618308 0.90725005 1.1153503e-38
-0.36079195 0.15868309 0.91225004 1.0414513e-38
-0.36079195 0.16118309 0.90975004 1.3918673e-38
-0.36079195 0.16118309 0.91225004 1.1428665e-38
-0.35829195 0.15868309 0.91225004 1.5391631e-38
-0.35829195 0.16118309 0.90975004 1.5209412e-38
-0.35829195 0.16118309 0.91225004 1.5576392e-38
-0.36079195 0.15868309 0.91475004 1.0140793e-38
-0.36079195 0.15868309 0.91725004 1.2443895e-38
-0.36079195 0.16118309 0.91725004 1.5483824e-38
-0.35829195 0.15868309 0.91475004 1.2534292e-38
-0.35829195 0.15868309 0.91725004 1.5209765e-38
-0.35829195 0.16118309 0.91475004 1.5485273e-38
-0.35829195 0.16118309 0.91725004 1.5483824e-38
-0.36079195 0.16368309 0.90975004 1.438037e-38
-0.36079195 0.16368309 0.91225004 1.4287451e-38
-0.35829195 0.16368309 0.90975004 1.4104139e-38
-0.35829195 0.16368309 0.91225004 1.493171e-38
-0.35829195 0.16618308 0.90975004 1.3732129e-38
-0.35579196 0.15868309 0.91225004 1.5391263e-38
-0.35579196 0.16118309 0.90975004 1.4652638e-38
-0.35579196 0.16118309 0.91225004 1.5023219e-38
-0.35329196 0.15868309 0.91225004 1.4653698e-38
-0.35329196 0.16118309 0.90975004 1.4559697e-38
-0.35329196 0.16118309 0.91225004 1.4836304e-38
-0.35579196 0.15868309 0.91475004 1.5761137e-38
-0.35579196 0.15868309 0.91725004 1.5117568e-38
-0.35579196 0.16118309 0.91475004 1.4839903e-38
-0.35579196 0.16118309 0.91725004 1.5116105e-38
-0.35329196 0.15868309 0.91475004 1.3918631e-38
-0.35329196 0.15868309 0.91725004 1.5022123e-38
-0.35329196 0.16118309 0.91475004 1.3732815e-38
-0.35579196 0.16368309 0.90975004 1.4469326e-38
-0.35579196 0.16368309 0.91225004 1.3274007e-38
-0.35579196 0.16618308 0.90975004 1.3640284e-38
-0.35579196 0.16618308 0.91225004 1.2718656e-38
-0.35329196 0.16368309 0.90975004 1.4007609e-38
-0.35329196 0.16368309 0.91225004 1.0508137e-38
-0.35329196 0.16618308 0.90975004 1.2996322e-38
-0.35329196 0.16618308 0.91225004 9.0311892e-39
-0.35829195 0.16868308 0.89975005 1.3917227e-38
-0.35829195 0.16868308 0.90225005 1.401014e-38
-0.35579196 0.16868308 0.89975005 1.4100527e-38
-0.35579196 0.16868308 0.90225005 1.4006903e-38
-0.35579196 0.17118308 0.89975005 9.6758398e-39
-0.35579196 0.17118308 0.90225005 1.0232248e-38
-0.35329196 0.16868308 0.89975005 8.7571555e-39
-0.35329196 0.16868308 0.90225005 1.2534996e-38
-0.35329196 0.17118308 0.89975005 9.2138008e-39
-0.35329196 0.17118308 0.90225005 9.2170477e-39
-0.35579196 0.16868308 0.90475005 1.2536089e-38
-0.35579196 0.16868308 0.90725005 1.3730665e-38
-0.35329196 0.16868308 0.90475005 9.6765727e-39
-0.35329196 0.16868308 0.90725005 8.9418999e-39
-0.35079196 0.16618308 0.90725005 9.3974746e-39
-0.35079196 0.15868309 0.91225004 1.1520466e-38
-0.35079196 0.16118309 0.90975004 1.1430085e-38
-0.35079196 0.16118309 0.91225004 9.4003445e-39
-0.34829196 0.15868309 0.91225004 9.5851211e-39
-0.34829196 0.16118309 0.90975004 8.6645759e-39
-0.34829196 0.16118309 0.91225004 9.2156099e-39
-0.35079196 0.15868309 0.91475004 1.1705936e-38
-0.35079196 0.15868309 0.91725004 1.3087092e-38
-0.35079196 0.16118309 0.91475004 9.8602451e-39
-0.35079196 0.16118309 0.91725004 9.4936065e-39
-0.34829196 0.15868309 0.91475004 1.3179293e-38
-0.34829196 0.15868309 0.91725004 9.1233989e-39
-0.34829196 0.16118309 0.91475004 9.2166693e-39
-0.34829196 0.16118309 0.91725004 9.5847526e-39
-0.35079196 0.16368309 0.90975004 1.0138976e-38
-0.35079196 0.16368309 0.91225004 8.6670955e-39
-0.35079196 0.16618308 0.90975004 9.032648e-39
-0.35079196 0.16618308 0.91225004 1.0600334e-38
-0.34829196 0.16368309 0.90975004 9.3092153e-39
-0.34829196 0.16368309 0.91225004 9.8609793e-39
-0.34829196 0.16618308 0.90975004 1.2075104e-38
-0.34829196 0.16618308 0.91225004 1.1429013e-38
-0.35079196 0.16368309 0.91475004 9.5836441e-39
-0.34829196 0.16368309 0.91475004 1.2627207e-38
-0.34829196 0.16368309 0.91725004 1.1889992e-38
-0.34579197 0.15868309 0.91225004 8.6638753e-39
-0.34579197 0.16118309 0.91225004 1.0045727e-38
-0.34579197 0.15868309 0.91475004 9.8624171e-39
-0.34579197 0.15868309 0.91725004 1.0601418e-38
-0.34579197 0.16118309 0.91475004 1.1241753e-38
-0.34579197 0.16118309 0.91725004 1.327006e-38
-0.34329194 0.15868309 0.91475004 1.2628287e-38
-0.34329194 0.16118309 0.91475004 1.3362252e-38
-0.34329194 0.16118309 0.91725004 1.2352753e-38
-0.34579197 0.16368309 0.91225004 1.3177861e-38
-0.34579197 0.16618308 0.91225004 1.2536092e-38
-0.34579197 0.16368309 0.91475004 1.3087814e-38
-0.34579197 0.16368309 0.91725004 1.2719031e-38
-0.35079196 0.16868308 0.90475005 8.7571555e-39
-0.35079196 0.16868308 0.90725005 8.8497043e-39
-0.36329195 0.13618308 0.95975006 1.4838101e-38
-0.36329195 0.13618308 0.96225005 1.5298361e-38
-0.36829194 0.15618308 0.91975003 1.5113246e-38
-0.36579195 0.15118308 0.92225003 1.5390206e-38
-0.36329195 0.15118308 0.92225003 1.3361902e-38
-0.36579195 0.15118308 0.92725003 1.345517e-38
-0.36329195 0.15118308 0.92475003 1.1244997e-38
-0.36329195 0.15118308 0.92725003 1.1338267e-38
-0.36579195 0.15368308 0.91975003 1.548131e-38
-0.36579195 0.15368308 0.92225003 1.5113965e-38
-0.36579195 0.15618308 0.91975003 1.4745187e-38
-0.36329195 0.15368308 0.91975003 1.1888201e-38
-0.36329195 0.15368308 0.92225003 1.2162981e-38
-0.36329195 0.15618308 0.91975003 9.3103293e-39
-0.36579195 0.15368308 0.92725003 1.1333949e-38
-0.36329195 0.15368308 0.92475003 1.0601033e-38
-0.36329195 0.15368308 0.92725003 1.013863e-38
-0.36579195 0.15118308 0.93225002 1.4011941e-38
-0.36329195 0.14868309 0.93225002 1.0324841e-38
-0.36329195 0.15118308 0.92975003 1.0508151e-38
-0.36329195 0.15118308 0.93225002 9.2195658e-39
-0.36579195 0.15118308 0.93475002 1.2718681e-38
-0.36579195 0.15118308 0.93725002 1.1244997e-38
-0.36329195 0.15118308 0.93475002 1.041739e-38
-0.36329195 0.15118308 0.93725002 9.8624171e-39
-0.36579195 0.15368308 0.92975003 1.3546647e-38
-0.36579195 0.15368308 0.93225002 1.1523015e-38
-0.36329195 0.15368308 0.92975003 9.2163456e-39
-0.36329195 0.15368308 0.93225002 9.6791314e-39
-0.36579195 0.14118308 0.94225001 1.6125956e-38
-0.36329195 0.13868308 0.94225001 1.6494736e-38
-0.36329195 0.14118308 0.94225001 1.5760771e-38
-0.36579195 0.14118308 0.94475001 1.5757872e-38
-0.36329195 0.14118308 0.94475001 1.6033758e-38
-0.36579195 0.14368309 0.93975002 1.5573869e-38
-0.36579195 0.14368309 0.94225001 1.5665698e-38
-0.36579195 0.14618309 0.93975002 1.5390559e-38
-0.36579195 0.14618309 0.94225001 1.4193441e-38
-0.36329195 0.14368309 0.93975002 1.5113249e-38
-0.36329195 0.14368309 0.94225001 1.4564761e-38
-0.36329195 0.14618309 0.93975002 1.4837385e-38
-0.36329195 0.14618309 0.94225001 1.2812318e-38
-0.36579195 0.14368309 0.94475001 1.5942631e-38
-0.36329195 0.14368309 0.94475001 1.354953e-38
-0.36329195 0.13868308 0.94975001 1.5758982e-38
-0.36329195 0.14118308 0.94975001 1.4379647e-38
-0.36329195 0.13868308 0.95475 1.4375684e-38
-0.36329195 0.14118308 0.95475 1.2717605e-38
-0.36579195 0.14868309 0.93975002 1.4101617e-38
-0.36579195 0.14868309 0.94225001 1.4101243e-38
-0.36579195 0.15118308 0.93975002 1.1153506e-38
-0.36329195 0.14868309 0.93975002 1.0505986e-38
-0.36329195 0.14868309 0.94225001 1.0231939e-38
-0.36329195 0.15118308 0.93975002 9.5858218e-39
-0.37079194 0.15868309 0.92225003 1.5113968e-38
-0.36829194 0.15868309 0.91975003 1.4190934e-38
-0.36329195 0.13868308 0.95975006 1.4564393e-38
-0.36329195 0.14118308 0.95975006 1.2352768e-38
-0.36079195 0.13368309 0.95475 1.5481307e-38
-0.36079195 0.13618308 0.95475 1.3086742e-38
-0.35829195 0.13368309 0.95475 1.4562944e-38
-0.35829195 0.13618308 0.95475 1.1059182e-38
-0.35329196 0.13368309 0.94975001 1.3268592e-38
-0.35329196 0.13618308 0.94975001 1.1608738e-38
-0.35579196 0.13368309 0.95475 1.2258053e-38
-0.35579196 0.13618308 0.95475 1.0321617e-38
-0.35329196 0.13368309 0.95475 1.2809409e-38
-0.35329196 0.13618308 0.95475 1.1703457e-38
-0.35079196 0.13368309 0.94975001 1.51143e-38
-0.35079196 0.13618308 0.94975001 1.4100542e-38
-0.34829196 0.13368309 0.94975001 2.3496191e-38
-0.34829196 0.13618308 0.94975001 2.3313578e-38
-0.35079196 0.13368309 0.95475 2.0725641e-38
-0.35079196 0.13618308 0.95475 1.944064e-38
-0.34829196 0.13368309 0.95475 2.2575334e-38
-0.34829196 0.13618308 0.95475 2.1840988e-38
-0.34579197 0.13368309 0.94975001 2.2392738e-38
-0.34579197 0.13618308 0.94975001 2.1749872e-38
-0.34329194 0.13368309 0.94975001 1.5394833e-38
-0.34329194 0.13618308 0.94975001 1.2258015e-38
-0.34579197 0.13368309 0.95475 1.9993857e-38
-0.34579197 0.13618308 0.95475 1.3451186e-38
-0.34329194 0.13368309 0.95475 1.2813357e-38
-0.34329194 0.13618308 0.95475 1.4839493e-38
-0.34079194 0.13368309 0.95475 1.4469287e-38
-0.34079194 0.13618308 0.95475 1.6495102e-38
-0.36079195 0.13618308 0.95975006 1.5115048e-38
-0.35829195 0.13618308 0.95975006 1.4288158e-38
-0.34079194 0.13618308 0.95975006 1.8708157e-38
-0.34079194 0.13618308 0.96225005 1.8525892e-38
-0.36079195 0.15118308 0.92475003 9.5840519e-39
-0.36079195 0.15118308 0.92725003 9.771683e-39
-0.36079195 0.15368308 0.91975003 9.679116e-39
-0.36079195 0.15368308 0.92225003 9.493273e-39
-0.36079195 0.15618308 0.91975003 1.0782943e-38
-0.36079195 0.15618308 0.92225003 8.9426034e-39
-0.35829195 0.15368308 0.91975003 1.0876238e-38
-0.35829195 0.15368308 0.92225003 1.1613075e-38
-0.35829195 0.15618308 0.91975003 1.2904517e-38
-0.35829195 0.15618308 0.92225003 1.2998515e-38
-0.36079195 0.15368308 0.92475003 1.0044264e-38
-0.36079195 0.15368308 0.92725003 1.0047894e-38
-0.35829195 0.15368308 0.92475003 1.3643528e-38
-0.35829195 0.15368308 0.92725003 1.5022868e-38
-0.35579196 0.15368308 0.91975003 1.5209074e-38
-0.35579196 0.15368308 0.92225003 1.5576723e-38
-0.35579196 0.15618308 0.91975003 1.5025016e-38
-0.35579196 0.15618308 0.92225003 1.5760421e-38
-0.35329196 0.15368308 0.92225003 1.4285984e-38
-0.35329196 0.15618308 0.91975003 1.4010126e-38
-0.35329196 0.15618308 0.92225003 1.3731758e-38
-0.35579196 0.15368308 0.92475003 1.5944452e-38
-0.35579196 0.15368308 0.92725003 1.493247e-38
-0.35579196 0.15618308 0.92725003 1.4377127e-38
-0.35329196 0.15368308 0.92475003 1.4653332e-38
-0.35329196 0.15368308 0.92725003 1.4378553e-38
-0.35329196 0.15618308 0.92475003 1.4373881e-38
-0.35329196 0.15618308 0.92725003 1.4375328e-38
-0.36079195 0.15118308 0.93225002 1.0691099e-38
-0.35829195 0.15118308 0.93225002 1.5114348e-38
-0.36079195 0.14868309 0.93725002 1.0045729e-38
-0.36079195 0.15118308 0.93475002 1.1887501e-38
-0.36079195 0.15118308 0.93725002 1.068969e-38
-0.35829195 0.14868309 0.93725002 9.9535337e-39
-0.35829195 0.15118308 0.93475002 1.5114695e-38
-0.35829195 0.15118308 0.93725002 1.4373556e-38
-0.36079195 0.15368308 0.92975003 1.1707791e-38
-0.36079195 0.15368308 0.93225002 1.1523027e-38
-0.35829195 0.15368308 0.92975003 1.3823975e-38
-0.35829195 0.15368308 0.93225002 1.5668585e-38
-0.35579196 0.15118308 0.93225002 1.4932824e-38
-0.35329196 0.15118308 0.93225002 1.373428e-38
-0.35579196 0.15118308 0.93475002 1.4653007e-38
-0.35579196 0.15118308 0.93725002 1.6309664e-38
-0.35329196 0.15118308 0.93475002 1.3732833e-38
-0.35329196 0.15118308 0.93725002 1.5388391e-38
-0.35579196 0.15368308 0.92975003 1.5668222e-38
-0.35579196 0.15368308 0.93225002 1.5576022e-38
-0.35579196 0.15618308 0.92975003 1.4742688e-38
-0.35329196 0.15368308 0.92975003 1.4377483e-38
-0.35329196 0.15368308 0.93225002 1.4376403e-38
-0.35329196 0.15618308 0.92975003 1.428171e-38
-0.35079196 0.15118308 0.92725003 1.4283133e-38
-0.34829196 0.15118308 0.92725003 1.152334e-38
-0.35079196 0.15368308 0.92225003 1.4467527e-38
-0.35079196 0.15618308 0.91975003 1.4559344e-38
-0.35079196 0.15618308 0.92225003 1.4467524e-38
-0.34829196 0.15368308 0.92225003 1.0320869e-38
-0.34829196 0.15618308 0.91975003 1.0783282e-38
-0.34829196 0.15618308 0.92225003 9.3077929e-39
-0.35079196 0.15368308 0.92475003 1.4467176e-38
-0.35079196 0.15368308 0.92725003 1.4375666e-38
-0.35079196 0.15618308 0.92475003 1.391471e-38
-0.35079196 0.15618308 0.92725003 1.391576e-38
-0.34829196 0.15368308 0.92475003 1.3916113e-38
-0.34829196 0.15368308 0.92725003 1.142503e-38
-0.34829196 0.15618308 0.92475003 9.5836568e-39
-0.34829196 0.15618308 0.92725003 9.1252024e-39
-0.34579197 0.15118308 0.92725003 8.5730795e-39
-0.34579197 0.15618308 0.91975003 9.4932758e-39
-0.34579197 0.15618308 0.92225003 8.3905058e-39
-0.34329194 0.15368308 0.92225003 1.0970205e-38
-0.34329194 0.15618308 0.92225003 1.1431532e-38
-0.34579197 0.15368308 0.92475003 1.0324446e-38
-0.34579197 0.15368308 0.92725003 1.0410877e-38
-0.34579197 0.15618308 0.92475003 1.0603201e-38
-0.34579197 0.15618308 0.92725003 1.1798525e-38
-0.34329194 0.15368308 0.92475003 1.1703457e-38
-0.34329194 0.15368308 0.92725003 1.1054488e-38
-0.34329194 0.15618308 0.92475003 1.1707399e-38
-0.34329194 0.15618308 0.92725003 1.1708126e-38
-0.35079196 0.15118308 0.92975003 1.345552e-38
-0.35079196 0.15118308 0.93225002 1.2536442e-38
-0.34829196 0.15118308 0.93225002 9.7687711e-39
-0.35079196 0.15118308 0.93475002 1.2902713e-38
-0.35079196 0.15118308 0.93725002 1.2995618e-38
-0.34829196 0.15118308 0.93475002 1.0321595e-38
-0.34829196 0.15118308 0.93725002 9.7705662e-39
-0.35079196 0.15368308 0.92975003 1.2162983e-38
-0.35079196 0.15368308 0.93225002 1.3270057e-38
-0.35079196 0.15618308 0.92975003 1.0044635e-38
-0.34829196 0.15368308 0.92975003 1.0873677e-38
-0.34829196 0.15368308 0.93225002 8.9397489e-39
-0.34829196 0.15618308 0.92975003 9.4932604e-39
-0.34829196 0.15618308 0.93225002 1.0141147e-38
-0.35079196 0.15368308 0.93475002 1.2074751e-38
-0.34829196 0.15368308 0.93475002 9.0326536e-39
-0.34829196 0.15368308 0.93725002 8.9415482e-39
-0.34579197 0.15118308 0.93225002 9.493273e-39
-0.34579197 0.15118308 0.93475002 9.5861749e-39
-0.34579197 0.15118308 0.93725002 9.8631205e-39
-0.34579197 0.15368308 0.92975003 9.6769538e-39
-0.34579197 0.15368308 0.93225002 9.309623e-39
-0.34579197 0.15618308 0.92975003 1.1708126e-38
-0.34579197 0.15618308 0.93225002 1.1521577e-38
-0.34329194 0.15368308 0.93225002 1.2719051e-38
-0.34329194 0.15618308 0.92975003 1.2168378e-38
-0.34329194 0.15618308 0.93225002 1.2443539e-38
-0.34579197 0.15368308 0.93475002 1.2807986e-38
-0.34579197 0.15368308 0.93725002 1.0875847e-38
-0.36079195 0.13868308 0.94225001 1.6033758e-38
-0.36079195 0.14118308 0.94225001 1.4654063e-38
-0.36079195 0.14118308 0.94475001 1.3274713e-38
-0.36079195 0.14118308 0.94725001 1.2624687e-38
-0.35829195 0.14118308 0.94475001 9.8631149e-39
-0.35829195 0.14118308 0.94725001 8.758938e-39
-0.36079195 0.14368309 0.93975002 1.0507431e-38
-0.36079195 0.14368309 0.94225001 9.402878e-39
-0.36079195 0.14618309 0.93975002 9.678023e-39
-0.36079195 0.14618309 0.94225001 9.1252024e-39
-0.35829195 0.14368309 0.94225001 9.3106824e-39
-0.35829195 0.14618309 0.93975002 8.4798329e-39
-0.35829195 0.14618309 0.94225001 1.2444245e-38
-0.36079195 0.14368309 0.94475001 1.1799229e-38
-0.35829195 0.14368309 0.94475001 8.3894366e-39
-0.35829195 0.14368309 0.94725001 9.6751335e-39
-0.35829195 0.14618309 0.94475001 1.2255574e-38
-0.35829195 0.14618309 0.94725001 1.1705273e-38
-0.35579196 0.14118308 0.94225001 1.0507786e-38
-0.35579196 0.14118308 0.94475001 1.0416642e-38
-0.35579196 0.14118308 0.94725001 1.0049677e-38
-0.35579196 0.14368309 0.94225001 2.1290742e-38
-0.35579196 0.14618309 0.93975002 1.1706327e-38
-0.35579196 0.14618309 0.94225001 2.1014881e-38
-0.35329196 0.14368309 0.94225001 2.1565889e-38
-0.35329196 0.14618309 0.94225001 2.1014865e-38
-0.35579196 0.14368309 0.94475001 1.3459836e-38
-0.35579196 0.14368309 0.94725001 1.7508926e-38
-0.35579196 0.14618309 0.94475001 2.0829768e-38
-0.35579196 0.14618309 0.94725001 2.0739331e-38
-0.35329196 0.14368309 0.94475001 2.1380423e-38
-0.35329196 0.14368309 0.94725001 2.1473338e-38
-0.35329196 0.14618309 0.94475001 2.0923742e-38
-0.35329196 0.14618309 0.94725001 2.0184751e-38
-0.36079195 0.13868308 0.94975001 1.4192738e-38
-0.36079195 0.14118308 0.94975001 1.2626488e-38
-0.35829195 0.13868308 0.94975001 1.2443556e-38
-0.35829195 0.14118308 0.94975001 9.4957771e-39
-0.36079195 0.13868308 0.95475 1.1703454e-38
-0.36079195 0.14118308 0.95475 1.1061643e-38
-0.35829195 0.13868308 0.95475 1.0507447e-38
-0.35829195 0.14118308 0.95475 9.9567525e-39
-0.35829195 0.14368309 0.94975001 1.0415936e-38
-0.35829195 0.14368309 0.95475 1.3637044e-38
-0.35579196 0.13868308 0.95475 1.179204e-38
-0.35579196 0.14118308 0.95475 1.3091764e-38
-0.35329196 0.13868308 0.95475 1.419524e-38
-0.35329196 0.14118308 0.95475 1.9717658e-38
-0.35579196 0.14368309 0.94975001 1.3180365e-38
-0.35329196 0.14368309 0.94975001 2.1198881e-38
-0.35329196 0.14618309 0.94975001 1.9356336e-38
-0.35579196 0.14368309 0.95475 1.9080886e-38
-0.35329196 0.14368309 0.95475 1.5021772e-38
-0.35329196 0.14618309 0.95475 1.4837385e-38
-0.36079195 0.14868309 0.93975002 9.0337466e-39
-0.36079195 0.14868309 0.94225001 1.1884236e-38
-0.36079195 0.15118308 0.93975002 1.299494e-38
-0.35829195 0.14868309 0.93975002 1.4000069e-38
-0.35829195 0.14868309 0.94225001 1.981306e-38
-0.35829195 0.15118308 0.93975002 1.4463603e-38
-0.35829195 0.14868309 0.94475001 2.1474373e-38
-0.35579196 0.14868309 0.93975002 2.1198881e-38
-0.35579196 0.14868309 0.94225001 2.0092892e-38
-0.35579196 0.15118308 0.93975002 1.5849014e-38
-0.35329196 0.14868309 0.93975002 2.0182934e-38
-0.35329196 0.14868309 0.94225001 1.9725156e-38
-0.35329196 0.15118308 0.93975002 1.3913261e-38
-0.35579196 0.14868309 0.94475001 2.2027547e-38
-0.35329196 0.14868309 0.94475001 1.9909181e-38
-0.35079196 0.14368309 0.94225001 2.0551739e-38
-0.35079196 0.14618309 0.94225001 1.5206866e-38
-0.34829196 0.14368309 0.94225001 1.27179e-38
-0.34829196 0.14618309 0.94225001 1.1704509e-38
-0.35079196 0.14368309 0.94725001 2.1381828e-38
-0.35079196 0.14618309 0.94475001 1.935563e-38
-0.35079196 0.14618309 0.94725001 1.2349122e-38
-0.34829196 0.14618309 0.94475001 1.1887822e-38
-0.34829196 0.14618309 0.94725001 1.1427907e-38
-0.35079196 0.13868308 0.95475 1.8149611e-38
-0.35079196 0.14118308 0.95475 2.0274782e-38
-0.34829196 0.13868308 0.95475 1.3635965e-38
-0.34829196 0.14118308 0.95475 1.2620708e-38
-0.35079196 0.14368309 0.94975001 1.5665698e-38
-0.35079196 0.14618309 0.94975001 1.2900141e-38
-0.35079196 0.14368309 0.95475 1.6495102e-38
-0.35079196 0.14618309 0.95475 1.1242086e-38
-0.34829196 0.14368309 0.95475 1.1611607e-38
-0.34829196 0.14618309 0.95475 1.2435961e-38
-0.34579197 0.13868308 0.94975001 1.8801425e-38
-0.34329194 0.13868308 0.94975001 1.1978949e-38
-0.34579197 0.13868308 0.95475 1.1976803e-38
-0.34579197 0.14118308 0.95475 1.345047e-38
-0.34329194 0.13868308 0.95475 1.7601084e-38
-0.34329194 0.14118308 0.95475 1.7506011e-38
-0.34579197 0.14368309 0.95475 1.1703805e-38
-0.34579197 0.14618309 0.95475 1.1428662e-38
-0.34329194 0.14368309 0.95475 1.2623615e-38
-0.34329194 0.14618309 0.95475 1.1428662e-38
-0.35079196 0.14868309 0.93975002 1.1708479e-38
-0.35079196 0.14868309 0.94225001 1.1612667e-38
-0.35079196 0.15118308 0.93975002 1.1704863e-38
-0.34829196 0.14868309 0.93975002 1.1614835e-38
-0.34829196 0.14868309 0.94225001 9.7687543e-39
-0.34829196 0.15118308 0.93975002 9.9553147e-39
-0.34829196 0.15118308 0.94225001 9.2177483e-39
-0.34829196 0.14868309 0.94475001 9.7698683e-39
-0.34829196 0.14868309 0.94725001 1.0227251e-38
-0.34829196 0.15118308 0.94475001 1.0410916e-38
-0.34829196 0.15368308 0.93975002 9.7730717e-39
-0.34579197 0.14868309 0.94225001 1.0227254e-38
-0.34579197 0.15118308 0.93975002 8.6649627e-39
-0.34579197 0.15118308 0.94225001 1.0229421e-38
-0.34579197 0.15118308 0.94475001 1.1517264e-38
-0.34579197 0.15368308 0.93975002 1.0415936e-38
-0.34829196 0.14868309 0.94975001 1.1704863e-38
-0.36079195 0.15868309 0.91975003 1.2534292e-38
-0.36079195 0.15868309 0.92225003 1.4378944e-38
-0.35829195 0.15868309 0.91975003 1.5485273e-38
-0.35329196 0.15868309 0.92475003 1.3362971e-38
-0.35329196 0.15868309 0.92725003 1.0783282e-38
-0.35079196 0.15868309 0.92225003 9.3989124e-39
-0.35079196 0.16118309 0.92225003 8.2968864e-39
-0.34829196 0.15868309 0.91975003 9.1241051e-39
-0.34829196 0.15868309 0.92225003 8.7553408e-39
-0.34829196 0.16118309 0.91975003 1.1426147e-38
-0.34829196 0.16118309 0.92225003 9.2170477e-39
-0.35079196 0.15868309 0.92475003 1.0873689e-38
-0.35079196 0.15868309 0.92725003 9.4028752e-39
-0.34829196 0.15868309 0.92475003 1.0415222e-38
-0.34829196 0.15868309 0.92725003 9.9535547e-39
-0.34579197 0.15868309 0.91975003 1.0691449e-38
-0.34579197 0.15868309 0.92225003 1.0507784e-38
-0.34579197 0.16118309 0.91975003 1.2811246e-38
-0.34579197 0.16118309 0.92225003 1.2995599e-38
-0.34329194 0.15868309 0.91975003 1.0970914e-38
-0.34329194 0.15868309 0.92225003 1.2626488e-38
-0.34329194 0.16118309 0.91975003 1.3088151e-38
-0.34579197 0.15868309 0.92475003 1.1887122e-38
-0.34579197 0.15868309 0.92725003 1.1983299e-38
-0.34329194 0.15868309 0.92475003 1.2535346e-38
-0.34329194 0.15868309 0.92725003 1.2627934e-38
-0.34079194 0.13868308 0.95475 1.7878392e-38
-0.34079194 0.14118308 0.95475 1.8614144e-38
-0.36079195 0.13868308 0.95975006 1.1153153e-38
-0.36079195 0.14118308 0.95975006 9.8634877e-39
-0.35829195 0.13868308 0.95975006 1.1427216e-38
-0.35829195 0.14118308 0.95975006 1.3550239e-38
-0.35829195 0.14368309 0.95975006 1.917058e-38
-0.35579196 0.14118308 0.95975006 1.6859238e-38
-0.35329196 0.14118308 0.95975006 1.9902054e-38
-0.35579196 0.14368309 0.95975006 1.9997469e-38
-0.35329196 0.14368309 0.95975006 1.8522339e-38
-0.34329194 0.13868308 0.95975006 1.7603235e-38
-0.34329194 0.14118308 0.95975006 1.7140093e-38
-0.34579197 0.14368309 0.95975006 1.2346674e-38
-0.34329194 0.14368309 0.95975006 1.2806928e-38
-0.34329194 0.14368309 0.96225005 1.7140809e-38
-0.34079194 0.13868308 0.95975006 1.8523762e-38
-0.34079194 0.13868308 0.96225005 1.8431551e-38
-0.34079194 0.14118308 0.96225005 1.8982201e-38
-0.36829194 0.17868309 0.88725001 1.3733518e-38
-0.36579195 0.17868309 0.88475001 1.3274004e-38
-0.36579195 0.17868309 0.88725001 1.2812669e-38
-0.36329195 0.17868309 0.88725001 1.3089609e-38
-0.36079195 0.17868309 0.88725001 1.1426495e-38
