# .PCD v0.7 - Point Cloud Data file format
VERSION 0.7
FIELDS x y z rgb
SIZE 4 4 4 4
TYPE F F F F
COUNT 1 1 1 1
WIDTH 791
HEIGHT 1
VIEWPOINT 0 0 0 1 0 0 0
POINTS 791
DATA ascii
0.19831319 0.18692049 0.83925003 7.3716875e-39
0.20081319 0.18692049 0.83675003 0
0.20081319 0.18692049 0.83925003 0
0.20331319 0.18692049 0.83675003 4.2038954e-45
0.18581319 0.14442049 0.90675002 1.9164835e-38
0.18581319 0.14692049 0.90675002 1.8981832e-38
0.18581319 0.14692049 0.90925008 1.7413436e-38
0.18831319 0.14442049 0.90675002 1.8707412e-38
0.18831319 0.14692049 0.90675002 1.8892171e-38
0.18831319 0.14692049 0.90925008 1.9259864e-38
0.19081318 0.14442049 0.90675002 2.092046e-38
0.19081318 0.14692049 0.90675002 2.1197788e-38
0.19081318 0.14692049 0.90925008 2.1012307e-38
0.19331318 0.14442049 0.90675002 2.1288884e-38
0.19331318 0.14442049 0.90925008 1.8613774e-38
0.19331318 0.14692049 0.90675002 2.1843157e-38
0.19331318 0.14692049 0.90925008 2.1104515e-38
0.18831319 0.14692049 0.91175008 1.9532503e-38
0.19081318 0.14692049 0.91175008 2.1011579e-38
0.19081318 0.14692049 0.91425008 1.8430829e-38
0.19331318 0.14442049 0.91175008 1.8521225e-38
0.19331318 0.14692049 0.91175008 2.2117949e-38
0.19581319 0.14442049 0.90925008 1.8429398e-38
0.19581319 0.14692049 0.90925008 1.9813431e-38
0.19831319 0.14692049 0.90925008 1.7142254e-38
0.19581319 0.14442049 0.91175008 1.8613791e-38
0.19581319 0.14692049 0.91175008 2.2671497e-38
0.19831319 0.14692049 0.91175008 1.6224263e-38
0.20081319 0.14692049 0.91175008 1.7695427e-38
0.18331319 0.17692049 0.85925007 1.2629722e-38
0.18331319 0.18692049 0.84175003 1.2447859e-38
0.18331319 0.18692049 0.84425002 1.2170912e-38
0.18081319 0.18442048 0.84675008 1.364425e-38
0.18081319 0.18692049 0.84675008 1.3458767e-38
0.18331319 0.18442048 0.84675008 1.2630098e-38
0.18331319 0.18442048 0.84925008 1.2629019e-38
0.18331319 0.18692049 0.84675008 1.3271855e-38
0.18331319 0.18692049 0.84925008 1.2996728e-38
0.18331319 0.17942049 0.85675007 1.2353864e-38
0.18331319 0.17942049 0.85925007 1.3459821e-38
0.18331319 0.18192048 0.85675007 1.3458767e-38
0.18331319 0.18192048 0.85925007 1.3643489e-38
0.18331319 0.18692049 0.85175008 1.2906316e-38
0.18331319 0.18692049 0.85425007 1.3367293e-38
0.18331319 0.18442048 0.85675007 1.3642451e-38
0.18331319 0.18442048 0.85925007 1.4196657e-38
0.18331319 0.18692049 0.85675007 1.4011943e-38
0.18331319 0.18692049 0.85925007 1.4103408e-38
0.18581319 0.17692049 0.85925007 1.2445341e-38
0.18581319 0.18692049 0.84175003 1.2355662e-38
0.18581319 0.18692049 0.84425002 1.2629369e-38
0.18831319 0.18692049 0.84425002 1.180069e-38
0.18581319 0.18442048 0.84675008 1.2261668e-38
0.18581319 0.18442048 0.84925008 1.2352792e-38
0.18581319 0.18692049 0.84675008 1.2445338e-38
0.18581319 0.18692049 0.84925008 1.2353858e-38
0.18831319 0.18692049 0.84675008 1.097093e-38
0.18831319 0.18692049 0.84925008 1.1339366e-38
0.19081318 0.18692049 0.84425002 8.761124e-39
0.19331318 0.18692049 0.84425002 9.2203057e-39
0.19081318 0.18692049 0.84675008 1.0511044e-38
0.19081318 0.18692049 0.84925008 1.0048277e-38
0.19331318 0.18692049 0.84675008 9.12811e-39
0.19331318 0.18692049 0.84925008 8.9451663e-39
0.18581319 0.17942049 0.85675007 1.1986521e-38
0.18581319 0.17942049 0.85925007 1.2169114e-38
0.18581319 0.18192048 0.85675007 1.2536811e-38
0.18581319 0.18192048 0.85925007 1.1986173e-38
0.18831319 0.17942049 0.85675007 1.1433347e-38
0.18831319 0.17942049 0.85925007 1.1433347e-38
0.18831319 0.18192048 0.85675007 1.1155674e-38
0.18831319 0.18192048 0.85925007 1.0787978e-38
0.18581319 0.18442048 0.85425007 1.2446413e-38
0.18581319 0.18692049 0.85175008 1.2078716e-38
0.18581319 0.18692049 0.85425007 1.2721205e-38
0.18831319 0.18442048 0.85425007 1.1708492e-38
0.18831319 0.18692049 0.85175008 1.1618097e-38
0.18831319 0.18692049 0.85425007 1.0879826e-38
0.18581319 0.18442048 0.85675007 1.2353861e-38
0.18581319 0.18442048 0.85925007 1.3643154e-38
0.18581319 0.18692049 0.85675007 1.281305e-38
0.18831319 0.18442048 0.85675007 1.1616296e-38
0.18831319 0.18442048 0.85925007 1.115712e-38
0.18831319 0.18692049 0.85675007 1.1523024e-38
0.19081318 0.18192048 0.85675007 9.035913e-39
0.19081318 0.18192048 0.85925007 1.0511763e-38
0.19331318 0.18192048 0.85675007 9.1288149e-39
0.19331318 0.18192048 0.85925007 8.6682095e-39
0.19081318 0.18442048 0.85425007 1.0509949e-38
0.19081318 0.18692049 0.85175008 1.0326652e-38
0.19081318 0.18692049 0.85425007 1.0234456e-38
0.19331318 0.18692049 0.85175008 8.7593261e-39
0.19331318 0.18692049 0.85425007 1.0048627e-38
0.19081318 0.18442048 0.85675007 1.0509598e-38
0.19081318 0.18442048 0.85925007 1.0972725e-38
0.19081318 0.18692049 0.85675007 1.0327358e-38
0.19331318 0.18442048 0.85675007 1.0235552e-38
0.19331318 0.18442048 0.85925007 9.4025277e-39
0.19331318 0.18692049 0.85675007 9.9560771e-39
0.18331319 0.17692049 0.86175007 1.2536092e-38
0.18331319 0.17692049 0.86425006 1.2811965e-38
0.18081319 0.17442049 0.87425005 1.2350246e-38
0.18331319 0.17442049 0.87175006 1.2447153e-38
0.18331319 0.17442049 0.87425005 1.3550587e-38
0.18331319 0.17692049 0.87175006 1.3826828e-38
0.18331319 0.17692049 0.87425005 1.4472196e-38
0.18331319 0.17442049 0.87675005 1.355094e-38
0.18331319 0.17442049 0.87925005 1.3459095e-38
0.18331319 0.17692049 0.87675005 1.4472919e-38
0.18331319 0.17692049 0.87925005 1.355059e-38
0.18331319 0.17942049 0.86175007 1.2630801e-38
0.18331319 0.17942049 0.86425006 1.2906316e-38
0.18331319 0.18192048 0.86175007 1.355094e-38
0.18331319 0.18192048 0.86425006 1.3458391e-38
0.18331319 0.17942049 0.86675006 1.3276171e-38
0.18331319 0.18192048 0.86675006 1.2721908e-38
0.18331319 0.18442048 0.86175007 1.4196294e-38
0.18331319 0.18442048 0.86425006 1.4288155e-38
0.18331319 0.18692049 0.86175007 1.4380348e-38
0.18331319 0.18442048 0.86675006 1.2444958e-38
0.18331319 0.18442048 0.86925006 1.2536788e-38
0.18331319 0.17942049 0.87175006 1.4102704e-38
0.18331319 0.17942049 0.87425005 1.4378534e-38
0.18331319 0.17942049 0.87675005 1.4196312e-38
0.18331319 0.17942049 0.87925005 1.4472919e-38
0.18581319 0.17692049 0.86175007 1.198438e-38
0.18581319 0.17692049 0.86425006 1.2445341e-38
0.18831319 0.17692049 0.86425006 1.2168394e-38
0.18581319 0.17692049 0.86675006 1.2078722e-38
0.18581319 0.17692049 0.86925006 1.2260962e-38
0.18831319 0.17692049 0.86675006 1.1340798e-38
0.18831319 0.17692049 0.86925006 1.1523397e-38
0.19081318 0.17692049 0.86425006 9.7716802e-39
0.19331318 0.17692049 0.86425006 9.8663841e-39
0.19081318 0.17692049 0.86675006 1.0231567e-38
0.19081318 0.17692049 0.86925006 1.0231939e-38
0.19331318 0.17692049 0.86675006 1.1062406e-38
0.19331318 0.17692049 0.86925006 1.1156414e-38
0.18581319 0.17442049 0.87175006 1.2170564e-38
0.18581319 0.17442049 0.87425005 1.2078013e-38
0.18581319 0.17692049 0.87175006 1.3181458e-38
0.18581319 0.17692049 0.87425005 1.26283e-38
0.18831319 0.17442049 0.87175006 1.115712e-38
0.18831319 0.17442049 0.87425005 1.106457e-38
0.18831319 0.17692049 0.87175006 1.1615946e-38
0.18831319 0.17692049 0.87425005 1.216912e-38
0.18581319 0.17442049 0.87675005 1.2167695e-38
0.18581319 0.17442049 0.87925005 1.2630807e-38
0.18581319 0.17692049 0.87675005 1.2537549e-38
0.18581319 0.17692049 0.87925005 1.2630451e-38
0.18831319 0.17442049 0.87925005 1.1525548e-38
0.18831319 0.17692049 0.87675005 1.2260596e-38
0.18831319 0.17692049 0.87925005 1.1525195e-38
0.19081318 0.17442049 0.87175006 1.124681e-38
0.19081318 0.17442049 0.87425005 1.078763e-38
0.19081318 0.17692049 0.87175006 8.5763768e-39
0.19081318 0.17692049 0.87425005 1.1247163e-38
0.19331318 0.17442049 0.87175006 9.0366193e-39
0.19331318 0.17442049 0.87425005 8.5745859e-39
0.19331318 0.17692049 0.87175006 8.9437174e-39
0.19331318 0.17692049 0.87425005 9.3110608e-39
0.19081318 0.17442049 0.87925005 1.1339366e-38
0.19081318 0.17692049 0.87675005 1.0695078e-38
0.19081318 0.17692049 0.87925005 1.1430476e-38
0.19331318 0.17442049 0.87925005 8.9430139e-39
0.19331318 0.17692049 0.87675005 9.1281128e-39
0.19331318 0.17692049 0.87925005 1.078763e-38
0.18581319 0.17942049 0.86175007 1.1986173e-38
0.18581319 0.17942049 0.86425006 1.180249e-38
0.18581319 0.18192048 0.86175007 1.1984382e-38
0.18581319 0.18192048 0.86425006 1.2630098e-38
0.18831319 0.17942049 0.86175007 1.1618094e-38
0.18831319 0.17942049 0.86425006 1.180249e-38
0.18831319 0.18192048 0.86175007 1.1433353e-38
0.18831319 0.18192048 0.86425006 1.2445707e-38
0.18581319 0.17942049 0.86675006 1.2445338e-38
0.18581319 0.17942049 0.86925006 1.2353145e-38
0.18831319 0.17942049 0.86675006 1.1433353e-38
0.18831319 0.17942049 0.86925006 1.1799971e-38
0.18581319 0.18442048 0.86175007 1.2812694e-38
0.18581319 0.18442048 0.86425006 1.3459486e-38
0.18581319 0.18692049 0.86175007 1.4011943e-38
0.18831319 0.18442048 0.86175007 1.1892533e-38
0.18831319 0.18442048 0.86425006 1.2629003e-38
0.18581319 0.18442048 0.86675006 1.3643534e-38
0.19081318 0.17942049 0.86175007 9.4958318e-39
0.19081318 0.17942049 0.86425006 9.8638814e-39
0.19081318 0.18192048 0.86175007 1.0326652e-38
0.19081318 0.18192048 0.86425006 1.0419201e-38
0.19331318 0.17942049 0.86175007 9.4961849e-39
0.19331318 0.17942049 0.86425006 9.6791314e-39
0.19331318 0.18192048 0.86175007 9.129168e-39
0.19331318 0.18192048 0.86425006 8.9430167e-39
0.19081318 0.17942049 0.86675006 1.0419201e-38
0.19081318 0.17942049 0.86925006 1.0972021e-38
0.19331318 0.17942049 0.86675006 1.0051159e-38
0.19331318 0.17942049 0.86925006 1.0046838e-38
0.19081318 0.18442048 0.86175007 1.152375e-38
0.19331318 0.18442048 0.86175007 9.0366165e-39
0.18581319 0.17942049 0.87175006 1.3088911e-38
0.18581319 0.17942049 0.87425005 1.3178956e-38
0.18831319 0.17942049 0.87175006 1.2168399e-38
0.18831319 0.17942049 0.87425005 1.170959e-38
0.18581319 0.17942049 0.87675005 1.2811612e-38
0.18831319 0.17942049 0.87675005 1.2353145e-38
0.18831319 0.17942049 0.87925005 1.2169114e-38
0.19081318 0.17942049 0.87175006 1.1339359e-38
0.19331318 0.17942049 0.87175006 9.9564246e-39
0.19831319 0.17692049 0.85675007 8.4845539e-39
0.20081319 0.17692049 0.85675007 0
0.20081319 0.17692049 0.85925007 0
0.19831319 0.18192048 0.84925008 8.4813099e-39
0.19831319 0.18442048 0.84425002 7.6573142e-39
0.19831319 0.18692049 0.84175003 1.2539354e-38
0.19831319 0.18692049 0.84425002 1.2813769e-38
0.19581319 0.18442048 0.84675008 1.3458782e-38
0.19581319 0.18692049 0.84675008 1.2353498e-38
0.19581319 0.18692049 0.84925008 1.1618842e-38
0.19831319 0.18442048 0.84675008 1.3366587e-38
0.19831319 0.18442048 0.84925008 1.1247166e-38
0.19831319 0.18692049 0.84675008 1.3643884e-38
0.19831319 0.18692049 0.84925008 1.3552407e-38
0.20081319 0.18192048 0.84925008 3.502034e-39
0.20081319 0.18442048 0.84425002 1.5414283e-44
0.20081319 0.18692049 0.84175003 3.6917068e-40
0.20081319 0.18692049 0.84425002 5.5175146e-40
0.20331319 0.18692049 0.84425002 0
0.20081319 0.18442048 0.84675008 1.5414283e-44
0.20081319 0.18442048 0.84925008 6.6388336e-39
0.20081319 0.18692049 0.84675008 1.2630073e-38
0.19831319 0.17942049 0.85425007 1.1985464e-38
0.19831319 0.18192048 0.85175008 8.2054461e-39
0.19831319 0.18192048 0.85425007 1.3182924e-38
0.19581319 0.18192048 0.85675007 1.2353511e-38
0.19581319 0.18192048 0.85925007 1.2168767e-38
0.19831319 0.17942049 0.85675007 1.1801394e-38
0.19831319 0.17942049 0.85925007 1.3275467e-38
0.19831319 0.18192048 0.85675007 1.3552404e-38
0.19831319 0.18192048 0.85925007 1.3183272e-38
0.19581319 0.18442048 0.85175008 1.2724442e-38
0.19581319 0.18442048 0.85425007 1.2814837e-38
0.19581319 0.18692049 0.85175008 8.9451691e-39
0.19581319 0.18692049 0.85425007 9.4064934e-39
0.19831319 0.18442048 0.85175008 1.1154615e-38
0.19831319 0.18442048 0.85425007 1.3275473e-38
0.19831319 0.18692049 0.85175008 1.2908129e-38
0.19581319 0.18442048 0.85675007 1.1616293e-38
0.19581319 0.18442048 0.85925007 1.1430832e-38
0.19581319 0.18692049 0.85675007 1.0142608e-38
0.19831319 0.18442048 0.85675007 1.3460234e-38
0.20081319 0.17942049 0.85425007 3.9236357e-43
0.20081319 0.18192048 0.85175008 2.858831e-39
0.20081319 0.18192048 0.85425007 6.4522844e-39
0.20081319 0.17942049 0.85675007 0
0.20081319 0.17942049 0.85925007 0
0.20081319 0.18192048 0.85675007 2.6624671e-44
0.20081319 0.18192048 0.85925007 1.1528445e-38
0.20331319 0.17942049 0.85675007 0
0.20331319 0.18192048 0.85675007 0
0.20081319 0.18442048 0.85175008 7.3753001e-39
0.20081319 0.18442048 0.85425007 3.1328914e-39
0.20081319 0.18692049 0.85175008 8.3923583e-39
0.20081319 0.18442048 0.85675007 8.2075985e-39
0.20331319 0.18442048 0.85675007 2.8591814e-39
0.19581319 0.17692049 0.86425006 1.0972727e-38
0.19831319 0.17692049 0.86425006 1.1063122e-38
0.19581319 0.17692049 0.86675006 1.1618097e-38
0.19581319 0.17692049 0.86925006 1.1341527e-38
0.19831319 0.17692049 0.86925006 1.3000328e-38
0.20081319 0.17692049 0.86175007 0
0.20081319 0.17692049 0.86425006 6.9150604e-39
0.20081319 0.17442049 0.86675006 4.4841551e-44
0.20081319 0.17692049 0.86675006 2.3092292e-39
0.20081319 0.17692049 0.86925006 8.1136008e-39
0.20331319 0.17442049 0.86675006 3.9236357e-44
0.20331319 0.17692049 0.86675006 0
0.19831319 0.17192049 0.87425005 1.26283e-38
0.19581319 0.17192049 0.87925005 1.2907388e-38
0.19831319 0.1694205 0.87925005 1.3549536e-38
0.19831319 0.17192049 0.87675005 1.1705637e-38
0.19831319 0.17192049 0.87925005 1.3548827e-38
0.19581319 0.17442049 0.87175006 1.1525901e-38
0.19581319 0.17442049 0.87425005 1.1618091e-38
0.19581319 0.17692049 0.87175006 1.2537552e-38
0.19581319 0.17692049 0.87425005 1.1523397e-38
0.19831319 0.17442049 0.87175006 1.2262763e-38
0.19831319 0.17442049 0.87425005 1.2815581e-38
0.19831319 0.17692049 0.87175006 1.2815937e-38
0.19831319 0.17692049 0.87425005 1.244606e-38
0.19581319 0.17442049 0.87675005 1.1895069e-38
0.19581319 0.17442049 0.87925005 1.2170912e-38
0.19581319 0.17692049 0.87675005 1.2076201e-38
0.19581319 0.17692049 0.87925005 1.1892886e-38
0.19831319 0.17442049 0.87675005 1.281306e-38
0.19831319 0.17442049 0.87925005 1.2813416e-38
0.19831319 0.17692049 0.87675005 1.2629372e-38
0.20081319 0.1694205 0.87425005 5.1560609e-39
0.20081319 0.17192049 0.87425005 4.6090626e-39
0.20331319 0.17192049 0.87425005 7.1778977e-39
0.20081319 0.1694205 0.87675005 8.3825576e-39
0.20081319 0.1694205 0.87925005 1.0689326e-38
0.20081319 0.17192049 0.87675005 1.0597436e-38
0.20081319 0.17192049 0.87925005 1.2165892e-38
0.20331319 0.1694205 0.87675005 5.3401018e-39
0.20331319 0.1694205 0.87925005 5.2482565e-39
0.20331319 0.17192049 0.87675005 6.6330239e-39
0.20331319 0.17192049 0.87925005 7.9183172e-39
0.20081319 0.17442049 0.87175006 9.2941121e-41
0.20081319 0.17442049 0.87425005 0
0.20081319 0.17692049 0.87175006 6.2700469e-39
0.20331319 0.17442049 0.87175006 0
0.20331319 0.17442049 0.87425005 0
0.20331319 0.17692049 0.87175006 2.5818854e-39
0.20081319 0.17442049 0.87675005 1.0874788e-38
0.20331319 0.17442049 0.87675005 6.9931337e-39
0.20331319 0.17442049 0.87925005 0
0.19581319 0.17942049 0.86175007 1.2169858e-38
0.19581319 0.17942049 0.86425006 1.2813766e-38
0.19581319 0.18192048 0.86175007 1.1525896e-38
0.19581319 0.18192048 0.86425006 1.1711038e-38
0.19831319 0.17942049 0.86175007 1.2998161e-38
0.19831319 0.17942049 0.86425006 1.3274741e-38
0.19831319 0.18192048 0.86175007 1.2261315e-38
0.19831319 0.18192048 0.86425006 1.2906319e-38
0.19581319 0.17942049 0.86675006 1.2539351e-38
0.19581319 0.17942049 0.86925006 1.1341502e-38
0.19831319 0.17942049 0.86675006 1.3091426e-38
0.19831319 0.17942049 0.86925006 1.2446057e-38
0.20081319 0.17942049 0.86175007 1.1710993e-38
0.20081319 0.17942049 0.86425006 7.381086e-39
0.20081319 0.18192048 0.86175007 1.2079451e-38
0.20331319 0.17942049 0.86175007 0
0.20331319 0.18192048 0.86175007 0
0.20081319 0.17942049 0.86675006 6.2714903e-39
0.20081319 0.17942049 0.86925006 1.1155318e-38
0.20331319 0.17942049 0.87175006 3.225087e-39
0.20831318 0.17442049 0.86675006 0
0.20581318 0.17192049 0.87925005 9.3012657e-39
0.20581318 0.17442049 0.87425005 0
0.20581318 0.17442049 0.87675005 0
0.20581318 0.17442049 0.87925005 0
0.20581318 0.17692049 0.87925005 0
0.18081319 0.16192049 0.89675003 1.3826095e-38
0.18331319 0.16192049 0.89675003 1.3734278e-38
0.18081319 0.16442049 0.89425004 1.2812303e-38
0.18331319 0.16442049 0.89425004 1.3088908e-38
0.18331319 0.16692048 0.89175004 1.4103408e-38
0.18331319 0.16692048 0.89425004 1.3547716e-38
0.18081319 0.16442049 0.89675003 1.400831e-38
0.18081319 0.16692048 0.89675003 1.2256977e-38
0.18331319 0.16442049 0.89675003 1.3552407e-38
0.18331319 0.16692048 0.89675003 1.3089264e-38
0.18581319 0.16692048 0.88925004 1.2353496e-38
0.18831319 0.16692048 0.88925004 1.180069e-38
0.19081318 0.16692048 0.88925004 9.9557211e-39
0.19331318 0.16692048 0.88925004 9.5851183e-39
0.18581319 0.16192049 0.89675003 1.3088908e-38
0.18581319 0.16442049 0.89425004 1.2721921e-38
0.18581319 0.16692048 0.89175004 1.2537161e-38
0.18581319 0.16692048 0.89425004 1.2538253e-38
0.18831319 0.16692048 0.89175004 1.2260944e-38
0.18831319 0.16692048 0.89425004 1.1984003e-38
0.18581319 0.16442049 0.89675003 1.2445707e-38
0.18581319 0.16692048 0.89675003 1.3273657e-38
0.18831319 0.16442049 0.89675003 1.2261666e-38
0.18831319 0.16692048 0.89675003 1.1984e-38
0.19081318 0.16692048 0.89175004 1.0232305e-38
0.19081318 0.16692048 0.89425004 1.0785459e-38
0.19331318 0.16692048 0.89175004 8.9412007e-39
0.19331318 0.16692048 0.89425004 1.2806943e-38
0.19081318 0.16442049 0.89675003 1.0236255e-38
0.19081318 0.16692048 0.89675003 9.6801908e-39
0.19331318 0.16692048 0.89675003 1.2258076e-38
0.18331319 0.15192048 0.90925008 1.2167681e-38
0.18081319 0.15692049 0.90175003 1.20744e-38
0.18331319 0.15692049 0.90175003 1.3457335e-38
0.18331319 0.1544205 0.91675007 1.2260596e-38
0.18331319 0.15692049 0.91675007 1.281305e-38
0.18081319 0.15942049 0.90175003 1.2440642e-38
0.18331319 0.15942049 0.90175003 1.3823577e-38
0.18331319 0.16192049 0.90175003 1.3458419e-38
0.18331319 0.15942049 0.90675002 1.3547716e-38
0.18331319 0.15942049 0.90925008 1.3548069e-38
0.18331319 0.16192049 0.90675002 1.3274007e-38
0.18331319 0.16192049 0.90925008 1.3827547e-38
0.18081319 0.16442049 0.90175003 9.9542343e-39
0.18081319 0.16692048 0.90175003 1.041739e-38
0.18331319 0.16442049 0.90175003 1.345767e-38
0.18331319 0.16692048 0.90175003 1.1800325e-38
0.18331319 0.16442049 0.90925008 1.391935e-38
0.18581319 0.14942048 0.90675002 1.8523728e-38
0.18581319 0.14942048 0.90925008 1.5573108e-38
0.18581319 0.15192048 0.90925008 1.4649382e-38
0.18831319 0.14942048 0.90675002 1.9442475e-38
0.18831319 0.14942048 0.90925008 1.9626854e-38
0.18831319 0.15192048 0.90925008 1.335502e-38
0.18581319 0.1544205 0.90925008 1.281305e-38
0.18581319 0.15692049 0.90925008 1.26283e-38
0.18831319 0.1544205 0.90925008 1.0965525e-38
0.18831319 0.15692049 0.90925008 1.0783662e-38
0.19081318 0.14942048 0.90925008 2.1932115e-38
0.19081318 0.15192048 0.90925008 2.2390545e-38
0.19331318 0.14942048 0.90925008 2.211723e-38
0.19331318 0.15192048 0.90925008 2.2116877e-38
0.19081318 0.1544205 0.90925008 1.3731034e-38
0.19081318 0.15692049 0.90675002 1.6125578e-38
0.19081318 0.15692049 0.90925008 1.0783662e-38
0.19331318 0.1544205 0.90925008 1.7420273e-38
0.19331318 0.15692049 0.90675002 1.8985425e-38
0.19331318 0.15692049 0.90925008 1.6127366e-38
0.18581319 0.14942048 0.91175008 1.5112853e-38
0.18581319 0.14942048 0.91425008 1.4927394e-38
0.18581319 0.15192048 0.91175008 1.3084961e-38
0.18581319 0.15192048 0.91425008 1.4373514e-38
0.18831319 0.14942048 0.91175008 1.8799251e-38
0.18831319 0.14942048 0.91425008 1.8706703e-38
0.18831319 0.15192048 0.91175008 1.1425794e-38
0.18831319 0.15192048 0.91425008 1.67706e-38
0.18581319 0.15192048 0.91675007 1.2443188e-38
0.18831319 0.14942048 0.91675007 1.5019236e-38
0.18831319 0.15192048 0.91675007 1.4280965e-38
0.18831319 0.15192048 0.91925007 1.4556826e-38
0.18581319 0.1544205 0.91425008 1.2353145e-38
0.18581319 0.15692049 0.91175008 1.2720496e-38
0.18581319 0.15692049 0.91425008 1.3180402e-38
0.18831319 0.1544205 0.91175008 9.9553456e-39
0.18831319 0.1544205 0.91425008 1.0139737e-38
0.18831319 0.15692049 0.91175008 1.2075126e-38
0.18831319 0.15692049 0.91425008 1.1520879e-38
0.18581319 0.1544205 0.91675007 1.2721199e-38
0.18581319 0.1544205 0.91925007 1.2721205e-38
0.18581319 0.15692049 0.91675007 1.2813025e-38
0.18581319 0.15692049 0.91925007 1.3089612e-38
0.18831319 0.1544205 0.91675007 1.2629019e-38
0.18831319 0.1544205 0.91925007 1.2536104e-38
0.18831319 0.15692049 0.91675007 1.2812697e-38
0.18831319 0.15692049 0.91925007 1.2904167e-38
0.19081318 0.14942048 0.91175008 2.1840268e-38
0.19081318 0.14942048 0.91425008 1.9442472e-38
0.19081318 0.15192048 0.91175008 1.8797787e-38
0.19081318 0.15192048 0.91425008 1.833537e-38
0.19331318 0.14942048 0.91175008 2.2298745e-38
0.19331318 0.14942048 0.91425008 2.1932117e-38
0.19331318 0.15192048 0.91175008 1.9996022e-38
0.19331318 0.15192048 0.91425008 2.1934278e-38
0.19081318 0.1544205 0.91175008 1.704785e-38
0.19081318 0.1544205 0.91425008 1.3542636e-38
0.19081318 0.15692049 0.91175008 1.1060239e-38
0.19081318 0.15692049 0.91425008 1.0599607e-38
0.19331318 0.1544205 0.91175008 1.5761856e-38
0.19331318 0.1544205 0.91425008 1.9628315e-38
0.19331318 0.15692049 0.91175008 1.8616289e-38
0.19081318 0.1544205 0.91675007 1.326463e-38
0.18581319 0.16192049 0.90175003 1.3089278e-38
0.18831319 0.16192049 0.90175003 1.0048627e-38
0.18581319 0.15942049 0.90675002 1.2629372e-38
0.18581319 0.15942049 0.90925008 1.3181108e-38
0.18581319 0.16192049 0.90675002 1.299671e-38
0.18581319 0.16192049 0.90925008 1.3733927e-38
0.18831319 0.15942049 0.90675002 1.1615596e-38
0.18831319 0.15942049 0.90925008 1.2996715e-38
0.18831319 0.16192049 0.90675002 1.2260962e-38
0.18831319 0.16192049 0.90925008 1.3365868e-38
0.18581319 0.16442049 0.90175003 1.3089631e-38
0.18831319 0.16442049 0.90175003 1.1708142e-38
0.18831319 0.16692048 0.90175003 1.2353511e-38
0.18581319 0.16442049 0.90675002 1.2996728e-38
0.18581319 0.16442049 0.90925008 1.3458066e-38
0.18831319 0.16442049 0.90675002 1.1709939e-38
0.18831319 0.16442049 0.90925008 1.2996362e-38
0.19081318 0.16192049 0.90175003 1.0686414e-38
0.19331318 0.16192049 0.90175003 1.6951007e-38
0.19081318 0.15942049 0.90675002 1.1239896e-38
0.19081318 0.15942049 0.90925008 8.5731426e-39
0.19081318 0.16192049 0.90675002 1.0687483e-38
0.19331318 0.15942049 0.90675002 1.6863831e-38
0.19331318 0.15942049 0.90925008 1.8156034e-38
0.19331318 0.16192049 0.90675002 1.1977153e-38
0.19081318 0.16442049 0.90175003 8.1143042e-39
0.19081318 0.16692048 0.90175003 9.589793e-39
0.19331318 0.16442049 0.90175003 1.2158985e-38
0.19331318 0.16692048 0.90175003 1.1149187e-38
0.19081318 0.16442049 0.90675002 1.0784043e-38
0.18581319 0.15942049 0.91175008 1.3088911e-38
0.18581319 0.15942049 0.91425008 1.290487e-38
0.18581319 0.16192049 0.91175008 1.2997081e-38
0.18581319 0.16192049 0.91425008 1.3643507e-38
0.18831319 0.15942049 0.91175008 1.2628287e-38
0.18831319 0.15942049 0.91425008 1.2260944e-38
0.18831319 0.16192049 0.91175008 1.2170918e-38
0.18831319 0.15942049 0.91675007 1.2720496e-38
0.18581319 0.16442049 0.91175008 1.3458782e-38
0.18331319 0.1694205 0.88425004 1.4195253e-38
0.18331319 0.17192049 0.88425004 1.3643504e-38
0.18331319 0.1694205 0.88675004 1.391867e-38
0.18331319 0.1694205 0.88925004 1.3553444e-38
0.18331319 0.17192049 0.88675004 1.3552407e-38
0.18331319 0.17192049 0.88925004 1.3918649e-38
0.18331319 0.17442049 0.88175005 1.3091061e-38
0.18331319 0.17442049 0.88425004 1.3735703e-38
0.18331319 0.17692049 0.88175005 1.1524437e-38
0.18331319 0.17692049 0.88425004 1.2628638e-38
0.18331319 0.17442049 0.88675004 1.3827549e-38
0.18331319 0.17442049 0.88925004 1.2812316e-38
0.18081319 0.1694205 0.89175004 1.0971967e-38
0.18081319 0.1694205 0.89425004 1.0876561e-38
0.18081319 0.17192049 0.89175004 1.0323021e-38
0.18081319 0.17192049 0.89425004 9.309623e-39
0.18331319 0.1694205 0.89175004 1.4010123e-38
0.18331319 0.1694205 0.89425004 1.2074015e-38
0.18331319 0.17192049 0.89175004 1.4470006e-38
0.18331319 0.17192049 0.89425004 1.0691099e-38
0.18081319 0.1694205 0.89675003 1.1429031e-38
0.18081319 0.17192049 0.89675003 9.3099762e-39
0.18331319 0.1694205 0.89675003 1.2903067e-38
0.18331319 0.17192049 0.89675003 1.0968037e-38
0.18081319 0.17442049 0.89175004 1.0507784e-38
0.18331319 0.17442049 0.89175004 1.3181108e-38
0.18581319 0.1694205 0.88425004 1.2445341e-38
0.18581319 0.17192049 0.88175005 1.244606e-38
0.18581319 0.17192049 0.88425004 1.2353864e-38
0.18831319 0.1694205 0.88425004 1.1984728e-38
0.18831319 0.17192049 0.88175005 1.1983655e-38
0.18831319 0.17192049 0.88425004 1.1339712e-38
0.18581319 0.1694205 0.88675004 1.2812321e-38
0.18581319 0.1694205 0.88925004 1.2811612e-38
0.18581319 0.17192049 0.88675004 1.3273304e-38
0.18581319 0.17192049 0.88925004 1.41949e-38
0.18831319 0.1694205 0.88675004 1.180069e-38
0.18831319 0.1694205 0.88925004 1.1523745e-38
0.18831319 0.17192049 0.88675004 1.1433347e-38
0.18581319 0.17442049 0.88175005 1.3458391e-38
0.18581319 0.17442049 0.88425004 1.2170912e-38
0.18581319 0.17692049 0.88175005 1.3458389e-38
0.18581319 0.17692049 0.88425004 1.3550937e-38
0.18831319 0.17442049 0.88175005 1.1707788e-38
0.18831319 0.17442049 0.88425004 1.1618097e-38
0.18831319 0.17692049 0.88175005 1.1984734e-38
0.18581319 0.17442049 0.88675004 1.2999218e-38
0.18581319 0.17442049 0.88925004 1.2999218e-38
0.18831319 0.17442049 0.88675004 1.1525548e-38
0.19081318 0.1694205 0.88425004 1.0972727e-38
0.19081318 0.17192049 0.88425004 1.0878381e-38
0.19331318 0.1694205 0.88425004 9.403957e-39
0.19331318 0.17192049 0.88175005 9.7734851e-39
0.19331318 0.17192049 0.88425004 9.7734851e-39
0.19081318 0.1694205 0.88675004 1.1341507e-38
0.19081318 0.1694205 0.88925004 1.0328807e-38
0.19081318 0.17192049 0.88675004 1.1433347e-38
0.19331318 0.1694205 0.88675004 9.129168e-39
0.19331318 0.1694205 0.88925004 8.4844993e-39
0.19331318 0.17192049 0.88675004 9.6794719e-39
0.19331318 0.17192049 0.88925004 8.9437174e-39
0.19081318 0.17442049 0.88175005 1.0972374e-38
0.19081318 0.17442049 0.88425004 1.0880179e-38
0.19081318 0.17692049 0.88175005 1.1154615e-38
0.19081318 0.17692049 0.88425004 1.171029e-38
0.19331318 0.17442049 0.88175005 9.4965408e-39
0.19331318 0.17442049 0.88425004 1.0049712e-38
0.19331318 0.17692049 0.88175005 1.0972021e-38
0.19081318 0.17442049 0.88675004 1.1156767e-38
0.19331318 0.17442049 0.88675004 9.6809321e-39
0.18581319 0.1694205 0.89175004 1.3272951e-38
0.18581319 0.1694205 0.89425004 1.318253e-38
0.18581319 0.1694205 0.89675003 1.4102672e-38
0.19331318 0.1694205 0.89175004 8.5748998e-39
0.18081319 0.1694205 0.90175003 1.1426863e-38
0.18331319 0.1694205 0.90175003 1.234918e-38
0.19581319 0.16692048 0.88925004 1.2258792e-38
0.19831319 0.16692048 0.88925004 1.2258444e-38
0.20081319 0.16692048 0.88925004 1.3268258e-38
0.19581319 0.16192049 0.89675003 2.3131357e-38
0.19831319 0.16192049 0.89675003 2.2855879e-38
0.19581319 0.16692048 0.89175004 1.1614874e-38
0.19581319 0.16692048 0.89425004 1.391576e-38
0.19831319 0.16442049 0.89175004 1.6584786e-38
0.19831319 0.16442049 0.89425004 1.7966649e-38
0.19831319 0.16692048 0.89175004 1.2442835e-38
0.19831319 0.16692048 0.89425004 1.3639934e-38
0.19581319 0.16442049 0.89675003 2.1016275e-38
0.19581319 0.16692048 0.89675003 1.2537862e-38
0.19831319 0.16442049 0.89675003 2.3133187e-38
0.19831319 0.16692048 0.89675003 1.2630057e-38
0.20081319 0.16192049 0.89425004 1.8613398e-38
0.20331319 0.16192049 0.89425004 2.0088529e-38
0.20081319 0.16192049 0.89675003 1.8523043e-38
0.20331319 0.16192049 0.89675003 1.8243919e-38
0.20081319 0.16442049 0.89175004 1.5845754e-38
0.20081319 0.16442049 0.89425004 1.5753905e-38
0.20081319 0.16692048 0.89175004 1.4189107e-38
0.20331319 0.16442049 0.89425004 1.6030852e-38
0.20331319 0.16692048 0.89175004 1.3084226e-38
0.20331319 0.16692048 0.89425004 1.4281302e-38
0.20081319 0.16442049 0.89675003 1.8154983e-38
0.20081319 0.16692048 0.89675003 1.6397894e-38
0.20331319 0.16442049 0.89675003 1.8242468e-38
0.19581319 0.14942048 0.90925008 2.1933199e-38
0.19831319 0.14942048 0.90925008 1.8800353e-38
0.19581319 0.1544205 0.90925008 1.6957844e-38
0.19581319 0.15692049 0.90925008 1.6220645e-38
0.19831319 0.1544205 0.90925008 1.9352778e-38
0.19831319 0.15692049 0.90675002 1.8250749e-38
0.19831319 0.15692049 0.90925008 1.8893602e-38
0.20081319 0.15692049 0.90175003 1.6954623e-38
0.20081319 0.1544205 0.90675002 1.8612339e-38
0.20081319 0.1544205 0.90925008 1.8429045e-38
0.20081319 0.15692049 0.90675002 1.8615939e-38
0.20081319 0.15692049 0.90925008 1.7967349e-38
0.20331319 0.1544205 0.90675002 1.8428308e-38
0.20331319 0.1544205 0.90925008 1.8152818e-38
0.20331319 0.15692049 0.90675002 1.6864592e-38
0.20331319 0.15692049 0.90925008 1.7875152e-38
0.19581319 0.14942048 0.91175008 2.2855496e-38
0.19581319 0.14942048 0.91425008 2.3406534e-38
0.19581319 0.15192048 0.91175008 2.3501956e-38
0.19581319 0.15192048 0.91425008 2.3500884e-38
0.19831319 0.14942048 0.91175008 1.9074064e-38
0.19831319 0.15192048 0.91175008 2.0366231e-38
0.19581319 0.1544205 0.91425008 1.4743332e-38
0.19581319 0.15692049 0.91175008 1.6313181e-38
0.19581319 0.15692049 0.91425008 1.6496146e-38
0.19831319 0.1544205 0.91175008 2.0457684e-38
0.19831319 0.1544205 0.91425008 1.8431155e-38
0.19831319 0.15692049 0.91175008 1.7050746e-38
0.19831319 0.15692049 0.91425008 1.7327329e-38
0.19831319 0.1544205 0.91675007 1.4926644e-38
0.20081319 0.14942048 0.91175008 1.8152109e-38
0.20081319 0.14942048 0.91425008 1.7970216e-38
0.20081319 0.15192048 0.91175008 1.7601786e-38
0.20081319 0.15192048 0.91425008 1.8061339e-38
0.20331319 0.15192048 0.91175008 1.8521225e-38
0.20331319 0.15192048 0.91425008 1.8152437e-38
0.20081319 0.15192048 0.91675007 1.7877317e-38
0.20331319 0.15192048 0.91675007 1.8336834e-38
0.20081319 0.1544205 0.91175008 1.8337184e-38
0.20081319 0.1544205 0.91425008 1.8060222e-38
0.20081319 0.15692049 0.91175008 1.916911e-38
0.20331319 0.1544205 0.91175008 1.806062e-38
0.20331319 0.1544205 0.91425008 1.7968071e-38
0.20331319 0.15692049 0.91175008 1.8429395e-38
0.20081319 0.1544205 0.91675007 1.7876925e-38
0.20331319 0.1544205 0.91675007 1.7969143e-38
0.19581319 0.16192049 0.90175003 2.2855865e-38
0.19831319 0.15942049 0.90175003 2.2212271e-38
0.19831319 0.16192049 0.90175003 2.2948062e-38
0.19581319 0.15942049 0.90675002 1.7232654e-38
0.19581319 0.15942049 0.90925008 1.7510315e-38
0.19581319 0.16192049 0.90675002 1.7319072e-38
0.19831319 0.15942049 0.90675002 2.0092867e-38
0.19831319 0.16192049 0.90675002 2.2302668e-38
0.19581319 0.16442049 0.90175003 2.1290337e-38
0.19581319 0.16692048 0.90175003 1.5113614e-38
0.20081319 0.15942049 0.90175003 1.5942972e-38
0.20081319 0.16192049 0.90175003 1.5667108e-38
0.20331319 0.15942049 0.90175003 1.6310692e-38
0.20331319 0.16192049 0.90175003 1.7784011e-38
0.20081319 0.15942049 0.90675002 2.0276892e-38
0.20331319 0.15942049 0.90675002 1.5665676e-38
0.19581319 0.1694205 0.88425004 1.2538608e-38
0.19581319 0.17192049 0.88175005 1.1155671e-38
0.19581319 0.17192049 0.88425004 1.014191e-38
0.19831319 0.1694205 0.88175005 1.3457335e-38
0.19831319 0.1694205 0.88425004 1.3639215e-38
0.19831319 0.17192049 0.88175005 1.2906685e-38
0.19581319 0.1694205 0.88675004 1.1157473e-38
0.19581319 0.1694205 0.88925004 1.1065977e-38
0.19581319 0.17192049 0.88675004 1.2352065e-38
0.19581319 0.17192049 0.88925004 1.078763e-38
0.19831319 0.1694205 0.88675004 1.3089628e-38
0.19831319 0.1694205 0.88925004 1.2352439e-38
0.19831319 0.17192049 0.88675004 1.3181827e-38
0.19831319 0.17192049 0.88925004 1.2721205e-38
0.19581319 0.17442049 0.88175005 9.4039893e-39
0.19581319 0.17442049 0.88425004 1.060215e-38
0.19581319 0.17692049 0.88175005 9.129168e-39
0.19581319 0.17692049 0.88425004 9.496538e-39
0.19831319 0.17442049 0.88175005 1.1985467e-38
0.19581319 0.17442049 0.88675004 1.1154968e-38
0.20081319 0.1694205 0.88175005 8.1023301e-39
0.20081319 0.1694205 0.88425004 1.0043225e-38
0.20081319 0.17192049 0.88175005 8.3814604e-39
0.20331319 0.1694205 0.88425004 8.2856746e-39
0.20331319 0.17192049 0.88175005 5.9822244e-39
0.20081319 0.1694205 0.88675004 1.2902363e-38
0.20081319 0.1694205 0.88925004 1.0783662e-38
0.20331319 0.1694205 0.89175004 1.0785096e-38
0.20581318 0.17192049 0.88175005 8.1005729e-39
0.19331318 0.19192049 0.83925003 9.9560518e-39
0.19331318 0.19442049 0.83925003 6.5451737e-39
0.19581319 0.19192049 0.83425003 5.158579e-39
0.19831319 0.19192049 0.83425003 0
0.19581319 0.18942049 0.83925003 1.1241753e-38
0.19581319 0.19192049 0.83675003 6.1735171e-39
0.19581319 0.19192049 0.83925003 1.0230478e-38
0.19831319 0.18942049 0.83675003 6.0780494e-39
0.19831319 0.18942049 0.83925003 6.7216364e-39
0.19831319 0.19192049 0.83675003 0
0.19831319 0.19192049 0.83925003 3.1288907e-39
0.19581319 0.19442049 0.83925003 6.450104e-39
0.19581319 0.19692048 0.83925003 8.570944e-39
0.19831319 0.19442049 0.83925003 0
0.19831319 0.19692048 0.83925003 0
0.20081319 0.19192049 0.83425003 0
0.20331319 0.19192049 0.83425003 0
0.20081319 0.18942049 0.83675003 1.8381449e-39
0.20081319 0.18942049 0.83925003 1.7455919e-39
0.20081319 0.19192049 0.83675003 1.2856969e-39
0.20081319 0.19192049 0.83925003 0
0.20331319 0.18942049 0.83675003 0
0.20331319 0.18942049 0.83925003 0
0.20331319 0.19192049 0.83675003 0
0.20331319 0.19192049 0.83925003 0
0.20081319 0.19442049 0.83675003 0
0.20081319 0.19442049 0.83925003 0
0.20081319 0.19692048 0.83925003 0
0.20331319 0.19442049 0.83925003 0
0.20331319 0.19692048 0.83925003 0
0.20581318 0.18942049 0.83925003 4.2038954e-45
0.20581318 0.19192049 0.83925003 0
0.18331319 0.18942049 0.84175003 1.5390164e-38
0.18331319 0.18942049 0.84425002 1.548094e-38
0.18331319 0.19192049 0.84175003 1.4559334e-38
0.18331319 0.19192049 0.84425002 1.5112502e-38
0.18331319 0.18942049 0.84675008 1.4747315e-38
0.18331319 0.18942049 0.84925008 1.318181e-38
0.18331319 0.19442049 0.84175003 1.0686783e-38
0.18331319 0.19442049 0.84425002 1.0869023e-38
0.18331319 0.19692048 0.84175003 8.9404425e-39
0.18331319 0.18942049 0.85175008 1.3089261e-38
0.18331319 0.18942049 0.85675007 1.3273316e-38
0.18581319 0.18942049 0.84175003 1.4926687e-38
0.18581319 0.18942049 0.84425002 1.4282037e-38
0.18581319 0.19192049 0.84175003 1.2352047e-38
0.18581319 0.19192049 0.84425002 1.3361144e-38
0.18831319 0.18942049 0.84425002 1.1612328e-38
0.18831319 0.19192049 0.84175003 1.1614482e-38
0.18831319 0.19192049 0.84425002 1.115421e-38
0.18581319 0.18942049 0.84675008 1.4100887e-38
0.18581319 0.18942049 0.84925008 1.2721568e-38
0.18581319 0.19192049 0.84675008 1.4376034e-38
0.18831319 0.18942049 0.84675008 1.1246072e-38
0.18831319 0.18942049 0.84925008 1.1525898e-38
0.18831319 0.19192049 0.84675008 1.1154224e-38
0.18581319 0.19442049 0.84175003 1.2074021e-38
0.18581319 0.19442049 0.84425002 1.2531065e-38
0.18581319 0.19692048 0.84175003 1.2440295e-38
0.18831319 0.19442049 0.84175003 1.1889271e-38
0.18831319 0.19442049 0.84425002 1.2625744e-38
0.18831319 0.19692048 0.84175003 1.2071514e-38
0.19081318 0.18942049 0.84175003 9.8645821e-39
0.19081318 0.18942049 0.84425002 1.014009e-38
0.19081318 0.19192049 0.84175003 1.078581e-38
0.19081318 0.19192049 0.84425002 1.0601421e-38
0.19331318 0.18942049 0.84175003 1.2900924e-38
0.19331318 0.18942049 0.84425002 9.9535575e-39
0.19331318 0.19192049 0.84175003 1.0691099e-38
0.19331318 0.19192049 0.84425002 1.0418109e-38
0.19081318 0.18942049 0.84675008 1.0236255e-38
0.19081318 0.18942049 0.84925008 1.0511751e-38
0.19331318 0.18942049 0.84675008 9.4961849e-39
0.19081318 0.19442049 0.84175003 1.0967687e-38
0.19081318 0.19442049 0.84425002 1.0691099e-38
0.19081318 0.19692048 0.84175003 1.0229014e-38
0.19331318 0.19442049 0.84175003 6.8192326e-39
0.19331318 0.19442049 0.84425002 1.0048245e-38
0.19331318 0.19692048 0.84175003 6.634491e-39
0.18581319 0.18942049 0.85175008 1.2538255e-38
0.18581319 0.18942049 0.85425007 1.2906319e-38
0.18831319 0.18942049 0.85175008 1.391793e-38
0.19581319 0.18942049 0.84175003 1.2995262e-38
0.19581319 0.18942049 0.84425002 1.179747e-38
0.19581319 0.19192049 0.84175003 1.0871523e-38
0.19581319 0.19192049 0.84425002 1.0781128e-38
0.19831319 0.18942049 0.84175003 1.5663902e-38
0.19831319 0.18942049 0.84425002 1.4285637e-38
0.19831319 0.19192049 0.84175003 1.1702005e-38
0.19581319 0.18942049 0.84925008 1.1710293e-38
0.19581319 0.19442049 0.84175003 6.5415583e-39
0.19581319 0.19692048 0.84175003 5.8075792e-39
0.19831319 0.19442049 0.84175003 5.0656771e-39
0.19831319 0.19692048 0.84175003 3.3183e-39
0.20081319 0.18942049 0.84175003 4.4156372e-39
0.20081319 0.18942049 0.84425002 7.5557299e-39
0.20081319 0.19192049 0.84175003 6.5386618e-39
0.20331319 0.18942049 0.84175003 6.4284847e-40
0.20331319 0.18942049 0.84425002 1.4012985e-44
0.20331319 0.19192049 0.84175003 0
0.20081319 0.19442049 0.84175003 0
0.20081319 0.19692048 0.84175003 0
0.18581319 0.15692049 0.92175007 1.2996362e-38
0.18831319 0.15692049 0.92175007 1.2629006e-38
