# .PCD v0.7 - Point Cloud Data file format
VERSION 0.7
FIELDS x y z rgb
SIZE 4 4 4 4
TYPE F F F F
COUNT 1 1 1 1
WIDTH 1061
HEIGHT 1
VIEWPOINT 0 0 0 1 0 0 0
POINTS 1061
DATA ascii
-0.016262623 0.13092844 0.82375002 2.3016636e-39
-0.016262623 0.13342844 0.82125002 0
-0.013762622 0.13342844 0.82125002 0
-0.016262623 0.13342844 0.82375002 2.3016636e-39
-0.016262623 0.13592844 0.82375002 0
-0.013762622 0.13342844 0.82375002 0
-0.013762622 0.13592844 0.82375002 0
-0.011262623 0.12842844 0.81875002 1.9629371e-38
-0.011262623 0.12842844 0.82125002 1.5114318e-38
-0.011262623 0.13092844 0.81875002 1.9536822e-38
-0.011262623 0.13092844 0.82125002 1.4745537e-38
-0.0087626223 0.12842844 0.81875002 1.9628666e-38
-0.0087626223 0.12842844 0.82125002 1.9537189e-38
-0.0087626223 0.13092844 0.81875002 1.9443551e-38
-0.0087626223 0.13092844 0.82125002 1.9443905e-38
-0.011262623 0.13342844 0.81875002 1.9443905e-38
-0.011262623 0.13342844 0.82125002 1.9444626e-38
-0.011262623 0.13592844 0.81875002 1.9629015e-38
-0.011262623 0.13592844 0.82125002 1.4745537e-38
-0.0087626223 0.13342844 0.81875002 1.9444273e-38
-0.0087626223 0.13342844 0.82125002 2.045878e-38
-0.0087626223 0.13592844 0.81875002 1.9813766e-38
-0.011262623 0.13592844 0.82375002 1.9261674e-38
-0.0087626223 0.13592844 0.82375002 1.9446779e-38
-0.016262623 0.13842843 0.82375002 0
-0.016262623 0.13842843 0.82625002 0
-0.016262623 0.14092843 0.82375002 2.1176324e-39
-0.016262623 0.14092843 0.82625002 0
-0.013762622 0.13842843 0.82375002 0
-0.013762622 0.13842843 0.82625002 0
-0.013762622 0.14092843 0.82375002 0
-0.013762622 0.14092843 0.82625002 0
-0.016262623 0.14342843 0.82625002 2.3938592e-39
-0.016262623 0.14592844 0.82625002 0
-0.013762622 0.14342843 0.82625002 0
-0.011262623 0.13842843 0.82375002 1.3552035e-38
-0.011262623 0.13842843 0.82625002 1.8986163e-38
-0.011262623 0.14092843 0.82375002 1.3736427e-38
-0.011262623 0.14092843 0.82625002 1.3644232e-38
-0.011262623 0.14342843 0.82625002 1.4474714e-38
-0.016262623 0.14092843 0.82875001 0
-0.013762622 0.14092843 0.82875001 0
-0.016262623 0.14342843 0.82875001 0
-0.016262623 0.14592844 0.82875001 0
-0.016262623 0.14592844 0.83125001 0
-0.013762622 0.14342843 0.82875001 0
-0.013762622 0.14342843 0.83125001 0
-0.013762622 0.14592844 0.83125001 0
-0.013762622 0.14592844 0.83375001 8.2651947e-40
-0.011262623 0.14092843 0.82875001 1.8801422e-38
-0.011262623 0.14092843 0.83125001 1.8708859e-38
-0.011262623 0.14342843 0.82875001 1.4658382e-38
-0.011262623 0.14342843 0.83125001 1.4474714e-38
-0.011262623 0.14592844 0.83125001 1.6866395e-38
-0.011262623 0.14342843 0.83375001 1.447507e-38
-0.011262623 0.14592844 0.83375001 1.5949121e-38
-0.046262622 0.14842844 0.81375003 5.5295672e-39
-0.046262622 0.14842844 0.81625003 5.3448298e-39
-0.046262622 0.15092844 0.81625003 5.1582861e-39
-0.043762624 0.14842844 0.81375003 2.7626067e-39
-0.043762624 0.15092844 0.81625003 3.2246947e-39
-0.046262622 0.15342844 0.81625003 5.5284812e-39
-0.043762624 0.15342844 0.81625003 3.4991179e-39
-0.041262623 0.14842844 0.81375003 7.258726e-43
-0.041262623 0.15092844 0.81375003 1.9618179e-44
-0.041262623 0.15092844 0.81625003 1.8410441e-39
-0.038762622 0.14842844 0.81375003 5.5747717e-40
-0.038762622 0.15092844 0.81375003 1.1981929e-39
-0.038762622 0.15092844 0.81625003 4.6097815e-40
-0.041262623 0.15342844 0.81375003 2.7623797e-40
-0.041262623 0.15342844 0.81625003 4.2038954e-45
-0.041262623 0.15592843 0.81625003 6.4287089e-40
-0.038762622 0.15342844 0.81375003 1.6570004e-39
-0.038762622 0.15342844 0.81625003 1.1981929e-39
-0.038762622 0.15592843 0.81625003 1.749196e-39
-0.036262624 0.14842844 0.81375003 1.6562941e-39
-0.036262624 0.15092844 0.81375003 1.6566445e-39
-0.036262624 0.15092844 0.81625003 1.7491988e-39
-0.033762623 0.14842844 0.81375003 1.6562941e-39
-0.033762623 0.15092844 0.81375003 1.4726133e-39
-0.033762623 0.15092844 0.81625003 1.4726133e-39
-0.036262624 0.15342844 0.81375003 1.4726133e-39
-0.036262624 0.15342844 0.81625003 1.841742e-39
-0.036262624 0.15592843 0.81625003 1.7491988e-39
-0.033762623 0.15342844 0.81375003 1.6566445e-39
-0.033762623 0.15342844 0.81625003 1.841742e-39
-0.033762623 0.15592843 0.81625003 1.1985432e-39
-0.028762622 0.14842844 0.81125003 0
-0.028762622 0.15092844 0.81125003 0
-0.031262621 0.14842844 0.81375003 5.6051939e-45
-0.031262621 0.15092844 0.81375003 1.8439126e-40
-0.028762622 0.14842844 0.81375003 0
-0.028762622 0.14842844 0.81625003 0
-0.028762622 0.15092844 0.81375003 0
-0.028762622 0.15092844 0.81625003 0
-0.031262621 0.15342844 0.81375003 0
-0.031262621 0.15342844 0.81625003 8.279544e-40
-0.031262621 0.15592843 0.81625003 5.5317378e-40
-0.028762622 0.15342844 0.81375003 0
-0.028762622 0.15342844 0.81625003 0
-0.028762622 0.15592843 0.81625003 0
-0.031262621 0.15842843 0.81625003 2.7658689e-40
-0.028762622 0.15842843 0.81625003 0
-0.046262622 0.14842844 0.81875002 5.8954854e-39
-0.046262622 0.14842844 0.82125002 4.4253902e-39
-0.046262622 0.15092844 0.81875002 5.2529999e-39
-0.046262622 0.15092844 0.82125002 5.1604371e-39
-0.043762624 0.15092844 0.81875002 3.3136281e-39
-0.046262622 0.14842844 0.82375002 5.2526328e-39
-0.046262622 0.15092844 0.82375002 4.4228721e-39
-0.046262622 0.15092844 0.82625002 5.2526328e-39
-0.046262622 0.15342844 0.81875002 4.1480999e-39
-0.046262622 0.15342844 0.82125002 5.5274274e-39
-0.046262622 0.15592843 0.82125002 5.7114599e-39
-0.043762624 0.15342844 0.81875002 3.133948e-39
-0.043762624 0.15342844 0.82125002 2.6736733e-39
-0.043762624 0.15592843 0.81875002 2.4889289e-39
-0.043762624 0.15592843 0.82125002 3.1342983e-39
-0.046262622 0.15342844 0.82375002 4.0566077e-39
-0.046262622 0.15592843 0.82375002 4.7941784e-39
-0.046262622 0.15592843 0.82625002 4.6994604e-39
-0.043762624 0.15592843 0.82375002 2.7676836e-39
-0.041262623 0.15342844 0.81875002 1.8369902e-40
-0.041262623 0.15592843 0.81875002 6.4285128e-40
-0.041262623 0.15592843 0.82125002 2.8516031e-39
-0.038762622 0.15342844 0.81875002 6.4536941e-40
-0.038762622 0.15592843 0.81875002 1.1031204e-39
-0.046262622 0.14842844 0.83375001 4.0566077e-39
-0.046262622 0.15092844 0.83375001 5.6185384e-39
-0.046262622 0.15842843 0.82125002 5.2518887e-39
-0.043762624 0.15842843 0.82125002 2.9484623e-39
-0.043762624 0.16092844 0.82125002 3.8711178e-39
-0.046262622 0.15842843 0.82375002 5.3455487e-39
-0.046262622 0.15842843 0.82625002 5.5295672e-39
-0.046262622 0.16092844 0.82375002 5.4344821e-39
-0.046262622 0.16092844 0.82625002 6.2646141e-39
-0.043762624 0.15842843 0.82375002 3.5913136e-39
-0.043762624 0.16092844 0.82375002 3.6831238e-39
-0.043762624 0.16342844 0.82125002 3.4079761e-39
-0.043762624 0.16592844 0.82125002 3.5913192e-39
-0.046262622 0.16342844 0.82375002 5.5266777e-39
-0.046262622 0.16342844 0.82625002 5.895833e-39
-0.046262622 0.16592844 0.82375002 5.6188733e-39
-0.046262622 0.16592844 0.82625002 5.3462549e-39
-0.043762624 0.16342844 0.82375002 3.6831238e-39
-0.043762624 0.16342844 0.82625002 3.8696549e-39
-0.043762624 0.16592844 0.82375002 3.9593506e-39
-0.043762624 0.16592844 0.82625002 3.5945408e-39
-0.041262623 0.15842843 0.81875002 0
-0.041262623 0.15842843 0.82125002 2.0250865e-39
-0.041262623 0.16092844 0.81875002 7.0064923e-45
-0.041262623 0.16092844 0.82125002 1.285704e-39
-0.038762622 0.15842843 0.81875002 1.1981929e-39
-0.038762622 0.16092844 0.81875002 1.6562941e-39
-0.038762622 0.16092844 0.82125002 1.6562941e-39
-0.041262623 0.15842843 0.82375002 1.1031204e-39
-0.041262623 0.16092844 0.82375002 9.1836337e-40
-0.038762622 0.16092844 0.82375002 1.1963726e-39
-0.041262623 0.16342844 0.81875002 1.3778996e-39
-0.041262623 0.16342844 0.82125002 4.5918589e-40
-0.041262623 0.16592844 0.81875002 1.1038294e-39
-0.041262623 0.16592844 0.82125002 1.3804163e-39
-0.038762622 0.16342844 0.81875002 1.6566445e-39
-0.038762622 0.16342844 0.82125002 1.1974866e-39
-0.038762622 0.16592844 0.81875002 1.7484898e-39
-0.038762622 0.16592844 0.82125002 1.841742e-39
-0.041262623 0.16342844 0.82375002 5.6051939e-45
-0.041262623 0.16592844 0.82375002 6.4285968e-40
-0.038762622 0.16342844 0.82375002 1.841742e-39
-0.038762622 0.16592844 0.82375002 1.8410441e-39
-0.046262622 0.15842843 0.82875001 4.9770997e-39
-0.046262622 0.16092844 0.82875001 4.9778227e-39
-0.046262622 0.16342844 0.82875001 6.262096e-39
-0.046262622 0.16592844 0.82875001 5.6210566e-39
-0.036262624 0.15592843 0.81875002 1.6566445e-39
-0.033762623 0.15342844 0.81875002 1.6566445e-39
-0.033762623 0.15592843 0.81875002 1.1056385e-39
-0.028762622 0.14842844 0.81875002 0
-0.031262621 0.15342844 0.81875002 5.5317378e-40
-0.031262621 0.15592843 0.81875002 2.7801762e-40
-0.028762622 0.15342844 0.81875002 0
-0.028762622 0.15592843 0.81875002 0
-0.036262624 0.15842843 0.81875002 2.4835269e-39
-0.036262624 0.16092844 0.81875002 1.8413945e-39
-0.036262624 0.16092844 0.82125002 1.6562941e-39
-0.033762623 0.15842843 0.81875002 2.1143856e-39
-0.033762623 0.16092844 0.81875002 1.6562941e-39
-0.033762623 0.16092844 0.82125002 1.1981929e-39
-0.036262624 0.16342844 0.82125002 1.7477891e-39
-0.036262624 0.16592844 0.82125002 1.8413945e-39
-0.033762623 0.16342844 0.82125002 1.1056385e-39
-0.033762623 0.16592844 0.82125002 1.2907388e-39
-0.036262624 0.16342844 0.82375002 1.8413945e-39
-0.036262624 0.16592844 0.82375002 2.0257857e-39
-0.033762623 0.16342844 0.82375002 1.1981929e-39
-0.033762623 0.16592844 0.82375002 1.3829344e-39
-0.031262621 0.15842843 0.81875002 1.1960251e-39
-0.031262621 0.16092844 0.81875002 1.1960251e-39
-0.031262621 0.16092844 0.82125002 8.2976067e-40
-0.028762622 0.15842843 0.81875002 0
-0.028762622 0.15842843 0.82125002 0
-0.028762622 0.16092844 0.81875002 0
-0.028762622 0.16092844 0.82125002 0
-0.031262621 0.16342844 0.81875002 3.6734198e-40
-0.031262621 0.16342844 0.82125002 6.4607706e-40
-0.031262621 0.16592844 0.81875002 9.2266255e-40
-0.031262621 0.16592844 0.82125002 7.3827129e-40
-0.028762622 0.16342844 0.81875002 0
-0.028762622 0.16342844 0.82125002 0
-0.028762622 0.16592844 0.82125002 0
-0.031262621 0.16342844 0.82375002 1.1038294e-39
-0.031262621 0.16592844 0.82375002 8.2976067e-40
-0.028762622 0.16342844 0.82375002 0
-0.028762622 0.16592844 0.82375002 0
-0.028762622 0.16592844 0.82625002 0
-0.028762622 0.16592844 0.82875001 0
-0.043762624 0.17092843 0.82125002 3.7767572e-39
-0.046262622 0.16842844 0.82375002 5.6167406e-39
-0.046262622 0.16842844 0.82625002 5.9887377e-39
-0.046262622 0.17092843 0.82375002 5.2504818e-39
-0.046262622 0.17092843 0.82625002 4.8827614e-39
-0.043762624 0.16842844 0.82375002 2.489282e-39
-0.043762624 0.16842844 0.82625002 4.052642e-39
-0.043762624 0.17092843 0.82375002 2.5811245e-39
-0.043762624 0.17092843 0.82625002 4.0519386e-39
-0.043762624 0.17342843 0.82125002 3.5938373e-39
-0.046262622 0.17342843 0.82375002 5.0671429e-39
-0.046262622 0.17342843 0.82625002 5.6207062e-39
-0.046262622 0.17592844 0.82375002 4.8831118e-39
-0.046262622 0.17592844 0.82625002 4.2392067e-39
-0.043762624 0.17342843 0.82375002 2.9484623e-39
-0.043762624 0.17342843 0.82625002 3.9589975e-39
-0.043762624 0.17592844 0.82375002 2.7630018e-39
-0.043762624 0.17592844 0.82625002 2.5814776e-39
-0.041262623 0.16842844 0.82125002 2.7658689e-40
-0.041262623 0.17092843 0.82125002 7.3576717e-40
-0.038762622 0.16842844 0.82125002 1.8410441e-39
-0.038762622 0.17092843 0.82125002 1.2878704e-39
-0.041262623 0.16842844 0.82375002 7.3504691e-40
-0.041262623 0.17092843 0.82375002 1.8439686e-40
-0.038762622 0.16842844 0.82375002 1.2914451e-39
-0.038762622 0.17092843 0.82375002 1.5669768e-39
-0.041262623 0.17342843 0.82125002 1.1038294e-39
-0.038762622 0.17342843 0.82125002 1.6566445e-39
-0.041262623 0.17342843 0.82375002 9.2015843e-40
-0.041262623 0.17592844 0.82375002 1.0112751e-39
-0.041262623 0.17592844 0.82625002 4.6097815e-40
-0.038762622 0.17342843 0.82375002 2.0254368e-39
-0.038762622 0.17592844 0.82375002 2.1169262e-39
-0.038762622 0.17592844 0.82625002 1.2878704e-39
-0.046262622 0.16842844 0.82875001 5.9891062e-39
-0.046262622 0.17092843 0.82875001 6.2649644e-39
-0.046262622 0.17342843 0.82875001 5.6192447e-39
-0.046262622 0.17592844 0.82875001 4.7909161e-39
-0.043762624 0.17592844 0.82875001 4.0515883e-39
-0.046262622 0.17592844 0.83375001 5.5274218e-39
-0.046262622 0.17842844 0.82375002 5.1582861e-39
-0.046262622 0.17842844 0.82625002 4.7895036e-39
-0.043762624 0.17842844 0.82375002 2.8562667e-39
-0.043762624 0.17842844 0.82625002 3.2214619e-39
-0.043762624 0.18092844 0.82625002 2.9491685e-39
-0.041262623 0.17842844 0.82375002 7.3576717e-40
-0.041262623 0.17842844 0.82625002 1.930723e-39
-0.041262623 0.18092844 0.82625002 6.4536941e-40
-0.038762622 0.17842844 0.82375002 1.6566445e-39
-0.038762622 0.17842844 0.82625002 2.1179828e-39
-0.038762622 0.18092844 0.82625002 1.1985432e-39
-0.046262622 0.17842844 0.82875001 4.6051124e-39
-0.046262622 0.17842844 0.83125001 4.7891533e-39
-0.043762624 0.17842844 0.82875001 2.489282e-39
-0.043762624 0.18092844 0.82875001 2.947033e-39
-0.043762624 0.18092844 0.83125001 2.9484623e-39
-0.046262622 0.17842844 0.83375001 5.1589896e-39
-0.043762624 0.18092844 0.83375001 3.0410167e-39
-0.043762624 0.18342844 0.83125001 2.9484623e-39
-0.043762624 0.18342844 0.83375001 2.8562667e-39
-0.043762624 0.18342844 0.83625007 3.8679005e-39
-0.043762624 0.18592843 0.83375001 2.7630018e-39
-0.043762624 0.18592843 0.83625007 3.4079761e-39
-0.041262623 0.17842844 0.82875001 2.7658689e-40
-0.041262623 0.17842844 0.83125001 2.1143856e-39
-0.041262623 0.18092844 0.82875001 1.1985432e-39
-0.041262623 0.18092844 0.83125001 1.4726133e-39
-0.038762622 0.17842844 0.82875001 2.1176324e-39
-0.038762622 0.18092844 0.82875001 1.6573507e-39
-0.038762622 0.18092844 0.83125001 1.8413945e-39
-0.041262623 0.18342844 0.82875001 1.2889396e-39
-0.041262623 0.18342844 0.83125001 1.472263e-39
-0.041262623 0.18592843 0.83125001 1.7495464e-39
-0.038762622 0.18342844 0.82875001 2.0254368e-39
-0.038762622 0.18342844 0.83125001 2.0254368e-39
-0.038762622 0.18592843 0.83125001 2.118689e-39
-0.041262623 0.18342844 0.83375001 9.2015843e-40
-0.041262623 0.18592843 0.83375001 2.1179828e-39
-0.038762622 0.18592843 0.83375001 2.1179828e-39
-0.036262624 0.16842844 0.82125002 2.7604613e-39
-0.036262624 0.17092843 0.82125002 2.0257829e-39
-0.033762623 0.16842844 0.82125002 1.1985432e-39
-0.033762623 0.17092843 0.82125002 1.6566445e-39
-0.036262624 0.16842844 0.82375002 1.8413945e-39
-0.036262624 0.17092843 0.82375002 1.8413917e-39
-0.033762623 0.16842844 0.82375002 1.6566445e-39
-0.033762623 0.16842844 0.82625002 1.6566445e-39
-0.033762623 0.17092843 0.82375002 1.6566445e-39
-0.033762623 0.17092843 0.82625002 1.7484898e-39
-0.036262624 0.17342843 0.82125002 2.1179828e-39
-0.036262624 0.17342843 0.82375002 2.0254368e-39
-0.036262624 0.17342843 0.82625002 1.7491988e-39
-0.036262624 0.17592844 0.82375002 2.1176324e-39
-0.036262624 0.17592844 0.82625002 2.667558e-39
-0.033762623 0.17342843 0.82375002 1.7491988e-39
-0.033762623 0.17342843 0.82625002 1.8410441e-39
-0.033762623 0.17592844 0.82375002 2.0257829e-39
-0.033762623 0.17592844 0.82625002 1.749196e-39
-0.031262621 0.16842844 0.81875002 2.7658689e-40
-0.031262621 0.16842844 0.82125002 3.7021184e-40
-0.031262621 0.17092843 0.81875002 7.3899016e-40
-0.031262621 0.17092843 0.82125002 3.7021184e-40
-0.028762622 0.16842844 0.81875002 0
-0.028762622 0.16842844 0.82125002 0
-0.028762622 0.17092843 0.82125002 0
-0.031262621 0.16842844 0.82375002 8.2724394e-40
-0.031262621 0.16842844 0.82625002 8.2724394e-40
-0.031262621 0.17092843 0.82375002 8.2724394e-40
-0.031262621 0.17092843 0.82625002 3.2285917e-42
-0.028762622 0.16842844 0.82375002 0
-0.028762622 0.16842844 0.82625002 0
-0.028762622 0.17092843 0.82375002 0
-0.028762622 0.17092843 0.82625002 0
-0.031262621 0.17342843 0.82375002 8.2724394e-40
-0.031262621 0.17342843 0.82625002 1.0119841e-39
-0.031262621 0.17592844 0.82375002 1.1963726e-39
-0.031262621 0.17592844 0.82625002 1.1041783e-39
-0.028762622 0.17342843 0.82375002 0
-0.028762622 0.17342843 0.82625002 0
-0.028762622 0.17592844 0.82625002 0
-0.033762623 0.17592844 0.82875001 1.4733196e-39
-0.028762622 0.16842844 0.82875001 0
-0.028762622 0.17092843 0.82875001 0
-0.031262621 0.17592844 0.82875001 1.1960251e-39
-0.031262621 0.17592844 0.83125001 1.011631e-39
-0.031262621 0.17592844 0.83375001 6.4536941e-40
-0.031262621 0.17592844 0.83625007 0
-0.028762622 0.17592844 0.83375001 0
-0.036262624 0.17842844 0.82625002 2.1179828e-39
-0.033762623 0.17842844 0.82625002 2.3938592e-39
-0.036262624 0.17842844 0.82875001 2.7590488e-39
-0.036262624 0.17842844 0.83125001 2.0257857e-39
-0.036262624 0.18092844 0.82875001 2.667558e-39
-0.036262624 0.18092844 0.83125001 1.9335873e-39
-0.033762623 0.17842844 0.82875001 1.8413945e-39
-0.033762623 0.17842844 0.83125001 1.6566445e-39
-0.033762623 0.18092844 0.82875001 1.8410441e-39
-0.033762623 0.18092844 0.83125001 1.7491988e-39
-0.036262624 0.18092844 0.83375001 2.3020139e-39
-0.033762623 0.17842844 0.83375001 1.8413945e-39
-0.033762623 0.18092844 0.83375001 1.8413945e-39
-0.036262624 0.18342844 0.82875001 2.1179828e-39
-0.036262624 0.18342844 0.83125001 2.667558e-39
-0.036262624 0.18592843 0.83125001 2.1179828e-39
-0.033762623 0.18342844 0.82875001 1.3804135e-39
-0.033762623 0.18342844 0.83125001 1.4733196e-39
-0.036262624 0.18342844 0.83375001 2.667558e-39
-0.036262624 0.18592843 0.83375001 2.759755e-39
-0.033762623 0.18342844 0.83375001 1.7495464e-39
-0.033762623 0.18592843 0.83375001 1.6573507e-39
-0.031262621 0.17842844 0.82875001 7.3756504e-40
-0.031262621 0.17842844 0.83125001 7.3827129e-40
-0.031262621 0.18092844 0.82875001 1.3804163e-39
-0.031262621 0.18092844 0.83125001 1.011631e-39
-0.031262621 0.17842844 0.83375001 1.4733196e-39
-0.031262621 0.17842844 0.83625007 0
-0.031262621 0.18092844 0.83375001 0
-0.031262621 0.18092844 0.83625007 0
-0.028762622 0.17842844 0.83375001 0
-0.031262621 0.18342844 0.83125001 1.2885682e-39
-0.031262621 0.18342844 0.83375001 1.1963726e-39
-0.031262621 0.18342844 0.83625007 0
-0.031262621 0.18592843 0.83375001 6.4536941e-40
-0.031262621 0.18592843 0.83625007 9.1845305e-41
-0.028762622 0.18342844 0.83625007 0
-0.026262622 0.14842844 0.81125003 0
-0.026262622 0.15092844 0.81125003 0
-0.026262622 0.14842844 0.81375003 0
-0.026262622 0.14842844 0.81625003 0
-0.026262622 0.15092844 0.81375003 0
-0.026262622 0.15092844 0.81625003 0
-0.026262622 0.15342844 0.81375003 0
-0.026262622 0.15342844 0.81625003 0
-0.026262622 0.15592843 0.81625003 0
-0.023762623 0.15342844 0.81375003 0
-0.023762623 0.15592843 0.81625003 0
-0.026262622 0.14842844 0.81875002 0
-0.026262622 0.14842844 0.82125002 0
-0.026262622 0.15092844 0.81875002 0
-0.026262622 0.15092844 0.82125002 0
-0.026262622 0.14842844 0.82375002 0
-0.026262622 0.14842844 0.82625002 0
-0.026262622 0.15092844 0.82375002 0
-0.026262622 0.15092844 0.82625002 0
-0.023762623 0.14842844 0.82625002 0
-0.023762623 0.15092844 0.82625002 0
-0.026262622 0.15342844 0.81875002 0
-0.026262622 0.15342844 0.82125002 0
-0.026262622 0.15592843 0.81875002 0
-0.026262622 0.15592843 0.82125002 0
-0.023762623 0.15342844 0.81875002 0
-0.023762623 0.15592843 0.81875002 0
-0.026262622 0.15342844 0.82375002 0
-0.026262622 0.15342844 0.82625002 0
-0.023762623 0.15342844 0.82625002 0
-0.023762623 0.15592843 0.82625002 0
-0.021262623 0.14842844 0.82625002 1.5666265e-39
-0.021262623 0.15092844 0.82625002 1.6570228e-39
-0.021262623 0.15592843 0.81875002 5.6051939e-45
-0.026262622 0.14842844 0.82875001 0
-0.026262622 0.14842844 0.83125001 0
-0.026262622 0.15092844 0.82875001 0
-0.026262622 0.15092844 0.83125001 0
-0.023762623 0.14842844 0.82875001 0
-0.023762623 0.14842844 0.83125001 4.2038954e-45
-0.023762623 0.15092844 0.82875001 5.6051939e-45
-0.023762623 0.15092844 0.83125001 0
-0.026262622 0.15092844 0.83375001 0
-0.026262622 0.15342844 0.82875001 0
-0.026262622 0.15342844 0.83125001 0
-0.026262622 0.15592843 0.82875001 0
-0.026262622 0.15592843 0.83125001 0
-0.023762623 0.15342844 0.82875001 7.0064923e-45
-0.023762623 0.15342844 0.83125001 0
-0.023762623 0.15592843 0.82875001 5.6051939e-45
-0.023762623 0.15592843 0.83125001 0
-0.026262622 0.15342844 0.83375001 0
-0.026262622 0.15592843 0.83375001 0
-0.026262622 0.15592843 0.83625007 0
-0.023762623 0.15342844 0.83375001 0
-0.023762623 0.15592843 0.83375001 5.6051939e-45
-0.021262623 0.14842844 0.82875001 1.3854708e-39
-0.021262623 0.14842844 0.83125001 1.5673453e-39
-0.021262623 0.15092844 0.82875001 1.4751497e-39
-0.021262623 0.15092844 0.83125001 1.7510079e-39
-0.018762622 0.14842844 0.82875001 2.4871114e-39
-0.018762622 0.14842844 0.83125001 1.6609479e-39
-0.018762622 0.15092844 0.82875001 2.3949158e-39
-0.018762622 0.15092844 0.83125001 1.9371746e-39
-0.021262623 0.15342844 0.82875001 1.933251e-39
-0.021262623 0.15342844 0.83125001 1.4744294e-39
-0.021262623 0.15592843 0.82875001 1.4751497e-39
-0.021262623 0.15592843 0.83125001 1.5669768e-39
-0.018762622 0.15342844 0.82875001 2.3027201e-39
-0.018762622 0.15342844 0.83125001 2.118689e-39
-0.018762622 0.15592843 0.82875001 2.395622e-39
-0.018762622 0.15592843 0.83125001 2.118689e-39
-0.021262623 0.15592843 0.83375001 1.9354076e-39
-0.018762622 0.15342844 0.83375001 2.0290101e-39
-0.018762622 0.15592843 0.83375001 2.118689e-39
-0.026262622 0.15842843 0.81875002 0
-0.026262622 0.15842843 0.82125002 0
-0.026262622 0.16092844 0.81875002 0
-0.026262622 0.16092844 0.82125002 0
-0.023762623 0.15842843 0.83125001 5.6051939e-45
-0.026262622 0.15842843 0.83375001 0
-0.026262622 0.16092844 0.83375001 0
-0.026262622 0.16092844 0.83625007 0
-0.023762623 0.15842843 0.83375001 0
-0.023762623 0.15842843 0.83625007 5.6051939e-45
-0.023762623 0.16092844 0.83375001 0
-0.023762623 0.16092844 0.83625007 0
-0.026262622 0.16342844 0.83375001 0
-0.023762623 0.16342844 0.83625007 8.4077908e-45
-0.023762623 0.16592844 0.83625007 0
-0.021262623 0.15842843 0.83125001 1.3822338e-39
-0.021262623 0.15842843 0.83375001 2.0261529e-39
-0.021262623 0.15842843 0.83625007 1.7506576e-39
-0.021262623 0.16092844 0.83375001 1.7510079e-39
-0.021262623 0.16092844 0.83625007 1.7510079e-39
-0.018762622 0.15842843 0.83375001 1.7531435e-39
-0.018762622 0.15842843 0.83625007 1.6609479e-39
-0.018762622 0.16092844 0.83375001 2.395622e-39
-0.018762622 0.16092844 0.83625007 2.3949158e-39
-0.021262623 0.16342844 0.83625007 2.1176324e-39
-0.021262623 0.16592844 0.83625007 2.0254368e-39
-0.018762622 0.16342844 0.83625007 2.5800133e-39
-0.018762622 0.16592844 0.83625007 2.7640584e-39
-0.016262623 0.14842844 0.82625002 0
-0.016262623 0.15092844 0.82625002 0
-0.016262623 0.14842844 0.82875001 0
-0.016262623 0.14842844 0.83125001 0
-0.016262623 0.15092844 0.82875001 2.9437988e-39
-0.016262623 0.15092844 0.83125001 0
-0.013762622 0.14842844 0.82875001 0
-0.013762622 0.14842844 0.83125001 0
-0.013762622 0.15092844 0.82875001 0
-0.013762622 0.15092844 0.83125001 0
-0.013762622 0.14842844 0.83375001 0
-0.013762622 0.15092844 0.83375001 0
-0.016262623 0.15342844 0.82875001 2.3016636e-39
-0.016262623 0.15342844 0.83125001 0
-0.016262623 0.15592843 0.82875001 0
-0.016262623 0.15592843 0.83125001 0
-0.013762622 0.15342844 0.83125001 0
-0.013762622 0.15592843 0.83125001 0
-0.016262623 0.15342844 0.83375001 0
-0.016262623 0.15592843 0.83375001 0
-0.013762622 0.15342844 0.83375001 0
-0.013762622 0.15342844 0.83625007 1.8367099e-40
-0.013762622 0.15592843 0.83375001 0
-0.013762622 0.15592843 0.83625007 0
-0.011262623 0.14842844 0.82875001 1.6223907e-38
-0.011262623 0.14842844 0.83125001 1.6681645e-38
-0.011262623 0.15092844 0.82875001 1.6777081e-38
-0.011262623 0.15092844 0.83125001 1.6500854e-38
-0.011262623 0.14842844 0.83375001 1.67742e-38
-0.011262623 0.14842844 0.83625007 1.67742e-38
-0.011262623 0.15092844 0.83375001 1.7419569e-38
-0.011262623 0.15092844 0.83625007 2.1843882e-38
-0.0087626223 0.15092844 0.83625007 2.239741e-38
-0.011262623 0.15342844 0.83375001 1.6777081e-38
-0.011262623 0.15342844 0.83625007 2.2119748e-38
-0.011262623 0.15592843 0.83375001 2.1937152e-38
-0.011262623 0.15592843 0.83625007 2.1844238e-38
-0.0087626223 0.15342844 0.83375001 2.2120465e-38
-0.0087626223 0.15342844 0.83625007 2.2213016e-38
-0.0087626223 0.15592843 0.83375001 2.2213379e-38
-0.0087626223 0.15592843 0.83625007 2.239741e-38
-0.016262623 0.15842843 0.83375001 2.9445148e-39
-0.016262623 0.15842843 0.83625007 0
-0.016262623 0.16092844 0.83375001 2.9437988e-39
-0.016262623 0.16092844 0.83625007 2.6708048e-39
-0.013762622 0.15842843 0.83375001 0
-0.013762622 0.15842843 0.83625007 1.8367099e-40
-0.013762622 0.16092844 0.83625007 0
-0.016262623 0.16342844 0.83625007 2.5786092e-39
-0.016262623 0.16592844 0.83625007 0
-0.011262623 0.15842843 0.83375001 2.2120462e-38
-0.011262623 0.15842843 0.83625007 1.760216e-38
-0.011262623 0.16092844 0.83625007 1.7050427e-38
-0.0087626223 0.15842843 0.83375001 2.2305212e-38
-0.0087626223 0.15842843 0.83625007 2.2304859e-38
-0.0087626223 0.16092844 0.83625007 2.2213013e-38
-0.023762623 0.16842844 0.83625007 5.6051939e-45
-0.023762623 0.17092843 0.83625007 0
-0.021262623 0.16842844 0.83625007 2.3945879e-39
-0.021262623 0.17092843 0.83625007 2.1183485e-39
-0.041262623 0.10592844 0.83875006 3.673602e-40
-0.041262623 0.10592844 0.84125006 1.5414283e-44
-0.038762622 0.10592844 0.83875006 2.4006989e-39
-0.038762622 0.10592844 0.84125006 3.137192e-39
-0.038762622 0.10342844 0.84375006 1.1344401e-38
-0.038762622 0.10592844 0.84375006 4.7081134e-39
-0.036262624 0.10592844 0.83875006 1.2532838e-38
-0.036262624 0.10592844 0.84125006 1.1064224e-38
-0.033762623 0.10592844 0.83875006 5.7168731e-39
-0.033762623 0.10592844 0.84125006 7.9249033e-39
-0.031262621 0.10592844 0.83875006 5.1603797e-39
-0.031262621 0.10592844 0.84125006 8.7575086e-39
-0.06376262 0.13842843 0.83875006 1.3915779e-38
-0.06376262 0.14092843 0.83875006 1.4099823e-38
-0.06376262 0.14092843 0.84125006 1.8524486e-38
-0.066262625 0.14092843 0.84375006 1.8982943e-38
-0.06376262 0.14342843 0.83875006 1.5760768e-38
-0.06376262 0.14342843 0.84125006 1.5759319e-38
-0.06376262 0.14592844 0.83875006 1.7141903e-38
-0.06376262 0.14592844 0.84125006 1.72341e-38
-0.066262625 0.14342843 0.84375006 2.0827926e-38
-0.06376262 0.14342843 0.84375006 2.0461296e-38
-0.06376262 0.14592844 0.84375006 2.156659e-38
-0.061262622 0.14092843 0.83875006 1.0047894e-38
-0.061262622 0.14342843 0.83875006 1.2995949e-38
-0.061262622 0.14592844 0.83875006 1.3363322e-38
-0.061262622 0.14592844 0.84125006 1.3272205e-38
-0.058762621 0.14592844 0.83875006 3.6734198e-40
-0.06376262 0.14842844 0.83875006 1.7234819e-38
-0.06376262 0.14842844 0.84125006 1.7142626e-38
-0.06376262 0.15092844 0.83875006 1.7327734e-38
-0.06376262 0.15092844 0.84125006 1.7880191e-38
-0.06376262 0.14842844 0.84375006 1.6866395e-38
-0.06376262 0.15092844 0.84375006 1.7418132e-38
-0.06376262 0.15342844 0.83875006 1.7696876e-38
-0.06376262 0.15342844 0.84125006 1.7880189e-38
-0.06376262 0.15592843 0.84125006 1.787947e-38
-0.06376262 0.15342844 0.84375006 1.797274e-38
-0.061262622 0.14842844 0.83875006 1.3087095e-38
-0.061262622 0.14842844 0.84125006 1.3181807e-38
-0.061262622 0.15092844 0.83875006 1.3640637e-38
-0.061262622 0.15092844 0.84125006 1.2721908e-38
-0.058762621 0.14842844 0.83875006 2.7550649e-40
-0.058762621 0.14842844 0.84125006 5.5101298e-40
-0.058762621 0.15092844 0.83875006 3.6734198e-40
-0.058762621 0.15092844 0.84125006 9.1835496e-41
-0.061262622 0.15342844 0.83875006 1.3089612e-38
-0.061262622 0.15342844 0.84125006 1.3273301e-38
-0.061262622 0.15592843 0.83875006 1.3825028e-38
-0.061262622 0.15592843 0.84125006 1.3458038e-38
-0.058762621 0.15342844 0.83875006 1.3839896e-39
-0.058762621 0.15342844 0.84125006 1.6577025e-39
-0.058762621 0.15592843 0.83875006 2.1179828e-39
-0.058762621 0.15592843 0.84125006 2.0268395e-39
-0.061262622 0.15342844 0.84375006 1.3640281e-38
-0.061262622 0.15592843 0.84375006 1.373248e-38
-0.058762621 0.15342844 0.84375006 9.1836057e-40
-0.058762621 0.15592843 0.84375006 9.1836337e-40
-0.06376262 0.15842843 0.83875006 1.8340093e-38
-0.06376262 0.15842843 0.84125006 1.8524115e-38
-0.06376262 0.16092844 0.83875006 1.8340447e-38
-0.06376262 0.16092844 0.84125006 1.8340444e-38
-0.06376262 0.16342844 0.83875006 1.8156781e-38
-0.061262622 0.15842843 0.83875006 1.4009773e-38
-0.061262622 0.15842843 0.84125006 1.3917577e-38
-0.061262622 0.16092844 0.83875006 1.3732833e-38
-0.061262622 0.16092844 0.84125006 1.3732833e-38
-0.058762621 0.15842843 0.83875006 6.4284847e-40
-0.058762621 0.15842843 0.84125006 1.8428084e-39
-0.058762621 0.16092844 0.83875006 1.8428084e-39
-0.058762621 0.16092844 0.84125006 2.1193911e-39
-0.061262622 0.15842843 0.84375006 1.3273657e-38
-0.061262622 0.16092844 0.84375006 1.3457688e-38
-0.058762621 0.15842843 0.84375006 1.8428084e-39
-0.058762621 0.16092844 0.84375006 1.3814785e-39
-0.061262622 0.16342844 0.83875006 1.3089261e-38
-0.058762621 0.16342844 0.83875006 2.0268395e-39
-0.058762621 0.16342844 0.84125006 2.0268395e-39
-0.061262622 0.16342844 0.84375006 1.3273654e-38
-0.061262622 0.16342844 0.84625006 0
-0.061262622 0.16592844 0.84625006 1.8367099e-40
-0.058762621 0.16342844 0.84375006 2.1193911e-39
-0.058762621 0.16342844 0.84625006 1.8424496e-39
-0.058762621 0.16592844 0.84375006 1.1077741e-39
-0.058762621 0.16592844 0.84625006 1.4776188e-39
-0.061262622 0.16342844 0.84875005 0
-0.061262622 0.16342844 0.85125005 1.3825028e-38
-0.061262622 0.16592844 0.84875005 1.8367099e-40
-0.061262622 0.16592844 0.85125005 0
-0.056262624 0.15092844 0.83875006 5.5317378e-40
-0.056262624 0.15342844 0.83875006 1.3829344e-39
-0.056262624 0.15342844 0.84125006 2.0271968e-39
-0.056262624 0.15592843 0.83875006 2.026492e-39
-0.056262624 0.15592843 0.84125006 2.6689859e-39
-0.053762622 0.15342844 0.83875006 0
-0.053762622 0.15592843 0.83875006 0
-0.053762622 0.15592843 0.84125006 0
-0.056262624 0.15592843 0.84375006 2.8533576e-39
-0.051262621 0.15592843 0.83875006 0
-0.056262624 0.15842843 0.84125006 2.1179828e-39
-0.056262624 0.16092844 0.84125006 2.1179828e-39
-0.053762622 0.15842843 0.83875006 0
-0.053762622 0.15842843 0.84125006 0
-0.053762622 0.16092844 0.83875006 0
-0.053762622 0.16092844 0.84125006 0
-0.056262624 0.15842843 0.84375006 2.1179828e-39
-0.056262624 0.15842843 0.84625006 2.7644045e-39
-0.056262624 0.16092844 0.84375006 2.3949158e-39
-0.053762622 0.15842843 0.84375006 0
-0.053762622 0.16092844 0.84375006 0
-0.056262624 0.16342844 0.84125006 3.1331871e-39
-0.053762622 0.16342844 0.84125006 0
-0.056262624 0.16342844 0.84375006 2.4871114e-39
-0.056262624 0.16342844 0.84625006 3.0413418e-39
-0.056262624 0.16592844 0.84375006 2.3949158e-39
-0.056262624 0.16592844 0.84625006 2.8533758e-39
-0.053762622 0.16342844 0.84375006 0
-0.053762622 0.16592844 0.84375006 0
-0.053762622 0.16592844 0.84625006 0
-0.051262621 0.15842843 0.83875006 0
-0.051262621 0.15842843 0.84125006 1.6815582e-44
-0.051262621 0.16092844 0.83875006 1.8367099e-40
-0.051262621 0.16092844 0.84125006 0
-0.048762623 0.15842843 0.83875006 2.8533758e-39
-0.048762623 0.16092844 0.83875006 2.6718614e-39
-0.048762623 0.16092844 0.84125006 2.3016636e-39
-0.051262621 0.16342844 0.83875006 0
-0.051262621 0.16342844 0.84125006 2.8025969e-45
-0.051262621 0.16592844 0.83875006 0
-0.051262621 0.16592844 0.84125006 0
-0.048762623 0.16342844 0.83875006 3.2221597e-39
-0.048762623 0.16342844 0.84125006 6.3550118e-39
-0.048762623 0.16592844 0.83875006 2.667558e-39
-0.048762623 0.16592844 0.84125006 5.895833e-39
-0.051262621 0.16342844 0.84375006 0
-0.051262621 0.16592844 0.84375006 0
-0.048762623 0.16592844 0.84375006 2.6711551e-39
-0.056262624 0.16592844 0.84875005 2.9484371e-39
-0.061262622 0.16842844 0.84625006 1.8367099e-40
-0.061262622 0.17092843 0.84625006 9.1835496e-41
-0.058762621 0.16842844 0.84375006 1.7502554e-39
-0.058762621 0.16842844 0.84625006 1.4736727e-39
-0.058762621 0.17092843 0.84375006 1.5687382e-39
-0.058762621 0.17092843 0.84625006 1.6577025e-39
-0.058762621 0.17342843 0.84625006 1.8428084e-39
-0.061262622 0.16842844 0.84875005 3.6734198e-40
-0.061262622 0.16842844 0.85125005 1.8367379e-40
-0.061262622 0.17092843 0.84875005 8.2651947e-40
-0.061262622 0.17092843 0.85125005 0
-0.058762621 0.16842844 0.84875005 1.8424496e-39
-0.058762621 0.17092843 0.84875005 2.0232508e-39
-0.061262622 0.17342843 0.84875005 3.6734339e-40
-0.061262622 0.17342843 0.85125005 1.8367099e-40
-0.061262622 0.17592844 0.84875005 7.3468397e-40
-0.061262622 0.17592844 0.85125005 1.1938615e-39
-0.058762621 0.17342843 0.84875005 2.9459217e-39
-0.058762621 0.17342843 0.85125005 2.6686118e-39
-0.058762621 0.17592844 0.84875005 2.3934626e-39
-0.058762621 0.17592844 0.85125005 2.7608088e-39
-0.061262622 0.17842844 0.84875005 1.1945789e-39
-0.061262622 0.17842844 0.85125005 1.3789688e-39
-0.061262622 0.18092844 0.85125005 1.0105492e-39
-0.058762621 0.17842844 0.84875005 1.7502554e-39
-0.058762621 0.17842844 0.85125005 1.6577025e-39
-0.058762621 0.18092844 0.85125005 1.1996012e-39
-0.058762621 0.17842844 0.85375005 3.9593506e-39
-0.058762621 0.18092844 0.85375005 3.8700458e-39
-0.058762621 0.18092844 0.85625005 1.0155785e-39
-0.058762621 0.18342844 0.85375005 4.5154153e-39
-0.058762621 0.18342844 0.85625005 4.60472e-39
-0.058762621 0.18592843 0.85375005 3.6881727e-39
-0.058762621 0.18592843 0.85625005 3.4119446e-39
-0.056262624 0.16842844 0.84375006 2.1179828e-39
-0.056262624 0.16842844 0.84625006 2.3949158e-39
-0.056262624 0.17092843 0.84375006 2.859477e-39
-0.056262624 0.17092843 0.84625006 2.6718614e-39
-0.053762622 0.16842844 0.84375006 0
-0.053762622 0.16842844 0.84625006 0
-0.053762622 0.17092843 0.84375006 0
-0.053762622 0.17092843 0.84625006 0
-0.056262624 0.17342843 0.84625006 3.4101243e-39
-0.053762622 0.17342843 0.84375006 0
-0.053762622 0.17342843 0.84625006 2.8025969e-45
-0.053762622 0.17592844 0.84375006 0
-0.053762622 0.17592844 0.84625006 0
-0.051262621 0.16842844 0.83875006 0
-0.051262621 0.16842844 0.84125006 1.4012985e-45
-0.051262621 0.17092843 0.84125006 0
-0.048762623 0.16842844 0.83875006 2.9448652e-39
-0.048762623 0.16842844 0.84125006 2.8533758e-39
-0.048762623 0.17092843 0.83875006 2.3949158e-39
-0.048762623 0.17092843 0.84125006 2.8533758e-39
-0.051262621 0.16842844 0.84375006 0
-0.051262621 0.17092843 0.84375006 0
-0.048762623 0.16842844 0.84375006 2.3949158e-39
-0.048762623 0.17092843 0.84375006 3.2221597e-39
-0.051262621 0.17342843 0.84125006 0
-0.048762623 0.17342843 0.83875006 2.667558e-39
-0.048762623 0.17342843 0.84125006 2.8533758e-39
-0.048762623 0.17592844 0.83875006 2.4835269e-39
-0.048762623 0.17592844 0.84125006 1.6566445e-39
-0.051262621 0.17342843 0.84375006 5.6051939e-45
-0.051262621 0.17592844 0.84375006 0
-0.051262621 0.17592844 0.84625006 4.2038954e-45
-0.048762623 0.17342843 0.84375006 3.130313e-39
-0.048762623 0.17592844 0.84375006 2.8533758e-39
-0.048762623 0.17592844 0.84625006 3.0352503e-39
-0.056262624 0.16842844 0.84875005 3.9629477e-39
-0.056262624 0.17092843 0.84875005 2.4867639e-39
-0.056262624 0.17342843 0.84875005 2.1179828e-39
-0.056262624 0.17342843 0.85125005 4.6969156e-39
-0.056262624 0.17592844 0.84875005 2.3016636e-39
-0.056262624 0.17592844 0.85125005 2.1179828e-39
-0.053762622 0.17342843 0.84875005 0
-0.053762622 0.17592844 0.84875005 0
-0.053762622 0.17842844 0.84625006 0
-0.048762623 0.17842844 0.83875006 5.1604343e-39
-0.048762623 0.17842844 0.84125006 4.9756871e-39
-0.051262621 0.17842844 0.84625006 0
-0.048762623 0.17842844 0.84375006 5.0682415e-39
-0.048762623 0.17842844 0.84625006 2.3020139e-39
-0.048762623 0.18092844 0.84375006 5.895833e-39
-0.048762623 0.18092844 0.84625006 5.7103739e-39
-0.048762623 0.18342844 0.84625006 5.8947526e-39
-0.056262624 0.17842844 0.85125005 2.3945654e-39
-0.056262624 0.18092844 0.85125005 2.7647773e-39
-0.053762622 0.17842844 0.84875005 0
-0.053762622 0.17842844 0.85125005 0
-0.053762622 0.18092844 0.84875005 0
-0.053762622 0.18092844 0.85125005 0
-0.056262624 0.17842844 0.85375005 2.4867639e-39
-0.056262624 0.18092844 0.85375005 2.6722089e-39
-0.053762622 0.18092844 0.85375005 0
-0.053762622 0.18342844 0.85125005 0
-0.053762622 0.18592843 0.85125005 0
-0.056262624 0.18342844 0.85375005 2.3949158e-39
-0.056262624 0.18342844 0.85625005 2.3020139e-39
-0.056262624 0.18592843 0.85375005 2.6718614e-39
-0.056262624 0.18592843 0.85625005 2.4867639e-39
-0.053762622 0.18342844 0.85375005 0
-0.053762622 0.18342844 0.85625005 0
-0.053762622 0.18592843 0.85375005 0
-0.053762622 0.18592843 0.85625005 0
-0.051262621 0.17842844 0.84875005 0
-0.051262621 0.18092844 0.84875005 0
-0.051262621 0.18092844 0.85125005 0
-0.048762623 0.17842844 0.84875005 5.2526328e-39
-0.048762623 0.18092844 0.84875005 2.6689859e-39
-0.051262621 0.18342844 0.84875005 0
-0.051262621 0.18342844 0.85125005 0
-0.051262621 0.18592843 0.85125005 0
-0.048762623 0.18342844 0.84875005 5.0682415e-39
-0.048762623 0.18342844 0.85125005 5.7103739e-39
-0.048762623 0.18592843 0.84875005 5.6178196e-39
-0.048762623 0.18592843 0.85125005 4.9753368e-39
-0.051262621 0.18342844 0.85375005 0
-0.051262621 0.18592843 0.85375005 0
-0.048762623 0.18592843 0.85375005 4.9749893e-39
-0.06376262 0.18592843 0.86125004 1.253464e-38
-0.061262622 0.18592843 0.86125004 3.6734198e-40
-0.058762621 0.18342844 0.85875005 1.8392211e-39
-0.058762621 0.18592843 0.85875005 4.4232196e-39
-0.061262622 0.18592843 0.86375004 0
-0.056262624 0.18342844 0.85875005 3.4998242e-39
-0.056262624 0.18592843 0.85875005 2.4867639e-39
-0.041262623 0.10842843 0.83875006 7.3720827e-39
-0.041262623 0.10842843 0.84125006 7.8337545e-39
-0.038762622 0.10842843 0.83875006 9.3092447e-39
-0.036262624 0.10842843 0.83875006 1.2814486e-38
-0.033762623 0.10842843 0.83875006 5.1622364e-39
-0.033762623 0.10842843 0.84125006 5.34629e-39
-0.026262622 0.10842843 0.83875006 4.6635213e-42
-0.026262622 0.10842843 0.84125006 6.4385292e-39
-0.026262622 0.11092844 0.84125006 1.793662e-42
-0.023762623 0.10842843 0.83875006 2.1197432e-38
-0.023762623 0.10842843 0.84125006 2.2573111e-38
-0.023762623 0.11092844 0.83875006 1.6582966e-38
-0.026262622 0.11092844 0.84375006 4.3209683e-39
-0.021262623 0.10842843 0.83875006 1.889362e-38
-0.028762622 0.16592844 0.84125006 0
-0.028762622 0.16342844 0.84625006 0
-0.028762622 0.16592844 0.84375006 0
-0.028762622 0.16592844 0.84625006 0
-0.046262622 0.17842844 0.84375006 4.5154335e-39
-0.046262622 0.18092844 0.84375006 5.2504818e-39
-0.046262622 0.18092844 0.84625006 5.8955009e-39
-0.046262622 0.18592843 0.84125006 4.7898568e-39
-0.043762624 0.18592843 0.83875006 4.1455467e-39
-0.046262622 0.18342844 0.84625006 4.7909105e-39
-0.046262622 0.18592843 0.84625006 4.6065193e-39
-0.046262622 0.18092844 0.84875005 5.5274218e-39
-0.046262622 0.18342844 0.84875005 4.7909161e-39
-0.046262622 0.18342844 0.85125005 4.6983618e-39
-0.046262622 0.18592843 0.84875005 4.604762e-39
-0.046262622 0.18592843 0.85125005 4.6076305e-39
-0.046262622 0.18592843 0.85375005 5.2504818e-39
-0.028762622 0.16842844 0.83875006 0
-0.028762622 0.16842844 0.84125006 0
-0.028762622 0.17092843 0.83875006 0
-0.028762622 0.17092843 0.84125006 0
-0.031262621 0.17092843 0.84375006 0
-0.028762622 0.16842844 0.84375006 0
-0.028762622 0.17092843 0.84375006 0
-0.031262621 0.17342843 0.84375006 0
-0.031262621 0.17342843 0.84625006 0
-0.031262621 0.17592844 0.84375006 0
-0.031262621 0.17592844 0.84625006 0
-0.028762622 0.17342843 0.84375006 0
-0.028762622 0.17342843 0.84625006 0
-0.028762622 0.17592844 0.84375006 0
-0.028762622 0.17592844 0.84625006 0
-0.031262621 0.17592844 0.84875005 0
-0.028762622 0.17592844 0.84875005 0
-0.031262621 0.18092844 0.83875006 0
-0.028762622 0.17842844 0.84125006 0
-0.028762622 0.18092844 0.84125006 0
-0.031262621 0.17842844 0.84375006 0
-0.031262621 0.17842844 0.84625006 0
-0.031262621 0.18092844 0.84375006 0
-0.031262621 0.18092844 0.84625006 0
-0.028762622 0.17842844 0.84375006 0
-0.028762622 0.17842844 0.84625006 0
-0.028762622 0.18092844 0.84375006 0
-0.028762622 0.18092844 0.84625006 0
-0.031262621 0.18342844 0.83875006 0
-0.031262621 0.18342844 0.84125006 0
-0.031262621 0.18592843 0.84125006 0
-0.031262621 0.18342844 0.84375006 0
-0.031262621 0.18342844 0.84625006 0
-0.031262621 0.18592843 0.84375006 0
-0.031262621 0.18592843 0.84625006 0
-0.028762622 0.18342844 0.84375006 0
-0.028762622 0.18342844 0.84625006 0
-0.028762622 0.18592843 0.84375006 0
-0.028762622 0.18592843 0.84625006 0
-0.031262621 0.17842844 0.84875005 9.6140285e-41
-0.031262621 0.18092844 0.84875005 0
-0.028762622 0.17842844 0.84875005 0
-0.028762622 0.18092844 0.84875005 0
-0.031262621 0.18342844 0.84875005 0
-0.031262621 0.18342844 0.85125005 0
-0.031262621 0.18592843 0.85125005 0
-0.028762622 0.18342844 0.84875005 0
-0.028762622 0.18342844 0.85125005 0
-0.028762622 0.18592843 0.84875005 0
-0.028762622 0.18592843 0.85125005 0
-0.031262621 0.18592843 0.85375005 0
-0.031262621 0.18592843 0.85625005 0
-0.028762622 0.18592843 0.85375005 0
-0.026262622 0.15842843 0.83875006 0
-0.026262622 0.16092844 0.83875006 0
-0.026262622 0.16092844 0.84125006 0
-0.023762623 0.15842843 0.83875006 0
-0.023762623 0.16092844 0.83875006 9.18397e-41
-0.023762623 0.16092844 0.84125006 0
-0.026262622 0.16092844 0.84375006 0
-0.023762623 0.16092844 0.84375006 0
-0.026262622 0.16342844 0.83875006 0
-0.026262622 0.16342844 0.84125006 0
-0.026262622 0.16592844 0.84125006 0
-0.023762623 0.16342844 0.83875006 1.4012985e-45
-0.023762623 0.16342844 0.84125006 5.6051939e-45
-0.023762623 0.16592844 0.83875006 0
-0.023762623 0.16592844 0.84125006 4.2038954e-45
-0.026262622 0.16342844 0.84375006 0
-0.026262622 0.16342844 0.84625006 0
-0.026262622 0.16592844 0.84375006 0
-0.026262622 0.16592844 0.84625006 0
-0.023762623 0.16342844 0.84375006 0
-0.023762623 0.16592844 0.84375006 0
-0.021262623 0.16092844 0.83875006 2.1176324e-39
-0.021262623 0.16092844 0.84125006 2.4864135e-39
-0.021262623 0.16342844 0.83875006 2.1176324e-39
-0.021262623 0.16342844 0.84125006 2.0258053e-39
-0.021262623 0.16592844 0.83875006 1.7510079e-39
-0.021262623 0.16592844 0.84125006 2.0258053e-39
-0.018762622 0.16342844 0.83875006 2.4871114e-39
-0.018762622 0.16342844 0.84125006 1.7531435e-39
-0.018762622 0.16592844 0.83875006 2.579307e-39
-0.018762622 0.16592844 0.84125006 2.4871114e-39
-0.021262623 0.16342844 0.84375006 1.7506576e-39
-0.021262623 0.16592844 0.84375006 1.5666265e-39
-0.018762622 0.16592844 0.84375006 2.2126951e-39
-0.013762622 0.15092844 0.84125006 1.6866395e-38
-0.013762622 0.15592843 0.83875006 0
-0.013762622 0.15592843 0.84125006 1.7327015e-38
-0.011262623 0.15092844 0.83875006 1.67742e-38
-0.011262623 0.15342844 0.83875006 2.1843157e-38
-0.011262623 0.15592843 0.83875006 1.6869277e-38
-0.011262623 0.15592843 0.84125006 2.2028269e-38
-0.0087626223 0.15592843 0.83875006 2.2305928e-38
-0.016262623 0.16092844 0.83875006 0
-0.013762622 0.15842843 0.83875006 0
-0.013762622 0.15842843 0.84125006 0
-0.013762622 0.16092844 0.83875006 0
-0.013762622 0.16092844 0.84125006 0
-0.013762622 0.15842843 0.84375006 1.7419569e-38
-0.013762622 0.16092844 0.84375006 1.7327015e-38
-0.016262623 0.16342844 0.83875006 2.85125e-39
-0.016262623 0.16342844 0.84125006 0
-0.016262623 0.16592844 0.83875006 0
-0.016262623 0.16592844 0.84125006 0
-0.013762622 0.16342844 0.83875006 0
-0.013762622 0.16342844 0.84125006 0
-0.013762622 0.16592844 0.84125006 1.7419569e-38
-0.016262623 0.16592844 0.84375006 0
-0.013762622 0.16342844 0.84375006 1.7234819e-38
-0.013762622 0.16592844 0.84375006 1.7234819e-38
-0.011262623 0.15842843 0.83875006 1.6777081e-38
-0.011262623 0.16092844 0.83875006 1.760216e-38
-0.0087626223 0.15842843 0.83875006 2.221266e-38
-0.0087626223 0.16092844 0.83875006 2.2397407e-38
-0.011262623 0.15842843 0.84375006 2.2120465e-38
-0.011262623 0.16092844 0.84375006 2.2213013e-38
-0.0087626223 0.16092844 0.84375006 2.2213013e-38
-0.011262623 0.16342844 0.83875006 2.2304856e-38
-0.011262623 0.16342844 0.84125006 2.2212663e-38
-0.0087626223 0.16342844 0.83875006 2.221266e-38
-0.0087626223 0.16342844 0.84125006 2.1843882e-38
-0.011262623 0.16342844 0.84375006 2.2029701e-38
-0.011262623 0.16592844 0.84375006 2.2119743e-38
-0.0087626223 0.16342844 0.84375006 2.1936796e-38
-0.0087626223 0.16592844 0.84375006 2.2028622e-38
-0.026262622 0.16842844 0.83875006 0
-0.026262622 0.16842844 0.84125006 0
-0.026262622 0.17092843 0.83875006 0
-0.026262622 0.17092843 0.84125006 0
-0.023762623 0.16842844 0.83875006 0
-0.023762623 0.16842844 0.84125006 5.6051939e-45
-0.023762623 0.17092843 0.83875006 0
-0.023762623 0.17092843 0.84125006 9.18397e-41
-0.026262622 0.16842844 0.84375006 0
-0.026262622 0.17092843 0.84375006 0
-0.023762623 0.16842844 0.84375006 0
-0.023762623 0.17092843 0.84375006 0
-0.026262622 0.17342843 0.84125006 0
-0.023762623 0.17342843 0.83875006 0
-0.023762623 0.17342843 0.84125006 1.4012985e-45
-0.023762623 0.17592844 0.84125006 4.2038954e-45
-0.026262622 0.17342843 0.84375006 0
-0.026262622 0.17342843 0.84625006 0
-0.026262622 0.17592844 0.84375006 0
-0.026262622 0.17592844 0.84625006 0
-0.023762623 0.17342843 0.84375006 0
-0.023762623 0.17592844 0.84375006 9.18397e-41
-0.021262623 0.16842844 0.83875006 1.7506576e-39
-0.021262623 0.16842844 0.84125006 2.0258053e-39
-0.021262623 0.17092843 0.83875006 1.9357579e-39
-0.021262623 0.17092843 0.84125006 2.1176324e-39
-0.018762622 0.16842844 0.83875006 2.118689e-39
-0.018762622 0.16842844 0.84125006 2.3949158e-39
-0.018762622 0.17092843 0.83875006 2.118689e-39
-0.018762622 0.17092843 0.84125006 2.4871114e-39
-0.021262623 0.16842844 0.84375006 1.5651775e-39
-0.021262623 0.17092843 0.84375006 1.7510079e-39
-0.018762622 0.16842844 0.84375006 2.3949158e-39
-0.018762622 0.17092843 0.84375006 2.3949158e-39
-0.021262623 0.17342843 0.83875006 2.1176324e-39
-0.021262623 0.17342843 0.84125006 1.7510079e-39
-0.021262623 0.17592844 0.84125006 2.4864135e-39
-0.018762622 0.17342843 0.84125006 2.4871114e-39
-0.018762622 0.17592844 0.84125006 2.395622e-39
-0.021262623 0.17342843 0.84375006 2.3016636e-39
-0.021262623 0.17592844 0.84375006 2.0261557e-39
-0.018762622 0.17342843 0.84375006 2.6722089e-39
-0.018762622 0.17592844 0.84375006 2.395622e-39
-0.023762623 0.17842844 0.84125006 4.2038954e-45
-0.026262622 0.17842844 0.84375006 0
-0.026262622 0.17842844 0.84625006 0
-0.026262622 0.18092844 0.84375006 0
-0.026262622 0.18092844 0.84625006 0
-0.023762623 0.17842844 0.84375006 0
-0.023762623 0.17842844 0.84625006 0
-0.023762623 0.18092844 0.84375006 0
-0.023762623 0.18092844 0.84625006 0
-0.026262622 0.18342844 0.84625006 0
-0.023762623 0.18342844 0.84375006 9.18397e-41
-0.023762623 0.18342844 0.84625006 1.4012985e-45
-0.023762623 0.18592843 0.84375006 0
-0.023762623 0.18592843 0.84625006 0
-0.021262623 0.17842844 0.84125006 2.1176324e-39
-0.018762622 0.17842844 0.84125006 2.4871114e-39
-0.021262623 0.17842844 0.84375006 2.1183513e-39
-0.021262623 0.18092844 0.84375006 1.8435623e-39
-0.021262623 0.18092844 0.84625006 2.395622e-39
-0.018762622 0.17842844 0.84375006 2.3027201e-39
-0.018762622 0.18092844 0.84375006 2.3949158e-39
-0.018762622 0.18092844 0.84625006 2.395622e-39
-0.021262623 0.18342844 0.84375006 2.1176324e-39
-0.021262623 0.18342844 0.84625006 2.3030677e-39
-0.021262623 0.18592843 0.84375006 1.8435623e-39
-0.021262623 0.18592843 0.84625006 1.6609479e-39
-0.018762622 0.18342844 0.84375006 2.0290101e-39
-0.018762622 0.18342844 0.84625006 2.395622e-39
-0.018762622 0.18592843 0.84375006 1.9368145e-39
-0.018762622 0.18592843 0.84625006 1.9371746e-39
-0.026262622 0.17842844 0.84875005 0
-0.026262622 0.18092844 0.84875005 0
-0.023762623 0.18092844 0.84875005 0
-0.026262622 0.18342844 0.84875005 0
-0.026262622 0.18342844 0.85125005 0
-0.026262622 0.18592843 0.84875005 0
-0.026262622 0.18592843 0.85125005 0
-0.023762623 0.18342844 0.84875005 0
-0.023762623 0.18592843 0.84875005 0
-0.023762623 0.18592843 0.85125005 0
-0.026262622 0.18592843 0.85375005 0
-0.021262623 0.18342844 0.84875005 2.395622e-39
-0.021262623 0.18592843 0.84875005 1.7520645e-39
-0.021262623 0.18592843 0.85125005 2.395622e-39
-0.018762622 0.18342844 0.84875005 2.4878176e-39
-0.018762622 0.18592843 0.84875005 1.9368145e-39
-0.016262623 0.16842844 0.84125006 2.6708048e-39
-0.016262623 0.17092843 0.84125006 2.5786092e-39
-0.013762622 0.17092843 0.84125006 1.6221026e-38
-0.016262623 0.16842844 0.84375006 0
-0.016262623 0.17092843 0.84375006 0
