# .PCD v0.7 - Point Cloud Data file format
VERSION 0.7
FIELDS x y z rgb
SIZE 4 4 4 4
TYPE F F F F
COUNT 1 1 1 1
WIDTH 1113
HEIGHT 1
VIEWPOINT 0 0 0 1 0 0 0
POINTS 1113
DATA ascii
0.078628801 0.18295328 0.83925003 1.9289042e-39
0.078628801 0.18545328 0.83675003 1.8402972e-39
0.078628801 0.18545328 0.83925003 7.361189e-40
0.076128803 0.18295328 0.84175003 4.237392e-39
0.076128803 0.18545328 0.84175003 3.1321333e-39
0.078628801 0.18545328 0.84175003 1.1960251e-39
0.081128806 0.16795328 0.82675004 6.4287089e-40
0.081128806 0.16795328 0.82925004 4.5917748e-40
0.081128806 0.17045328 0.82925004 4.5917748e-40
0.083628803 0.16795328 0.82925004 3.6734198e-40
0.083628803 0.17045328 0.82925004 6.4285128e-40
0.081128806 0.16795328 0.83175004 6.4287089e-40
0.081128806 0.17045328 0.83175004 7.3504691e-40
0.083628803 0.16795328 0.83175004 6.4284847e-40
0.083628803 0.17045328 0.83175004 7.3504691e-40
0.081128806 0.17295328 0.82925004 7.3504691e-40
0.083628803 0.17295328 0.82925004 7.3504691e-40
0.081128806 0.17295328 0.83175004 7.3504691e-40
0.081128806 0.17545329 0.83175004 8.2689361e-40
0.081128806 0.17545329 0.83425003 7.3469798e-40
0.083628803 0.17295328 0.83175004 7.3504691e-40
0.083628803 0.17545329 0.83175004 1.0112751e-39
0.083628803 0.17545329 0.83425003 1.7491988e-39
0.086128801 0.16795328 0.82925004 4.5917748e-40
0.086128801 0.17045328 0.82925004 6.4284847e-40
0.088628806 0.16795328 0.82925004 4.5917748e-40
0.088628806 0.17045328 0.82925004 4.2038954e-45
0.086128801 0.16795328 0.83175004 1.4726133e-39
0.086128801 0.17045328 0.83175004 7.3504691e-40
0.088628806 0.16795328 0.83175004 9.1835496e-41
0.088628806 0.17045328 0.83175004 0
0.086128801 0.17295328 0.82925004 6.4285128e-40
0.088628806 0.17295328 0.82925004 7.3576017e-40
0.086128801 0.17295328 0.83175004 7.3504691e-40
0.086128801 0.17545329 0.83175004 1.011631e-39
0.086128801 0.17545329 0.83425003 1.011631e-39
0.088628806 0.17295328 0.83175004 3.5873241e-43
0.088628806 0.17295328 0.83425003 3.6734198e-40
0.088628806 0.17545329 0.83175004 4.5917748e-40
0.088628806 0.17545329 0.83425003 3.6734198e-40
0.081128806 0.17795329 0.83175004 1.4697267e-39
0.081128806 0.17795329 0.83425003 8.2689641e-40
0.081128806 0.18045329 0.83425003 1.5612203e-39
0.083628803 0.17795329 0.83175004 8.2724394e-40
0.083628803 0.17795329 0.83425003 8.2724394e-40
0.083628803 0.18045329 0.83425003 7.3504691e-40
0.081128806 0.18295328 0.83425003 1.0109247e-39
0.083628803 0.18295328 0.83425003 1.1960251e-39
0.086128801 0.17795329 0.83175004 6.4285128e-40
0.086128801 0.17795329 0.83425003 7.3469798e-40
0.086128801 0.18045329 0.83425003 8.2759987e-40
0.088628806 0.17795329 0.83425003 7.3576017e-40
0.088628806 0.18045329 0.83425003 0
0.086128801 0.18295328 0.83425003 8.279544e-40
0.081128806 0.17795329 0.83675003 7.3504691e-40
0.081128806 0.18045329 0.83675003 1.6530571e-39
0.083628803 0.18045329 0.83675003 1.011631e-39
0.081128806 0.18295328 0.83675003 1.6534075e-39
0.081128806 0.18295328 0.83925003 1.3775366e-39
0.081128806 0.18545328 0.83675003 1.6534075e-39
0.081128806 0.18545328 0.83925003 1.6541151e-39
0.083628803 0.18295328 0.83675003 1.6534075e-39
0.083628803 0.18545328 0.83675003 1.0112751e-39
0.083628803 0.18545328 0.83925003 1.1041783e-39
0.081128806 0.18545328 0.84175003 1.3775324e-39
0.086128801 0.18045329 0.83675003 7.350441e-40
0.088628806 0.17795329 0.83675003 6.4284847e-40
0.088628806 0.18045329 0.83675003 7.3576017e-40
0.088628806 0.18045329 0.83925003 8.279544e-40
0.086128801 0.18295328 0.83675003 7.350441e-40
0.086128801 0.18545328 0.83675003 1.011631e-39
0.086128801 0.18545328 0.83925003 1.1038294e-39
0.088628806 0.18295328 0.83675003 4.5917748e-40
0.088628806 0.18295328 0.83925003 3.6734198e-40
0.088628806 0.18545328 0.83925003 7.3576017e-40
0.086128801 0.18545328 0.84175003 2.3909725e-39
0.088628806 0.18545328 0.84175003 1.0112751e-39
0.091128804 0.14795329 0.82175004 0
0.091128804 0.14795329 0.82425004 0
0.091128804 0.15045328 0.82175004 0
0.091128804 0.15045328 0.82425004 0
0.093628801 0.14795329 0.82425004 0
0.091128804 0.15295328 0.82175004 0
0.091128804 0.15295328 0.82425004 0
0.091128804 0.15545328 0.82175004 9.1835496e-41
0.091128804 0.15545328 0.82425004 9.1835496e-41
0.091128804 0.15795328 0.82425004 0
0.091128804 0.14795329 0.82675004 0
0.091128804 0.15045328 0.82675004 0
0.093628801 0.14795329 0.82675004 0
0.093628801 0.14795329 0.82925004 0
0.093628801 0.15045328 0.82675004 0
0.093628801 0.15045328 0.82925004 0
0.093628801 0.14795329 0.83175004 0
0.093628801 0.14795329 0.83425003 0
0.093628801 0.15045328 0.83175004 0
0.091128804 0.15295328 0.82925004 0
0.091128804 0.15545328 0.82675004 9.1835496e-41
0.091128804 0.15545328 0.82925004 9.1835496e-41
0.093628801 0.15295328 0.83175004 0
0.093628801 0.15295328 0.83425003 0
0.093628801 0.15545328 0.83175004 0
0.093628801 0.15545328 0.83425003 0
0.096128799 0.14795329 0.82925004 0
0.096128799 0.14795329 0.83175004 0
0.096128799 0.14795329 0.83425003 0
0.096128799 0.15045328 0.83175004 0
0.096128799 0.15045328 0.83425003 0
0.098628804 0.14795329 0.83425003 0
0.098628804 0.15045328 0.83425003 0
0.096128799 0.15295328 0.83425003 0
0.093628801 0.15545328 0.83675003 0
0.096128799 0.14795329 0.83675003 0
0.096128799 0.15045328 0.83675003 0
0.098628804 0.14795329 0.83675003 0
0.098628804 0.15045328 0.83675003 0
0.098628804 0.15045328 0.83925003 0
0.096128799 0.15295328 0.83675003 0
0.096128799 0.15295328 0.83925003 0
0.096128799 0.15545328 0.83675003 0
0.096128799 0.15545328 0.83925003 0
0.098628804 0.15295328 0.83675003 0
0.098628804 0.15295328 0.83925003 0
0.098628804 0.15545328 0.83675003 0
0.098628804 0.15545328 0.83925003 0
0.096128799 0.15545328 0.84175003 0
0.098628804 0.15295328 0.84175003 0
0.098628804 0.15545328 0.84175003 0
0.091128804 0.15795328 0.82675004 0
0.091128804 0.15795328 0.82925004 0
0.091128804 0.16045329 0.82675004 9.1835496e-41
0.091128804 0.16045329 0.82925004 0
0.091128804 0.16045329 0.83175004 0
0.091128804 0.16045329 0.83425003 0
0.093628801 0.15795328 0.83175004 0
0.093628801 0.15795328 0.83425003 0
0.093628801 0.16045329 0.83175004 0
0.093628801 0.16045329 0.83425003 0
0.091128804 0.16295329 0.82925004 0
0.091128804 0.16545328 0.82925004 0
0.091128804 0.16295329 0.83175004 0
0.091128804 0.16295329 0.83425003 0
0.091128804 0.16545328 0.83175004 0
0.091128804 0.16545328 0.83425003 0
0.093628801 0.15795328 0.83675003 0
0.093628801 0.15795328 0.83925003 0
0.093628801 0.16045329 0.83675003 0
0.093628801 0.16045329 0.83925003 0
0.091128804 0.16295329 0.83675003 0
0.091128804 0.16295329 0.83925003 0
0.091128804 0.16545328 0.83675003 0
0.093628801 0.16295329 0.83675003 0
0.093628801 0.16295329 0.83925003 0
0.093628801 0.16545328 0.83675003 0
0.093628801 0.16545328 0.83925003 0
0.091128804 0.16295329 0.84175003 0
0.093628801 0.16295329 0.84175003 0
0.093628801 0.16545328 0.84175003 0
0.096128799 0.15795328 0.83675003 0
0.096128799 0.15795328 0.83925003 0
0.096128799 0.16045329 0.83925003 0
0.098628804 0.15795328 0.83675003 0
0.098628804 0.15795328 0.83925003 0
0.098628804 0.16045329 0.83675003 0
0.098628804 0.16045329 0.83925003 0
0.096128799 0.15795328 0.84175003 0
0.096128799 0.16045329 0.84175003 0
0.098628804 0.15795328 0.84175003 0
0.098628804 0.16045329 0.84175003 0
0.098628804 0.16295329 0.83675003 0
0.098628804 0.16295329 0.83925003 0
0.098628804 0.16545328 0.83925003 0
0.096128799 0.16295329 0.84175003 0
0.096128799 0.16545328 0.84175003 0
0.098628804 0.16295329 0.84175003 0
0.098628804 0.16545328 0.84175003 0
0.1011288 0.14795329 0.82925004 9.18397e-41
0.1036288 0.14795329 0.82925004 0
0.1036288 0.15045328 0.82925004 8.279544e-40
0.1011288 0.14795329 0.83175004 0
0.1011288 0.14795329 0.83425003 0
0.1011288 0.15045328 0.83425003 0
0.1036288 0.14795329 0.83175004 4.5917748e-40
0.1036288 0.15045328 0.83175004 3.6734198e-40
0.1036288 0.15045328 0.83425003 9.1835496e-41
0.1011288 0.15295328 0.83425003 0
0.1011288 0.15545328 0.83425003 0
0.1036288 0.15295328 0.83175004 4.5917748e-40
0.1036288 0.15295328 0.83425003 4.5917748e-40
0.1036288 0.15545328 0.83175004 9.3629158e-41
0.1036288 0.15545328 0.83425003 3.6734198e-40
0.1061288 0.14795329 0.82675004 4.5917748e-40
0.1061288 0.14795329 0.82925004 1.8367099e-40
0.1061288 0.15045328 0.82925004 4.5917748e-40
0.1086288 0.14795329 0.82675004 0
0.1086288 0.14795329 0.82925004 0
0.1086288 0.15045328 0.82925004 0
0.1061288 0.14795329 0.83175004 3.6734198e-40
0.1061288 0.15045328 0.83175004 8.2651947e-40
0.1086288 0.15045328 0.83175004 0
0.1061288 0.15295328 0.82925004 4.5917748e-40
0.1061288 0.15545328 0.82925004 0
0.1086288 0.15295328 0.82925004 0
0.1086288 0.15545328 0.82925004 0
0.1061288 0.15295328 0.83175004 1.0101905e-39
0.1061288 0.15545328 0.83175004 1.0101905e-39
0.1086288 0.15295328 0.83175004 0
0.1086288 0.15545328 0.83175004 0
0.1011288 0.14795329 0.83675003 0
0.1011288 0.15045328 0.83675003 0
0.1011288 0.15045328 0.83925003 0
0.1011288 0.15295328 0.83675003 0
0.1011288 0.15295328 0.83925003 0
0.1011288 0.15545328 0.83675003 0
0.1011288 0.15795328 0.83425003 0
0.1011288 0.16045329 0.83425003 0
0.1036288 0.15795328 0.83175004 7.3576017e-40
0.1036288 0.15795328 0.83425003 6.4320721e-40
0.1036288 0.16045329 0.83175004 7.350441e-40
0.1036288 0.16045329 0.83425003 6.4284847e-40
0.1011288 0.16295329 0.83425003 0
0.1036288 0.16295329 0.83175004 6.4320721e-40
0.1036288 0.16295329 0.83425003 4.5917748e-40
0.1036288 0.16545328 0.83175004 1.8582339e-40
0.1036288 0.16545328 0.83425003 9.3629158e-41
0.1061288 0.15795328 0.82925004 0
0.1061288 0.16045329 0.82925004 0
0.1086288 0.15795328 0.82925004 0
0.1086288 0.16045329 0.82925004 0
0.1061288 0.15795328 0.83175004 0
0.1061288 0.15795328 0.83425003 6.4320721e-40
0.1061288 0.16045329 0.83175004 7.3576017e-40
0.1061288 0.16045329 0.83425003 8.279544e-40
0.1086288 0.15795328 0.83175004 0
0.1086288 0.15795328 0.83425003 0
0.1086288 0.16045329 0.83175004 0
0.1086288 0.16045329 0.83425003 0
0.1061288 0.16295329 0.83175004 0
0.1061288 0.16295329 0.83425003 3.6734198e-40
0.1061288 0.16545328 0.83175004 0
0.1061288 0.16545328 0.83425003 7.3504691e-40
0.1086288 0.16295329 0.83175004 0
0.1086288 0.16295329 0.83425003 0
0.1086288 0.16545328 0.83175004 0
0.1086288 0.16545328 0.83425003 0
0.1011288 0.15795328 0.83675003 0
0.1011288 0.15795328 0.83925003 0
0.1011288 0.16045329 0.83675003 0
0.1011288 0.16045329 0.83925003 0
0.1036288 0.16045329 0.83675003 3.6734198e-40
0.1011288 0.16295329 0.83675003 0
0.1011288 0.16295329 0.83925003 0
0.1011288 0.16545328 0.83675003 0
0.1011288 0.16545328 0.83925003 0
0.1036288 0.16295329 0.83675003 7.361189e-40
0.1036288 0.16545328 0.83675003 7.3576017e-40
0.1011288 0.16545328 0.84175003 0
0.1061288 0.16545328 0.83675003 7.3504691e-40
0.1086288 0.16545328 0.83675003 0
0.091128804 0.16795328 0.82925004 0
0.091128804 0.17045328 0.82925004 0
0.091128804 0.16795328 0.83175004 0
0.091128804 0.16795328 0.83425003 0
0.091128804 0.17045328 0.83175004 0
0.091128804 0.17045328 0.83425003 0
0.091128804 0.17295328 0.82925004 9.1835496e-41
0.091128804 0.17295328 0.83175004 0
0.091128804 0.17295328 0.83425003 0
0.091128804 0.17545329 0.83175004 0
0.091128804 0.17545329 0.83425003 9.1835496e-41
0.093628801 0.17545329 0.83175004 0
0.091128804 0.17045328 0.83675003 0
0.093628801 0.16795328 0.83675003 0
0.093628801 0.16795328 0.83925003 0
0.093628801 0.17045328 0.83675003 0
0.093628801 0.17045328 0.83925003 0
0.093628801 0.16795328 0.84175003 0
0.093628801 0.17045328 0.84175003 0
0.091128804 0.17295328 0.83675003 0
0.091128804 0.17545329 0.83675003 0
0.091128804 0.17545329 0.83925003 0
0.093628801 0.17295328 0.83675003 0
0.093628801 0.17295328 0.83925003 0
0.093628801 0.17545329 0.83675003 0
0.093628801 0.17545329 0.83925003 0
0.091128804 0.17295328 0.84175003 1.8367099e-40
0.091128804 0.17545329 0.84175003 1.4012985e-45
0.093628801 0.17295328 0.84175003 0
0.093628801 0.17295328 0.84425008 0
0.093628801 0.17545329 0.84175003 0
0.093628801 0.17545329 0.84425008 0
0.098628804 0.16795328 0.83925003 0
0.098628804 0.17045328 0.83925003 0
0.096128799 0.16795328 0.84175003 0
0.096128799 0.16795328 0.84425008 0
0.096128799 0.17045328 0.84175003 0
0.096128799 0.17045328 0.84425008 0
0.098628804 0.16795328 0.84175003 0
0.098628804 0.17045328 0.84175003 0
0.098628804 0.17045328 0.84425008 0
0.096128799 0.17295328 0.84175003 0
0.096128799 0.17295328 0.84425008 0
0.096128799 0.17545329 0.84175003 0
0.096128799 0.17545329 0.84425008 0
0.098628804 0.17295328 0.84175003 0
0.098628804 0.17295328 0.84425008 0
0.098628804 0.17545329 0.84175003 0
0.098628804 0.17545329 0.84425008 0
0.091128804 0.17795329 0.83425003 9.1835496e-41
0.091128804 0.17795329 0.83675003 0
0.091128804 0.17795329 0.83925003 0
0.091128804 0.18045329 0.83675003 0
0.091128804 0.18045329 0.83925003 0
0.091128804 0.17795329 0.84175003 3.6734198e-40
0.091128804 0.18045329 0.84175003 0
0.093628801 0.17795329 0.84175003 0
0.093628801 0.17795329 0.84425008 0
0.093628801 0.18045329 0.84175003 0
0.093628801 0.18045329 0.84425008 0
0.091128804 0.18295328 0.83925003 0
0.091128804 0.18545328 0.83925003 9.18397e-41
0.091128804 0.18295328 0.84175003 0
0.091128804 0.18545328 0.84175003 0
0.093628801 0.18295328 0.84175003 0
0.093628801 0.18295328 0.84425008 0
0.093628801 0.18545328 0.84425008 0
0.096128799 0.17795329 0.84425008 0
0.098628804 0.17795329 0.84425008 0
0.1036288 0.16795328 0.83425003 4.6132988e-40
0.1086288 0.16795328 0.83425003 0
0.1011288 0.16795328 0.83675003 0
0.1011288 0.16795328 0.83925003 9.3629158e-41
0.1011288 0.17045328 0.83675003 0
0.1011288 0.17045328 0.83925003 3.6734198e-40
0.1036288 0.16795328 0.83675003 4.5917748e-40
0.1036288 0.17045328 0.83675003 1.8582339e-40
0.1036288 0.17045328 0.83925003 6.4284847e-40
0.1011288 0.16795328 0.84175003 0
0.1011288 0.17045328 0.84175003 9.1835496e-41
0.1036288 0.16795328 0.84175003 2.7550649e-40
0.1036288 0.17045328 0.84175003 3.5873241e-43
0.1011288 0.17295328 0.83925003 7.1746481e-43
0.1011288 0.17545329 0.83925003 7.3576017e-40
0.1036288 0.17295328 0.83675003 8.279544e-40
0.1036288 0.17295328 0.83925003 6.4284847e-40
0.1036288 0.17545329 0.83925003 1.1038294e-39
0.1011288 0.17295328 0.84175003 4.5917748e-40
0.1011288 0.17295328 0.84425008 0
0.1011288 0.17545329 0.84175003 9.1835496e-41
0.1011288 0.17545329 0.84425008 0
0.1036288 0.17295328 0.84175003 4.5917748e-40
0.1036288 0.17545329 0.84175003 8.279544e-40
0.1061288 0.16795328 0.83675003 4.6097815e-40
0.1061288 0.16795328 0.83925003 8.2724394e-40
0.1061288 0.17045328 0.83675003 8.2724394e-40
0.1061288 0.17045328 0.83925003 1.011631e-39
0.1086288 0.16795328 0.83675003 0
0.1086288 0.16795328 0.83925003 0
0.1086288 0.17045328 0.83675003 0
0.1086288 0.17045328 0.83925003 0
0.1061288 0.17295328 0.83675003 7.3576017e-40
0.1061288 0.17295328 0.83925003 7.350441e-40
0.1061288 0.17545329 0.83925003 8.2689361e-40
0.1086288 0.17295328 0.83675003 0
0.1086288 0.17295328 0.83925003 0
0.1086288 0.17545329 0.83675003 0
0.1086288 0.17545329 0.83925003 0
0.1061288 0.17295328 0.84175003 4.6097815e-40
0.1061288 0.17545329 0.84175003 1.2882179e-39
0.1086288 0.17545329 0.84175003 0
0.1036288 0.17795329 0.83925003 8.2724394e-40
0.1011288 0.17795329 0.84175003 3.6734198e-40
0.1011288 0.17795329 0.84425008 9.1835496e-41
0.1011288 0.18045329 0.84425008 1.8367099e-40
0.1036288 0.17795329 0.84175003 8.279544e-40
0.1036288 0.18045329 0.84175003 8.2724394e-40
0.1036288 0.18045329 0.84425008 1.0119841e-39
0.1011288 0.18295328 0.84425008 7.361189e-40
0.1011288 0.18545328 0.84425008 6.4320721e-40
0.1036288 0.18295328 0.84175003 1.1041783e-39
0.1036288 0.18295328 0.84425008 1.0119841e-39
0.1036288 0.18545328 0.84175003 2.6679055e-39
0.1036288 0.18545328 0.84425008 1.1041783e-39
0.1061288 0.17795329 0.83925003 1.1038294e-39
0.1086288 0.17795329 0.83925003 0
0.1061288 0.17795329 0.84175003 1.2882179e-39
0.1061288 0.18045329 0.84175003 1.2882179e-39
0.1086288 0.17795329 0.84175003 0
0.1086288 0.18045329 0.84175003 0
0.1086288 0.18045329 0.84425008 0
0.1061288 0.18295328 0.84175003 1.2882179e-39
0.1061288 0.18295328 0.84425008 1.1963726e-39
0.1061288 0.18545328 0.84175003 2.4828206e-39
0.1061288 0.18545328 0.84425008 1.3811226e-39
0.1086288 0.18295328 0.84175003 0
0.1086288 0.18295328 0.84425008 0
0.1086288 0.18545328 0.84175003 0
0.1086288 0.18545328 0.84425008 0
0.1111288 0.11545328 0.81425005 9.7619314e-39
0.1136288 0.11545328 0.81425005 2.1562972e-38
0.1111288 0.11295328 0.81925005 1.456154e-38
0.1111288 0.11545328 0.81675005 1.382575e-38
0.1111288 0.11545328 0.81925005 1.1522286e-38
0.1136288 0.11295328 0.81925005 1.5295492e-38
0.1136288 0.11545328 0.81675005 2.0921163e-38
0.1136288 0.11545328 0.81925005 1.8249289e-38
0.1111288 0.11295328 0.82175004 1.2718308e-38
0.1111288 0.11545328 0.82175004 1.4378555e-38
0.1136288 0.11545328 0.82175004 1.5664625e-38
0.1161288 0.11545328 0.81675005 2.0641729e-38
0.1161288 0.11545328 0.81925005 1.8613069e-38
0.1161288 0.11545328 0.82175004 1.8796736e-38
0.1111288 0.11795329 0.81175005 1.2069714e-38
0.1111288 0.11795329 0.81425005 8.4747532e-39
0.1111288 0.12045328 0.81175005 1.1789522e-38
0.1111288 0.12045328 0.81425005 1.1421828e-38
0.1136288 0.11795329 0.81175005 2.1566224e-38
0.1136288 0.11795329 0.81425005 1.9077971e-38
0.1136288 0.12045328 0.81175005 1.9073327e-38
0.1136288 0.12045328 0.81425005 1.9350652e-38
0.1111288 0.12295328 0.81175005 1.2806911e-38
0.1111288 0.12295328 0.81425005 1.2529255e-38
0.1111288 0.12545328 0.81175005 1.2715081e-38
0.1111288 0.12545328 0.81425005 6.8235528e-39
0.1136288 0.12295328 0.81175005 1.8891822e-38
0.1136288 0.12295328 0.81425005 1.8982949e-38
0.1136288 0.12545328 0.81175005 1.8704538e-38
0.1136288 0.12545328 0.81425005 1.8524136e-38
0.1161288 0.12045328 0.81425005 1.8798532e-38
0.1161288 0.12295328 0.81425005 1.8889652e-38
0.1161288 0.12545328 0.81425005 1.8612342e-38
0.1111288 0.11795329 0.81675005 0
0.1111288 0.11795329 0.81925005 0
0.1111288 0.12045328 0.81675005 4.6097815e-40
0.1136288 0.11795329 0.81675005 8.6602207e-39
0.1136288 0.11795329 0.81925005 1.8985771e-38
0.1136288 0.12045328 0.81675005 1.8891842e-38
0.1136288 0.12045328 0.81925005 1.8984396e-38
0.1136288 0.11795329 0.82175004 1.8708154e-38
0.1111288 0.12545328 0.81675005 8.2976067e-39
0.1136288 0.12545328 0.81675005 1.8524489e-38
0.1161288 0.11795329 0.81675005 1.8982203e-38
0.1161288 0.11795329 0.81925005 1.9257714e-38
0.1161288 0.12045328 0.81675005 1.8798888e-38
0.1161288 0.12045328 0.81925005 1.8981485e-38
0.1161288 0.11795329 0.82175004 1.8981847e-38
0.1161288 0.12545328 0.81675005 2.1100905e-38
0.1161288 0.12545328 0.81925005 1.8797089e-38
0.1111288 0.12795329 0.81425005 1.3361536e-38
0.1136288 0.12795329 0.81425005 1.833974e-38
0.1111288 0.12795329 0.81675005 7.929899e-39
0.1111288 0.12795329 0.81925005 9.1280834e-39
0.1111288 0.13045329 0.81925005 1.0510302e-38
0.1136288 0.12795329 0.81675005 1.8247547e-38
0.1136288 0.12795329 0.81925005 1.34523e-38
0.1136288 0.13045329 0.81925005 1.7878745e-38
0.1136288 0.12795329 0.82175004 1.8246473e-38
0.1136288 0.13045329 0.82175004 1.7969882e-38
0.1111288 0.13295329 0.81675005 1.1154952e-38
0.1111288 0.13295329 0.81925005 1.0879082e-38
0.1111288 0.13545328 0.81675005 1.3734984e-38
0.1111288 0.13545328 0.81925005 1.1524451e-38
0.1136288 0.13295329 0.81925005 1.7878036e-38
0.1136288 0.13545328 0.81925005 1.7694008e-38
0.1111288 0.13295329 0.82175004 1.0879082e-38
0.1111288 0.13545328 0.82175004 1.1800319e-38
0.1136288 0.13295329 0.82175004 1.8155334e-38
0.1136288 0.13545328 0.82175004 1.8062785e-38
0.1161288 0.12795329 0.81925005 1.8521222e-38
0.1161288 0.13045329 0.81925005 1.8243566e-38
0.1161288 0.12795329 0.82175004 1.8704187e-38
0.1161288 0.13045329 0.82175004 1.8611273e-38
0.1161288 0.13295329 0.81925005 1.8151015e-38
0.1161288 0.13545328 0.81925005 1.7875503e-38
0.1161288 0.13295329 0.82175004 1.8243566e-38
0.1161288 0.13545328 0.82175004 1.79677e-38
0.1111288 0.13795328 0.81925005 1.1984709e-38
0.1136288 0.13795328 0.81925005 1.723267e-38
0.1111288 0.13795328 0.82175004 1.2446407e-38
0.1111288 0.13795328 0.82425004 1.4105208e-38
0.1111288 0.14045328 0.82175004 0
0.1111288 0.14045328 0.82425004 0
0.1136288 0.13795328 0.82175004 1.7325218e-38
0.1136288 0.13795328 0.82425004 1.9444621e-38
0.1136288 0.14045328 0.82175004 1.7694361e-38
0.1136288 0.14045328 0.82425004 1.9354245e-38
0.1111288 0.14295328 0.82425004 0
0.1161288 0.13795328 0.81925005 1.769039e-38
0.1161288 0.13795328 0.82175004 1.7691459e-38
0.1161288 0.13795328 0.82425004 2.0087109e-38
0.1161288 0.14045328 0.82425004 1.9815225e-38
0.1111288 0.14045328 0.82675004 1.3091777e-38
0.1136288 0.14045328 0.82675004 1.7509611e-38
0.1111288 0.14295328 0.82675004 0
0.1111288 0.14295328 0.82925004 0
0.1111288 0.14545329 0.82675004 0
0.1111288 0.14545329 0.82925004 0
0.1136288 0.14295328 0.82675004 1.9723381e-38
0.1136288 0.14295328 0.82925004 1.7602881e-38
0.1136288 0.14545329 0.82925004 1.4289601e-38
0.1111288 0.14545329 0.83175004 0
0.1136288 0.14295328 0.83175004 1.8063491e-38
0.1136288 0.14545329 0.83175004 1.4751676e-38
0.1161288 0.14045328 0.82675004 1.7970588e-38
0.1161288 0.14295328 0.82675004 1.953899e-38
0.1161288 0.14295328 0.82925004 1.7325216e-38
0.1161288 0.14545329 0.82925004 1.6219591e-38
0.1161288 0.14295328 0.83175004 1.7141906e-38
0.1161288 0.14545329 0.83175004 1.6218872e-38
0.1186288 0.14295328 0.83175004 1.9810163e-38
0.1111288 0.14795329 0.82925004 3.5032462e-44
0.1111288 0.15045328 0.82925004 3.3119003e-39
0.1136288 0.14795329 0.82925004 2.0460946e-38
0.1136288 0.15045328 0.82925004 2.0277271e-38
0.1111288 0.14795329 0.83175004 1.2857558e-39
0.1111288 0.15045328 0.83175004 3.9547515e-39
0.1136288 0.14795329 0.83175004 2.0460573e-38
0.1136288 0.15045328 0.83175004 2.0459864e-38
0.1111288 0.15295328 0.82925004 7.0933224e-39
0.1111288 0.15545328 0.82925004 9.0287075e-39
0.1136288 0.15295328 0.82925004 2.0552416e-38
0.1136288 0.15545328 0.82925004 2.0460966e-38
0.1111288 0.15295328 0.83175004 6.9082263e-39
0.1111288 0.15545328 0.83175004 8.5673735e-39
0.1111288 0.15545328 0.83425003 9.1191053e-39
0.1136288 0.15295328 0.83175004 2.082828e-38
0.1136288 0.15545328 0.83175004 2.0643893e-38
0.1136288 0.15545328 0.83425003 2.0643559e-38
0.1161288 0.14795329 0.82925004 1.9170209e-38
0.1161288 0.15045328 0.82925004 1.8802501e-38
0.1161288 0.14795329 0.83175004 1.6219947e-38
0.1161288 0.15045328 0.83175004 1.9354226e-38
0.1161288 0.15295328 0.82925004 1.8802501e-38
0.1161288 0.15545328 0.82925004 2.193535e-38
0.1161288 0.15295328 0.83175004 1.9353877e-38
0.1161288 0.15545328 0.83175004 1.9260961e-38
0.1161288 0.15545328 0.83425003 2.0459145e-38
0.1111288 0.15795328 0.83175004 1.1146333e-38
0.1111288 0.15795328 0.83425003 1.123816e-38
0.1111288 0.16045329 0.83175004 1.2907388e-39
0.1111288 0.16045329 0.83425003 1.1063476e-39
0.1136288 0.15795328 0.83175004 2.0826874e-38
0.1136288 0.15795328 0.83425003 2.0826504e-38
0.1136288 0.16045329 0.83175004 1.9999598e-38
0.1136288 0.16045329 0.83425003 2.0367343e-38
0.1111288 0.16295329 0.83425003 5.9012364e-39
0.1111288 0.16545328 0.83425003 1.3728161e-38
0.1136288 0.16295329 0.83425003 1.9908508e-38
0.1136288 0.16545328 0.83425003 1.9905627e-38
0.1161288 0.15795328 0.83425003 2.0182554e-38
0.1161288 0.16045329 0.83425003 1.9999245e-38
0.1161288 0.16295329 0.83425003 2.2303058e-38
0.1111288 0.16045329 0.83675003 1.1977519e-38
0.1136288 0.16045329 0.83675003 2.0551712e-38
0.1136288 0.16045329 0.83925003 2.0275851e-38
0.1111288 0.16295329 0.83675003 1.2992381e-38
0.1111288 0.16545328 0.83675003 1.3730315e-38
0.1136288 0.16295329 0.83675003 1.999889e-38
0.1136288 0.16295329 0.83925003 1.4557927e-38
0.1136288 0.16545328 0.83675003 1.9538639e-38
0.1161288 0.16045329 0.83675003 2.027439e-38
0.1111288 0.16795328 0.83675003 1.3914354e-38
0.1111288 0.16795328 0.83925003 9.3128334e-39
0.1111288 0.17045328 0.83675003 1.0142595e-38
0.1111288 0.17045328 0.83925003 1.0326987e-38
0.1136288 0.16795328 0.83675003 1.9077308e-38
0.1136288 0.16795328 0.83925003 1.9077661e-38
0.1136288 0.17045328 0.83925003 1.4467524e-38
0.1111288 0.17045328 0.84175003 1.0049324e-38
0.1136288 0.16795328 0.84175003 1.6584063e-38
0.1136288 0.17045328 0.84175003 1.4467524e-38
0.1111288 0.17295328 0.83675003 1.5481673e-38
0.1111288 0.17295328 0.83925003 1.0602853e-38
0.1111288 0.17545329 0.83925003 1.1248223e-38
0.1136288 0.17295328 0.83925003 1.8432292e-38
0.1136288 0.17545329 0.83925003 1.5390556e-38
0.1111288 0.17295328 0.84175003 1.0694693e-38
0.1111288 0.17545329 0.84175003 1.1524451e-38
0.1136288 0.17295328 0.84175003 1.5482026e-38
0.1136288 0.17545329 0.84175003 1.6221379e-38
0.1111288 0.17795329 0.83925003 1.1616647e-38
0.1111288 0.17795329 0.84175003 1.1616647e-38
0.1111288 0.18045329 0.84175003 1.2262019e-38
0.1111288 0.18045329 0.84425008 1.1615928e-38
0.1136288 0.17795329 0.84175003 1.6405057e-38
0.1136288 0.17795329 0.84425008 1.6036279e-38
0.1136288 0.18045329 0.84425008 1.6772768e-38
0.1111288 0.18295328 0.84175003 1.2539327e-38
0.1111288 0.18295328 0.84425008 1.3091782e-38
0.1111288 0.18545328 0.84425008 1.3183978e-38
0.096128799 0.10545328 0.84675008 6.3643529e-39
0.0636288 0.11295328 0.84925008 2.1286018e-38
0.0636288 0.11545328 0.84675008 2.1653003e-38
0.0636288 0.11545328 0.84925008 2.1008709e-38
0.0636288 0.11545328 0.85175008 2.1008003e-38
0.068628803 0.11045329 0.84675008 1.9718343e-38
0.066128805 0.11295328 0.84675008 2.1376788e-38
0.066128805 0.11295328 0.84925008 2.1745918e-38
0.066128805 0.11545328 0.84675008 2.147006e-38
0.066128805 0.11545328 0.84925008 2.1745918e-38
0.068628803 0.11295328 0.84675008 1.4374587e-38
0.068628803 0.11295328 0.84925008 1.4741562e-38
0.068628803 0.11545328 0.84925008 1.4923801e-38
0.0636288 0.11795329 0.84675008 2.146969e-38
0.0636288 0.11795329 0.84925008 2.1007633e-38
0.0636288 0.12045328 0.84675008 2.1838473e-38
0.0636288 0.12045328 0.84925008 2.2021782e-38
0.061128803 0.12045328 0.85175008 2.0640298e-38
0.0636288 0.12045328 0.85175008 2.0916156e-38
0.0636288 0.12295328 0.84925008 2.1653723e-38
0.0636288 0.12545328 0.84925008 2.146969e-38
0.061128803 0.12295328 0.85425007 2.0549176e-38
0.0636288 0.12295328 0.85175008 2.0732125e-38
0.0636288 0.12545328 0.85175008 2.0732125e-38
0.066128805 0.11795329 0.84675008 2.1562253e-38
0.066128805 0.12045328 0.84675008 2.1471132e-38
0.066128805 0.12045328 0.84925008 2.0549176e-38
0.066128805 0.11795329 0.85425007 2.1377492e-38
0.066128805 0.12045328 0.85425007 2.1654079e-38
0.066128805 0.12295328 0.84675008 2.1471129e-38
0.066128805 0.12295328 0.84925008 2.0457699e-38
0.066128805 0.12545328 0.84925008 2.0458052e-38
0.066128805 0.12295328 0.85425007 2.0732125e-38
0.068628803 0.13545328 0.85175008 7.3616066e-39
0.066128805 0.13795328 0.84675008 1.8614144e-38
0.066128805 0.14045328 0.84675008 1.8613069e-38
0.068628803 0.13795328 0.84675008 1.0869711e-38
0.068628803 0.13795328 0.84925008 1.2713271e-38
0.068628803 0.14045328 0.84675008 1.0499852e-38
0.066128805 0.14045328 0.85425007 2.0549899e-38
0.066128805 0.14295328 0.84925008 1.7968071e-38
0.066128805 0.14545329 0.84675008 1.8153166e-38
0.068628803 0.14295328 0.84675008 6.4421698e-39
0.068628803 0.14295328 0.84925008 9.3942278e-39
0.068628803 0.14545329 0.84675008 5.7035314e-39
0.068628803 0.14545329 0.84925008 8.7485053e-39
0.066128805 0.14545329 0.85175008 1.713868e-38
0.068628803 0.14295328 0.85175008 5.5184213e-39
0.068628803 0.14545329 0.85175008 8.5651958e-39
0.066128805 0.14545329 0.85675007 1.9906328e-38
0.066128805 0.14795329 0.84675008 1.9720122e-38
0.066128805 0.15045328 0.84675008 2.1012307e-38
0.068628803 0.14795329 0.84675008 5.2404078e-39
0.068628803 0.14795329 0.84925008 6.7162372e-39
0.068628803 0.15045328 0.84675008 3.772828e-39
0.068628803 0.15045328 0.84925008 4.7797758e-39
0.068628803 0.14795329 0.85175008 6.9049458e-39
0.068628803 0.15045328 0.85175008 5.4312423e-39
0.068628803 0.15045328 0.85425007 4.4135128e-39
0.068628803 0.15295328 0.84675008 5.4265759e-39
0.068628803 0.15295328 0.84925008 4.4131653e-39
0.068628803 0.15295328 0.85175008 3.4955208e-39
0.068628803 0.15295328 0.85425007 3.4973075e-39
0.068628803 0.15545328 0.85175008 3.0370608e-39
0.068628803 0.15545328 0.85425007 5.336897e-39
0.066128805 0.14795329 0.85675007 1.8430479e-38
0.066128805 0.15045328 0.85675007 2.0457702e-38
0.068628803 0.15545328 0.85675007 3.588773e-39
0.068628803 0.15795328 0.85175008 3.2218122e-39
0.068628803 0.15795328 0.85425007 5.2450489e-39
0.068628803 0.16045329 0.85425007 4.6043669e-39
0.068628803 0.16295329 0.85425007 4.5139705e-39
0.068628803 0.16545328 0.85425007 4.052642e-39
0.068628803 0.15795328 0.85675007 3.2221597e-39
0.068628803 0.16045329 0.85675007 3.3143553e-39
0.068628803 0.16295329 0.85675007 3.3143553e-39
0.068628803 0.16545328 0.85675007 4.6965625e-39
0.068628803 0.16545328 0.85925007 3.0359692e-39
0.066128805 0.16545328 0.86175007 1.7048243e-38
0.0636288 0.17295328 0.86425006 1.9720511e-38
0.0636288 0.17545329 0.86175007 1.9260971e-38
0.0636288 0.17545329 0.86425006 1.9078012e-38
0.066128805 0.17045328 0.85925007 1.2532119e-38
0.068628803 0.16795328 0.85925007 2.390234e-39
0.068628803 0.17045328 0.85675007 2.4827954e-39
0.068628803 0.17045328 0.85925007 3.0352503e-39
0.066128805 0.16795328 0.86175007 1.382106e-38
0.066128805 0.16795328 0.86425006 1.7784026e-38
0.066128805 0.17045328 0.86175007 1.2900186e-38
0.066128805 0.17045328 0.86425006 1.9721586e-38
0.068628803 0.16795328 0.86175007 2.9423344e-39
0.068628803 0.16795328 0.86425006 1.3915412e-38
0.068628803 0.17045328 0.86175007 3.0348944e-39
0.068628803 0.17045328 0.86425006 1.4836657e-38
0.066128805 0.17295328 0.85925007 1.2070065e-38
0.068628803 0.17295328 0.85675007 3.2196444e-39
0.068628803 0.17295328 0.85925007 4.2337921e-39
0.068628803 0.17545329 0.85925007 3.2200073e-39
0.066128805 0.17295328 0.86175007 1.1888555e-38
0.066128805 0.17295328 0.86425006 1.6679852e-38
0.066128805 0.17545329 0.86175007 1.2162964e-38
0.066128805 0.17545329 0.86425006 1.5480954e-38
0.068628803 0.17295328 0.86175007 2.8530227e-39
0.068628803 0.17295328 0.86425006 3.0356132e-39
0.068628803 0.17545329 0.86175007 2.9452155e-39
0.068628803 0.17545329 0.86425006 1.2162262e-38
0.0636288 0.17795329 0.86175007 1.9351722e-38
0.0636288 0.17795329 0.86425006 1.9446426e-38
0.0636288 0.18045329 0.86425006 1.9629387e-38
0.068628803 0.17795329 0.85925007 5.1539505e-39
0.068628803 0.18045329 0.85925007 5.8864527e-39
0.066128805 0.17795329 0.86175007 1.5111083e-38
0.068628803 0.17795329 0.86175007 3.5880668e-39
0.068628803 0.17795329 0.86425006 1.1609441e-38
0.068628803 0.18045329 0.86425006 4.2326949e-39
0.066128805 0.17295328 0.86675006 1.6311071e-38
0.066128805 0.17545329 0.86675006 1.5388394e-38
0.066128805 0.17545329 0.86925006 1.7325216e-38
0.0636288 0.17795329 0.86675006 1.7600013e-38
0.0636288 0.17795329 0.86925006 1.7048285e-38
0.0636288 0.18045329 0.86675006 1.7415616e-38
0.066128805 0.17795329 0.86675006 1.4653713e-38
0.066128805 0.17795329 0.86925006 1.4466079e-38
0.066128805 0.18045329 0.86675006 1.3451204e-38
0.066128805 0.18045329 0.86925006 1.3635951e-38
0.068628803 0.17795329 0.86675006 1.1609447e-38
0.068628803 0.17795329 0.86925006 1.3175696e-38
0.068628803 0.18045329 0.86675006 1.0962976e-38
0.068628803 0.18045329 0.86925006 5.4319611e-39
0.066128805 0.17795329 0.87175006 1.6402185e-38
0.066128805 0.18045329 0.87175006 1.2992381e-38
0.066128805 0.18045329 0.87425005 1.5848295e-38
0.068628803 0.18045329 0.87175006 1.2529602e-38
0.068628803 0.18045329 0.87425005 1.3173541e-38
0.068628803 0.18295328 0.86925006 4.8740972e-39
0.066128805 0.18295328 0.87425005 1.483377e-38
0.068628803 0.18295328 0.87175006 4.5103426e-39
0.068628803 0.18295328 0.87425005 1.2620708e-38
0.071128801 0.13795328 0.84675008 5.1467647e-39
0.071128801 0.14545329 0.84675008 5.1492786e-39
0.071128801 0.14545329 0.84925008 4.7812093e-39
0.073628806 0.14545329 0.84925008 0
0.076128803 0.14545329 0.84925008 3.6734198e-40
0.071128801 0.14795329 0.84675008 5.0567144e-39
0.071128801 0.14795329 0.84925008 0
0.071128801 0.15045328 0.84675008 0
0.071128801 0.15045328 0.84925008 4.1344064e-39
0.073628806 0.14795329 0.84675008 0
0.073628806 0.14795329 0.84925008 0
0.073628806 0.15045328 0.84675008 0
0.073628806 0.15045328 0.84925008 0
0.071128801 0.14795329 0.85175008 5.1485597e-39
0.071128801 0.15045328 0.85175008 2.3905998e-39
0.071128801 0.15295328 0.84675008 0
0.071128801 0.15295328 0.84925008 0
0.071128801 0.15545328 0.84925008 0
0.073628806 0.15295328 0.84675008 0
0.073628806 0.15295328 0.84925008 0
0.073628806 0.15545328 0.84925008 0
0.071128801 0.15295328 0.85175008 0
0.071128801 0.15545328 0.85175008 0
0.071128801 0.15545328 0.85425007 2.390234e-39
0.073628806 0.15295328 0.85175008 0
0.073628806 0.15295328 0.85425007 0
0.073628806 0.15545328 0.85175008 0
0.073628806 0.15545328 0.85425007 0
0.076128803 0.14795329 0.84675008 4.2038954e-45
0.076128803 0.14795329 0.84925008 0
0.076128803 0.15045328 0.84675008 7.7419148e-39
0.076128803 0.15045328 0.84925008 7.6497191e-39
0.076128803 0.15295328 0.84675008 8.2911453e-39
0.076128803 0.15295328 0.84925008 2.7590488e-39
0.076128803 0.15545328 0.84675008 7.923439e-39
0.076128803 0.15545328 0.84925008 3.0367105e-39
0.078628801 0.15295328 0.84675008 8.201465e-39
0.078628801 0.15295328 0.84925008 7.0961474e-39
0.078628801 0.15545328 0.84675008 7.0043497e-39
0.078628801 0.15545328 0.84925008 7.0965454e-39
0.076128803 0.15295328 0.85175008 7.5568145e-39
0.071128801 0.15545328 0.85675007 1.9289042e-39
0.071128801 0.15795328 0.84925008 0
0.073628806 0.15795328 0.84925008 0
0.071128801 0.15795328 0.85175008 0
0.071128801 0.15795328 0.85425007 1.8392239e-39
0.071128801 0.16045329 0.85175008 0
0.071128801 0.16045329 0.85425007 1.2860557e-39
0.073628806 0.15795328 0.85175008 0
0.073628806 0.15795328 0.85425007 0
0.073628806 0.16045329 0.85175008 0
0.073628806 0.16045329 0.85425007 0
0.071128801 0.16295329 0.85175008 0
0.071128801 0.16295329 0.85425007 6.4284847e-40
0.071128801 0.16545328 0.85425007 9.1835496e-41
0.073628806 0.16295329 0.85175008 0
0.073628806 0.16295329 0.85425007 0
0.073628806 0.16545328 0.85425007 2.7766309e-40
0.076128803 0.15795328 0.84675008 9.213798e-39
0.076128803 0.15795328 0.84925008 7.739398e-39
0.076128803 0.16045329 0.84925008 8.6602753e-39
0.078628801 0.15795328 0.84925008 7.0961796e-39
0.076128803 0.15795328 0.85175008 7.739398e-39
0.076128803 0.16045329 0.85175008 8.0124004e-39
0.076128803 0.16045329 0.85425007 8.1063827e-39
0.078628801 0.15795328 0.85175008 6.8188809e-39
0.078628801 0.16045329 0.85175008 7.0021931e-39
0.076128803 0.16295329 0.85175008 7.6468325e-39
0.076128803 0.16295329 0.85425007 7.8308636e-39
0.076128803 0.16545328 0.85425007 4.6072802e-39
0.071128801 0.15795328 0.85675007 3.4051104e-39
0.071128801 0.16045329 0.85675007 1.3775324e-39
0.073628806 0.16045329 0.85675007 0
0.071128801 0.16295329 0.85675007 5.5101298e-40
0.071128801 0.16295329 0.85925007 3.1296151e-39
0.071128801 0.16545328 0.85675007 0
0.071128801 0.16545328 0.85925007 4.0508442e-39
0.073628806 0.16295329 0.85675007 0
0.073628806 0.16545328 0.85675007 7.1746481e-43
0.073628806 0.16545328 0.85925007 2.7694282e-40
0.076128803 0.16295329 0.85675007 5.4294626e-39
0.076128803 0.16545328 0.85675007 2.7633522e-39
0.076128803 0.16545328 0.85925007 3.9600961e-39
0.078628801 0.16545328 0.85675007 6.6355686e-39
0.078628801 0.16545328 0.85925007 7.0021931e-39
0.071128801 0.16795328 0.85425007 0
0.073628806 0.16795328 0.85425007 0
0.071128801 0.16795328 0.85675007 0
0.071128801 0.16795328 0.85925007 0
0.071128801 0.17045328 0.85675007 2.9484371e-39
0.071128801 0.17045328 0.85925007 0
0.073628806 0.16795328 0.85675007 0
0.073628806 0.16795328 0.85925007 1.4751329e-39
0.073628806 0.17045328 0.85675007 0
0.073628806 0.17045328 0.85925007 1.5680516e-39
0.071128801 0.16795328 0.86175007 0
0.071128801 0.17045328 0.86175007 0
0.071128801 0.17045328 0.86425006 4.418203e-39
0.073628806 0.16795328 0.86175007 2.7658689e-40
0.073628806 0.17045328 0.86175007 8.3083546e-40
0.071128801 0.17295328 0.85675007 3.1299627e-39
0.071128801 0.17295328 0.85925007 0
0.071128801 0.17545329 0.85925007 3.4962271e-39
0.073628806 0.17295328 0.85925007 1.290736e-39
0.073628806 0.17545329 0.85925007 1.8431909e-39
0.071128801 0.17295328 0.86175007 0
0.071128801 0.17295328 0.86425006 0
0.071128801 0.17545329 0.86175007 0
0.071128801 0.17545329 0.86425006 3.4965774e-39
0.073628806 0.17295328 0.86175007 1.5666026e-39
0.073628806 0.17295328 0.86425006 0
0.073628806 0.17545329 0.86175007 1.9361054e-39
0.073628806 0.17545329 0.86425006 0
0.076128803 0.16795328 0.85675007 4.052642e-39
0.076128803 0.16795328 0.85925007 3.5913136e-39
0.076128803 0.17045328 0.85925007 2.7633522e-39
0.078628801 0.16795328 0.85925007 6.2642483e-39
0.078628801 0.17045328 0.85925007 5.9866021e-39
0.076128803 0.16795328 0.86175007 4.6947899e-39
0.076128803 0.17045328 0.86175007 3.8675473e-39
0.076128803 0.17045328 0.86425006 5.1586393e-39
0.078628801 0.16795328 0.86175007 6.1713437e-39
0.078628801 0.16795328 0.86425006 7.6453975e-39
0.078628801 0.17045328 0.86175007 6.1727968e-39
0.078628801 0.17045328 0.86425006 6.7277642e-39
0.076128803 0.17295328 0.85925007 4.0541064e-39
0.078628801 0.17295328 0.85925007 4.7894686e-39
0.078628801 0.17545329 0.85925007 4.2380927e-39
0.076128803 0.17295328 0.86175007 3.7753517e-39
0.076128803 0.17295328 0.86425006 3.4069223e-39
0.076128803 0.17545329 0.86175007 3.8675473e-39
0.076128803 0.17545329 0.86425006 3.4090873e-39
0.078628801 0.17295328 0.86175007 4.608334e-39
0.078628801 0.17295328 0.86425006 6.5415737e-39
0.078628801 0.17545329 0.86175007 6.3568293e-39
0.078628801 0.17545329 0.86425006 7.5557271e-39
0.071128801 0.17795329 0.85925007 4.8759203e-39
0.071128801 0.18045329 0.85925007 3.3161308e-39
0.073628806 0.17795329 0.85925007 2.213051e-39
0.073628806 0.18045329 0.85925007 2.4892792e-39
0.071128801 0.17795329 0.86175007 0
0.071128801 0.17795329 0.86425006 1.7513316e-39
0.071128801 0.18045329 0.86175007 0
0.071128801 0.18045329 0.86425006 2.1193911e-39
0.073628806 0.17795329 0.86175007 2.3059669e-39
0.073628806 0.17795329 0.86425006 0
0.073628806 0.18045329 0.86175007 2.6740446e-39
0.073628806 0.18045329 0.86425006 0
0.073628806 0.18295328 0.85925007 2.6736733e-39
0.073628806 0.18545328 0.85925007 1.4747966e-39
0.071128801 0.18295328 0.86175007 0
0.071128801 0.18295328 0.86425006 0
0.071128801 0.18545328 0.86175007 0
0.071128801 0.18545328 0.86425006 0
0.073628806 0.18295328 0.86175007 1.7524428e-39
0.073628806 0.18295328 0.86425006 0
0.073628806 0.18545328 0.86175007 2.4885631e-39
0.073628806 0.18545328 0.86425006 0
0.076128803 0.17795329 0.85925007 6.1727912e-39
0.076128803 0.18045329 0.85925007 4.8820524e-39
0.078628801 0.17795329 0.85925007 4.4250371e-39
0.078628801 0.18045329 0.85925007 4.6976611e-39
0.076128803 0.17795329 0.86175007 4.3314023e-39
0.076128803 0.17795329 0.86425006 4.2399102e-39
0.076128803 0.18045329 0.86175007 5.1582861e-39
0.076128803 0.18045329 0.86425006 4.7895036e-39
0.078628801 0.17795329 0.86175007 5.2529999e-39
0.078628801 0.17795329 0.86425006 5.530649e-39
0.078628801 0.18045329 0.86175007 5.1582861e-39
0.078628801 0.18045329 0.86425006 4.608334e-39
0.076128803 0.18295328 0.85925007 4.7902071e-39
0.076128803 0.18545328 0.85925007 3.687437e-39
0.078628801 0.18545328 0.85925007 4.0562196e-39
0.076128803 0.18295328 0.86175007 4.6976611e-39
0.076128803 0.18295328 0.86425006 4.882058e-39
0.076128803 0.18545328 0.86175007 4.1473558e-39
0.076128803 0.18545328 0.86425006 4.3331946e-39
0.078628801 0.18295328 0.86175007 4.6058158e-39
0.078628801 0.18295328 0.86425006 5.2504818e-39
0.078628801 0.17045328 0.86675006 7.9245082e-39
0.076128803 0.17295328 0.86675006 5.4352262e-39
0.076128803 0.17545329 0.86675006 6.1713437e-39
0.078628801 0.17295328 0.86675006 7.7401169e-39
0.078628801 0.17545329 0.86675006 8.1074519e-39
0.071128801 0.18045329 0.86675006 2.304497e-39
0.071128801 0.18295328 0.86675006 0
0.071128801 0.18295328 0.86925006 2.9426819e-39
0.071128801 0.18545328 0.86675006 0
0.073628806 0.18545328 0.86675006 0
0.076128803 0.18045329 0.86675006 4.7898568e-39
0.078628801 0.17795329 0.86675006 6.0805956e-39
0.078628801 0.18045329 0.86675006 4.697308e-39
0.076128803 0.18295328 0.86675006 5.2504818e-39
0.076128803 0.18545328 0.86675006 4.6980114e-39
0.078628801 0.18295328 0.86675006 5.2504818e-39
0.078628801 0.18545328 0.86675006 4.7001793e-39
0.093628801 0.17295328 0.84925008 0
0.093628801 0.17545329 0.84675008 0
0.093628801 0.17545329 0.84925008 0
0.093628801 0.17545329 0.85175008 0
0.096128799 0.17295328 0.84675008 0
0.096128799 0.17295328 0.84925008 0
0.096128799 0.17545329 0.84675008 0
0.096128799 0.17545329 0.84925008 0
0.098628804 0.17545329 0.84675008 0
0.098628804 0.17545329 0.84925008 0
0.096128799 0.17545329 0.85175008 0
0.093628801 0.17795329 0.84675008 0
0.093628801 0.17795329 0.84925008 0
0.093628801 0.18045329 0.84925008 0
0.093628801 0.17795329 0.85175008 0
0.093628801 0.18045329 0.85175008 0
0.093628801 0.18295328 0.84675008 0
0.093628801 0.18295328 0.84925008 0
0.093628801 0.18545328 0.84675008 0
0.093628801 0.18545328 0.84925008 0
0.093628801 0.18295328 0.85175008 0
0.093628801 0.18545328 0.85175008 0
0.096128799 0.17795329 0.84675008 0
0.096128799 0.17795329 0.84925008 0
0.096128799 0.18045329 0.84675008 0
0.096128799 0.18045329 0.84925008 0
0.098628804 0.17795329 0.84675008 0
0.098628804 0.17795329 0.84925008 0
0.098628804 0.18045329 0.84675008 0
0.098628804 0.18045329 0.84925008 0
0.096128799 0.17795329 0.85175008 0
0.096128799 0.18045329 0.85175008 0
0.096128799 0.18045329 0.85425007 0
0.098628804 0.17795329 0.85175008 0
0.098628804 0.18045329 0.85175008 0
0.096128799 0.18295328 0.84675008 0
0.096128799 0.18295328 0.84925008 0
0.096128799 0.18545328 0.84675008 0
0.096128799 0.18545328 0.84925008 0
0.098628804 0.18295328 0.84675008 0
0.098628804 0.18295328 0.84925008 0
0.098628804 0.18545328 0.84675008 0
0.098628804 0.18545328 0.84925008 0
0.096128799 0.18295328 0.85175008 0
0.096128799 0.18295328 0.85425007 0
0.096128799 0.18545328 0.85175008 0
0.096128799 0.18545328 0.85425007 0
0.098628804 0.18295328 0.85175008 0
0.098628804 0.18295328 0.85425007 0
0.098628804 0.18545328 0.85175008 0
0.098628804 0.18545328 0.85425007 0
0.1011288 0.17795329 0.84675008 0
0.1011288 0.18045329 0.84675008 0
0.1011288 0.18295328 0.84675008 7.361189e-40
0.1011288 0.18295328 0.84925008 0
0.1011288 0.18545328 0.84675008 7.361189e-40
0.1011288 0.18545328 0.84925008 2.8025969e-45
0.1036288 0.18545328 0.84675008 1.4697267e-39
0.1086288 0.18545328 0.84675008 0
0.1111288 0.18045329 0.84675008 1.3736427e-38
0.1136288 0.18045329 0.84675008 1.8524839e-38
0.1111288 0.18295328 0.84675008 1.2998509e-38
0.1111288 0.18545328 0.84675008 0
0.1136288 0.18295328 0.84675008 1.6772412e-38
0.1136288 0.18295328 0.84925008 1.8708151e-38
0.1136288 0.18545328 0.84675008 1.6497257e-38
0.1136288 0.18545328 0.84925008 1.3550237e-38
0.073628806 0.18795328 0.83925003 3.6867364e-39
0.073628806 0.18795328 0.84175003 2.9495189e-39
0.073628806 0.19045329 0.84175003 2.8609414e-39
0.073628806 0.19045329 0.84425008 2.8562667e-39
0.073628806 0.19295329 0.84425008 2.3081151e-39
0.076128803 0.18795328 0.83925003 2.1179828e-39
0.078628801 0.18795328 0.83925003 1.4726133e-39
0.076128803 0.18795328 0.84175003 2.6711551e-39
0.076128803 0.18795328 0.84425008 2.7647773e-39
0.076128803 0.19045329 0.84175003 3.4065692e-39
0.076128803 0.19045329 0.84425008 2.8562667e-39
0.078628801 0.18795328 0.84175003 1.7477443e-39
0.078628801 0.19045329 0.84175003 1.4726133e-39
0.078628801 0.19045329 0.84425008 2.5786092e-39
0.076128803 0.19295329 0.84175003 1.6539526e-41
0.076128803 0.19295329 0.84425008 1.5836074e-41
0.076128803 0.19545329 0.84425008 1.9228197e-40
0.078628801 0.19295329 0.84175003 5.5317378e-40
0.078628801 0.19295329 0.84425008 1.751717e-39
0.078628801 0.19545329 0.84175003 1.2882179e-39
0.078628801 0.19545329 0.84425008 2.0257829e-39
0.081128806 0.18795328 0.83675003 2.1179828e-39
0.081128806 0.18795328 0.83925003 1.011631e-39
0.083628803 0.18795328 0.83675003 2.6679055e-39
0.083628803 0.18795328 0.83925003 1.011631e-39
0.081128806 0.18795328 0.84175003 1.6534075e-39
0.081128806 0.19045329 0.84175003 1.2885682e-39
0.083628803 0.18795328 0.84175003 8.279544e-40
0.083628803 0.19045329 0.84175003 1.0119841e-39
0.081128806 0.19295329 0.84175003 7.3756504e-40
0.081128806 0.19545329 0.84175003 1.1963726e-39
0.081128806 0.19545329 0.84425008 1.0112751e-39
0.083628803 0.19295329 0.84175003 1.0119841e-39
0.083628803 0.19295329 0.84425008 1.1963726e-39
0.083628803 0.19545329 0.84175003 1.1041783e-39
0.083628803 0.19545329 0.84425008 1.1963726e-39
0.086128801 0.18795328 0.83675003 1.7491988e-39
0.086128801 0.18795328 0.83925003 1.6534075e-39
0.088628806 0.18795328 0.83925003 3.6734899e-40
0.086128801 0.18795328 0.84175003 7.3504691e-40
0.086128801 0.19045329 0.84175003 1.011631e-39
0.088628806 0.18795328 0.84175003 1.8367099e-40
0.088628806 0.19045329 0.84175003 7.350441e-40
0.088628806 0.19045329 0.84425008 0
0.086128801 0.19295329 0.84175003 0
0.086128801 0.19295329 0.84425008 3.6734198e-40
0.086128801 0.19545329 0.84175003 1.8367099e-40
0.086128801 0.19545329 0.84425008 0
0.088628806 0.19295329 0.84175003 3.4973201e-39
0.088628806 0.19295329 0.84425008 2.9484679e-39
0.088628806 0.19545329 0.84425008 1.5673257e-39
0.091128804 0.18795328 0.84175003 0
0.091128804 0.18795328 0.84425008 0
0.091128804 0.19045329 0.84425008 0
0.093628801 0.18795328 0.84425008 0
0.093628801 0.19045329 0.84425008 0
0.091128804 0.19295329 0.84425008 4.2387821e-39
0.1011288 0.18795328 0.84425008 6.4320721e-40
0.1036288 0.18795328 0.84425008 1.1038294e-39
0.1036288 0.19045329 0.84425008 1.7463094e-39
0.1061288 0.18795328 0.84425008 1.1960251e-39
0.1061288 0.19045329 0.84425008 1.7463094e-39
0.1086288 0.18795328 0.84425008 1.6534075e-39
0.1086288 0.19045329 0.84425008 0
0.1111288 0.18795328 0.84425008 4.2038954e-45
0.073628806 0.19295329 0.84925008 2.4002785e-39
0.076128803 0.19295329 0.84675008 1.5103195e-41
0.076128803 0.19295329 0.84925008 3.9633135e-39
0.071128801 0.18795328 0.86425006 1.6577025e-39
0.088628806 0.19295329 0.84675008 3.0370608e-39
0.091128804 0.19045329 0.84675008 0
0.091128804 0.19045329 0.84925008 0
0.093628801 0.18795328 0.84675008 0
0.093628801 0.18795328 0.84925008 0
0.093628801 0.19045329 0.84675008 0
0.093628801 0.19045329 0.84925008 4.2038954e-45
0.093628801 0.18795328 0.85175008 0
0.093628801 0.19045329 0.85175008 0
0.091128804 0.19295329 0.84675008 2.120826e-39
0.091128804 0.19295329 0.84925008 2.9477042e-39
0.093628801 0.19295329 0.84675008 3.4990759e-39
0.093628801 0.19295329 0.84925008 3.7760551e-39
0.091128804 0.19295329 0.85175008 0
0.093628801 0.19295329 0.85175008 0
0.096128799 0.18795328 0.84925008 0
0.098628804 0.18795328 0.84925008 0
0.096128799 0.18795328 0.85175008 0
0.096128799 0.18795328 0.85425007 0
0.096128799 0.19045329 0.85175008 0
0.096128799 0.19045329 0.85425007 0
0.098628804 0.18795328 0.85175008 0
0.098628804 0.18795328 0.85425007 0
0.098628804 0.19045329 0.85175008 0
0.098628804 0.19045329 0.85425007 0
0.098628804 0.19295329 0.85175008 9.18397e-41
0.1011288 0.18795328 0.84675008 9.3629158e-41
0.1011288 0.18795328 0.84925008 4.2038954e-45
0.1011288 0.19045329 0.84675008 8.279544e-40
0.1011288 0.19045329 0.84925008 8.279544e-40
0.1036288 0.18795328 0.84675008 4.6240607e-40
0.1036288 0.18795328 0.84925008 2.026492e-39
0.1036288 0.19045329 0.84675008 1.1963726e-39
0.1036288 0.19045329 0.84925008 1.1041783e-39
0.1011288 0.18795328 0.85175008 2.7550649e-40
0.1011288 0.19045329 0.85175008 1.8367099e-40
0.1011288 0.19045329 0.85425007 1.472263e-39
0.1036288 0.19045329 0.85175008 1.0123429e-39
0.1011288 0.19295329 0.84925008 6.4284847e-40
0.1036288 0.19295329 0.84675008 1.6534075e-39
0.1036288 0.19295329 0.84925008 1.1038266e-39
0.1011288 0.19295329 0.85175008 6.4320721e-40
0.1036288 0.19295329 0.85175008 1.1963726e-39
0.1061288 0.18795328 0.84675008 1.3811226e-39
0.1061288 0.19045329 0.84675008 1.1963726e-39
0.1061288 0.19045329 0.84925008 1.3811226e-39
0.1086288 0.18795328 0.84675008 0
0.1086288 0.18795328 0.84925008 0
0.1086288 0.19045329 0.84675008 0
0.1086288 0.19045329 0.84925008 0
0.1061288 0.19295329 0.84675008 1.6534075e-39
0.1061288 0.19295329 0.84925008 1.6541151e-39
0.1086288 0.19295329 0.84675008 0
