# .PCD v0.7 - Point Cloud Data file format
VERSION 0.7
FIELDS x y z rgb
SIZE 4 4 4 4
TYPE F F F F
COUNT 1 1 1 1
WIDTH 1036
HEIGHT 1
VIEWPOINT 0 0 0 1 0 0 0
POINTS 1036
DATA ascii
-0.3136144 0.091961361 1.0072501 2.4889289e-39
-0.3136144 0.094461367 1.0047501 2.2420775e-44
-0.31111437 0.091961361 1.0047501 9.5079502e-41
-0.31111437 0.091961361 1.0072501 1.1052882e-39
-0.31111437 0.094461367 1.0047501 9.8090893e-45
-0.30861437 0.086961366 0.99975008 0
-0.30861437 0.089461364 0.99975008 1.8435623e-39
-0.30611438 0.086961366 0.99975008 1.8475097e-39
-0.30611438 0.089461364 0.99975008 2.0304689e-39
-0.30861437 0.086961366 1.0047501 4.6457528e-40
-0.30861437 0.086961366 1.0072501 2.3084865e-39
-0.30861437 0.089461364 1.0047501 6.4396251e-40
-0.30861437 0.089461364 1.0072501 2.3074145e-39
-0.30611438 0.086961366 1.0047501 1.7549638e-39
-0.30611438 0.086961366 1.0072501 1.9357579e-39
-0.30611438 0.089461364 1.0047501 2.5223372e-44
-0.30611438 0.089461364 1.0072501 8.3229982e-40
-0.30861437 0.091961361 0.99975008 9.4729177e-41
-0.30861437 0.094461367 0.99975008 0
-0.30611438 0.094461367 0.99975008 3.6734198e-40
-0.30861437 0.091961361 1.0047501 5.51034e-40
-0.30861437 0.091961361 1.0072501 2.1019477e-44
-0.30861437 0.094461367 1.0047501 0
-0.30861437 0.094461367 1.0072501 0
-0.30611438 0.091961361 1.0047501 9.8090893e-45
-0.30611438 0.091961361 1.0072501 1.2611686e-44
-0.30611438 0.094461367 1.0047501 4.591971e-40
-0.30611438 0.094461367 1.0072501 4.5920551e-40
-0.31111437 0.086961366 1.0097501 3.2369995e-42
-0.31111437 0.089461364 1.0097501 1.8435623e-39
-0.31111437 0.091961361 1.0097501 0
-0.30861437 0.086961366 1.0097501 1.8475097e-39
-0.30861437 0.086961366 1.0122501 1.9361082e-39
-0.30861437 0.089461364 1.0097501 2.4914456e-39
-0.30861437 0.089461364 1.0122501 1.0173987e-39
-0.30611438 0.086961366 1.0097501 9.2160738e-40
-0.30611438 0.086961366 1.0122501 1.1099447e-39
-0.30611438 0.089461364 1.0097501 1.460153e-42
-0.30611438 0.089461364 1.0122501 5.5247033e-40
-0.30861437 0.086961366 1.0147501 0
-0.30611438 0.086961366 1.0147501 2.7554292e-40
-0.30611438 0.089461364 1.0147501 1.4012985e-45
-0.30861437 0.091961361 1.0097501 0
-0.30861437 0.091961361 1.0122501 1.9618179e-44
-0.30611438 0.091961361 1.0097501 7.0064923e-45
-0.30611438 0.091961361 1.0122501 0
-0.30611438 0.091961361 1.0147501 0
-0.30611438 0.094461367 1.0147501 0
-0.30611438 0.079461366 1.0197501 1.9538639e-38
-0.30611438 0.079461366 1.0222501 1.8432289e-38
-0.30611438 0.079461366 1.0272501 1.0243808e-38
-0.30861437 0.081961364 1.0197501 4.7970594e-39
-0.30861437 0.081961364 1.0222501 1.1610188e-38
-0.30861437 0.084461361 1.0197501 0
-0.30611438 0.081961364 1.0197501 3.7654179e-39
-0.30611438 0.081961364 1.0222501 4.593022e-40
-0.30611438 0.084461361 1.0197501 2.8520207e-40
-0.30611438 0.084461361 1.0222501 1.2057333e-39
-0.30611438 0.081961364 1.0272501 0
-0.30111438 0.074461363 1.0297501 1.9169128e-38
-0.30111438 0.074461363 1.0347501 1.5759011e-38
-0.29861438 0.071961366 1.0297501 2.1012322e-38
-0.29861438 0.074461363 1.0297501 1.0687891e-38
-0.29611439 0.071961366 1.0297501 1.9724833e-38
-0.29611439 0.074461363 1.0297501 4.5932882e-40
-0.29861438 0.074461363 1.0347501 1.0319469e-38
-0.29611439 0.074461363 1.0347501 1.0103376e-39
-0.29361439 0.074461363 1.0272501 1.2751816e-43
-0.29361439 0.071961366 1.0297501 1.640579e-38
-0.29361439 0.074461363 1.0297501 1.3032076e-43
-0.29111439 0.071961366 1.0297501 3.1436548e-39
-0.29111439 0.074461363 1.0297501 0
-0.29361439 0.074461363 1.0347501 0
-0.29361439 0.074461363 1.03725 8.675394e-39
-0.29111439 0.074461363 1.0347501 0
-0.28861439 0.071961366 1.0297501 9.8454249e-39
-0.28861439 0.074461363 1.0297501 2.7550649e-40
-0.28611439 0.074461363 1.0297501 2.0203809e-39
-0.28861439 0.074461363 1.0347501 1.6530389e-39
-0.30361438 0.084461361 0.99975008 0
-0.30361438 0.084461361 1.0047501 1.1099419e-39
-0.30361438 0.084461361 1.0072501 1.478723e-39
-0.30111438 0.081961364 1.0072501 0
-0.30111438 0.084461361 1.0072501 1.7553141e-39
-0.29861438 0.081961364 1.0072501 9.1835496e-41
-0.29861438 0.084461361 1.0072501 2.3970864e-39
-0.30361438 0.081961364 1.0097501 2.8025969e-45
-0.30361438 0.081961364 1.0122501 1.5414283e-44
-0.30361438 0.084461361 1.0097501 8.3299767e-40
-0.30361438 0.084461361 1.0122501 9.9385692e-41
-0.30111438 0.081961364 1.0097501 0
-0.30111438 0.081961364 1.0122501 3.2369995e-42
-0.30111438 0.084461361 1.0097501 2.3963773e-39
-0.30111438 0.084461361 1.0122501 1.2010893e-39
-0.30361438 0.081961364 1.0147501 1.6815582e-44
-0.30361438 0.084461361 1.0147501 1.3868777e-39
-0.30111438 0.081961364 1.0147501 0
-0.30111438 0.084461361 1.0147501 1.7549638e-39
-0.29861438 0.081961364 1.0097501 2.9480895e-39
-0.29861438 0.081961364 1.0122501 2.489282e-39
-0.29861438 0.084461361 1.0097501 1.1063476e-39
-0.29861438 0.084461361 1.0122501 1.1056385e-39
-0.29611439 0.081961364 1.0097501 2.7683926e-39
-0.29611439 0.084461361 1.0097501 2.9427268e-44
-0.29861438 0.081961364 1.0147501 2.8605883e-39
-0.29861438 0.084461361 1.0147501 5.521172e-40
-0.29611439 0.081961364 1.0147501 1.3858211e-39
-0.29611439 0.084461361 1.0147501 1.5414283e-44
-0.30361438 0.086961366 0.99975008 1.8475097e-39
-0.30361438 0.086961366 1.0047501 2.8018262e-40
-0.30361438 0.086961366 1.0072501 2.8053014e-40
-0.30361438 0.089461364 1.0072501 2.1664074e-42
-0.30361438 0.094461367 0.99975008 2.7633522e-39
-0.30111438 0.094461367 0.99975008 3.8704172e-39
-0.30361438 0.091961361 1.0072501 0
-0.30361438 0.094461367 1.0047501 1.3793611e-39
-0.30361438 0.094461367 1.0072501 3.3189922e-39
-0.30111438 0.091961361 1.0072501 2.7550649e-40
-0.30111438 0.094461367 1.0047501 3.8718241e-39
-0.30111438 0.094461367 1.0072501 4.4249769e-39
-0.29861438 0.094461367 0.99975008 3.6867364e-39
-0.29611439 0.094461367 0.99975008 4.2377424e-39
-0.29861438 0.091961361 1.0072501 3.9557801e-39
-0.29861438 0.094461367 1.0047501 4.1455467e-39
-0.29861438 0.094461367 1.0072501 3.6867364e-39
-0.29611439 0.091961361 1.0047501 3.4973201e-39
-0.29611439 0.091961361 1.0072501 4.6054655e-39
-0.29611439 0.094461367 1.0047501 4.237392e-39
-0.30361438 0.086961366 1.0097501 2.9427268e-44
-0.30361438 0.086961366 1.0122501 2.7589044e-40
-0.30361438 0.089461364 1.0097501 0
-0.30361438 0.089461364 1.0122501 1.4012985e-45
-0.30111438 0.086961366 1.0097501 7.0064923e-45
-0.30111438 0.086961366 1.0122501 1.5414283e-44
-0.30111438 0.089461364 1.0097501 1.821688e-44
-0.30111438 0.089461364 1.0122501 5.6051939e-45
-0.30361438 0.086961366 1.0147501 2.2420775e-44
-0.30361438 0.089461364 1.0147501 0
-0.30111438 0.086961366 1.0147501 1.6815582e-44
-0.30111438 0.089461364 1.0147501 2.8025969e-45
-0.30361438 0.091961361 1.0097501 0
-0.30361438 0.091961361 1.0122501 0
-0.30361438 0.094461367 1.0097501 3.2264547e-39
-0.30361438 0.094461367 1.0122501 5.5101298e-40
-0.30111438 0.091961361 1.0097501 2.9416282e-39
-0.30111438 0.091961361 1.0122501 1.1031204e-39
-0.30111438 0.094461367 1.0097501 4.5171725e-39
-0.30111438 0.094461367 1.0122501 2.1143856e-39
-0.30361438 0.091961361 1.0147501 0
-0.30361438 0.094461367 1.0147501 6.4392467e-40
-0.30111438 0.091961361 1.0147501 3.673602e-40
-0.29861438 0.086961366 1.0097501 9.5082305e-41
-0.29861438 0.086961366 1.0122501 0
-0.29861438 0.089461364 1.0097501 8.4077908e-45
-0.29861438 0.089461364 1.0122501 9.1835496e-41
-0.29611439 0.086961366 1.0097501 0
-0.29611439 0.086961366 1.0122501 0
-0.29611439 0.089461364 1.0097501 0
-0.29611439 0.089461364 1.0122501 5.5137171e-40
-0.29861438 0.086961366 1.0147501 0
-0.29861438 0.089461364 1.0147501 0
-0.29611439 0.086961366 1.0147501 0
-0.29611439 0.089461364 1.0147501 0
-0.29861438 0.091961361 1.0097501 3.9582968e-39
-0.29861438 0.091961361 1.0122501 4.1458718e-39
-0.29611439 0.091961361 1.0097501 4.0537014e-39
-0.29611439 0.091961361 1.0122501 4.6072087e-39
-0.29361439 0.094461367 0.99975008 4.0541064e-39
-0.29111439 0.091961361 0.99975008 4.1448377e-39
-0.29111439 0.094461367 0.99975008 2.947033e-39
-0.29361439 0.091961361 1.0047501 4.1470111e-39
-0.29361439 0.091961361 1.0072501 3.2297155e-39
-0.29361439 0.094461367 1.0047501 3.4105349e-39
-0.29111439 0.091961361 1.0047501 4.236683e-39
-0.29111439 0.091961361 1.0072501 4.0551602e-39
-0.29111439 0.094461367 1.0047501 2.9516895e-39
-0.29111439 0.094461367 1.0072501 2.2126951e-39
-0.28861439 0.089461364 1.0047501 3.964059e-39
-0.28611439 0.089461364 1.0047501 3.3186895e-39
-0.28611439 0.089461364 1.0072501 4.6058158e-39
-0.28861439 0.091961361 0.99975008 4.1448377e-39
-0.28861439 0.094461367 0.99975008 2.6708048e-39
-0.28611439 0.091961361 0.99975008 2.6729698e-39
-0.28611439 0.094461367 0.99975008 1.1052882e-39
-0.28861439 0.091961361 1.0047501 3.226847e-39
-0.28861439 0.091961361 1.0072501 4.0559043e-39
-0.28861439 0.094461367 1.0047501 2.3013132e-39
-0.28861439 0.094461367 1.0072501 1.5666265e-39
-0.28611439 0.091961361 1.0047501 2.6736733e-39
-0.28611439 0.091961361 1.0072501 2.7655158e-39
-0.28611439 0.094461367 1.0047501 1.2900382e-39
-0.28611439 0.094461367 1.0072501 1.1056385e-39
-0.29361439 0.089461364 1.0122501 2.0257829e-39
-0.29111439 0.089461364 1.0122501 3.9582968e-39
-0.29361439 0.086961366 1.0147501 3.0392286e-39
-0.29361439 0.089461364 1.0147501 3.9575906e-39
-0.29111439 0.086961366 1.0147501 4.2391493e-39
-0.29111439 0.089461364 1.0147501 3.6881755e-39
-0.29361439 0.091961361 1.0097501 3.8707675e-39
-0.29361439 0.091961361 1.0122501 4.1470111e-39
-0.29111439 0.091961361 1.0097501 4.1448377e-39
-0.29111439 0.091961361 1.0122501 3.6867364e-39
-0.29361439 0.091961361 1.0147501 3.9629645e-39
-0.28861439 0.086961366 1.0122501 3.8718241e-39
-0.28861439 0.089461364 1.0097501 3.7800208e-39
-0.28861439 0.089461364 1.0122501 3.6881755e-39
-0.28611439 0.086961366 1.0122501 3.9615576e-39
-0.28611439 0.089461364 1.0097501 3.7800208e-39
-0.28611439 0.089461364 1.0122501 3.9600961e-39
-0.28861439 0.086961366 1.0147501 3.8707675e-39
-0.28861439 0.089461364 1.0147501 3.8704144e-39
-0.28611439 0.086961366 1.0147501 4.0551602e-39
-0.28861439 0.091961361 1.0097501 3.4115886e-39
-0.28611439 0.091961361 1.0097501 2.6704531e-39
-0.30361438 0.076961361 1.0222501 1.5020365e-38
-0.30361438 0.079461366 1.0197501 9.9675775e-39
-0.30361438 0.079461366 1.0222501 1.0426038e-38
-0.30111438 0.076961361 1.0222501 1.0502781e-38
-0.30111438 0.079461366 1.0197501 1.3011883e-39
-0.30111438 0.079461366 1.0222501 2.3128221e-39
-0.30361438 0.076961361 1.0247501 1.1054881e-38
-0.30361438 0.079461366 1.0247501 1.6688946e-39
-0.30361438 0.079461366 1.0272501 1.9465605e-39
-0.30111438 0.076961361 1.0247501 2.0205337e-39
-0.30111438 0.076961361 1.0272501 1.7784769e-38
-0.30111438 0.079461366 1.0247501 0
-0.30111438 0.079461366 1.0272501 7.3481429e-40
-0.30361438 0.081961364 1.0197501 1.4349296e-42
-0.30361438 0.081961364 1.0222501 0
-0.30361438 0.084461361 1.0197501 1.6627667e-39
-0.30361438 0.084461361 1.0222501 7.1746481e-43
-0.30111438 0.081961364 1.0197501 1.7556616e-39
-0.30111438 0.081961364 1.0222501 0
-0.30111438 0.084461361 1.0197501 1.1095944e-39
-0.30111438 0.084461361 1.0222501 1.460153e-42
-0.30361438 0.081961364 1.0247501 2.1523944e-42
-0.30361438 0.081961364 1.0272501 1.793662e-42
-0.30111438 0.081961364 1.0247501 5.5677091e-40
-0.30111438 0.081961364 1.0272501 1.667782e-39
-0.30111438 0.084461361 1.0247501 4.4841551e-44
-0.30111438 0.084461361 1.0272501 3.7835059e-44
-0.29861438 0.079461366 1.0222501 0
-0.29861438 0.076961361 1.0247501 1.8378029e-40
-0.29861438 0.076961361 1.0272501 9.4151268e-39
-0.29861438 0.079461366 1.0247501 0
-0.29861438 0.079461366 1.0272501 2.1523944e-42
-0.29611439 0.076961361 1.0272501 1.0092152e-41
-0.29611439 0.079461366 1.0272501 1.7556616e-39
-0.29861438 0.081961364 1.0197501 2.8605883e-39
-0.29861438 0.081961364 1.0222501 1.851453e-39
-0.29861438 0.084461361 1.0197501 4.4841551e-44
-0.29861438 0.084461361 1.0222501 3.5032462e-44
-0.29611439 0.081961364 1.0222501 1.0166897e-39
-0.29611439 0.084461361 1.0197501 7.0064923e-45
-0.29611439 0.084461361 1.0222501 1.6815582e-44
-0.29861438 0.081961364 1.0247501 2.0322471e-39
-0.29861438 0.081961364 1.0272501 2.2126951e-39
-0.29861438 0.084461361 1.0247501 9.2484297e-40
-0.29861438 0.084461361 1.0272501 7.0064923e-45
-0.29611439 0.081961364 1.0247501 2.5363502e-42
-0.29611439 0.081961364 1.0272501 9.6140285e-41
-0.29611439 0.084461361 1.0247501 1.5414283e-44
-0.29611439 0.084461361 1.0272501 2.8025969e-45
-0.30361438 0.079461366 1.0297501 0
-0.30111438 0.076961361 1.0297501 1.8154627e-38
-0.30111438 0.079461366 1.0297501 0
-0.30361438 0.079461366 1.0347501 0
-0.30111438 0.076961361 1.0347501 1.7602175e-38
-0.30111438 0.079461366 1.0347501 3.6734198e-40
-0.30361438 0.081961364 1.0297501 5.6000791e-40
-0.30111438 0.081961364 1.0297501 1.5745186e-39
-0.30111438 0.084461361 1.0297501 2.7655158e-39
-0.29861438 0.076961361 1.0297501 9.9675775e-39
-0.29861438 0.079461366 1.0297501 2.2126951e-39
-0.29611439 0.076961361 1.0297501 0
-0.29611439 0.079461366 1.0297501 2.6758383e-39
-0.29861438 0.076961361 1.0347501 1.0264511e-40
-0.29861438 0.079461366 1.0347501 2.1523944e-42
-0.29611439 0.076961361 1.0347501 0
-0.29611439 0.079461366 1.0347501 6.5255947e-40
-0.29861438 0.081961364 1.0297501 4.6097815e-40
-0.29861438 0.084461361 1.0297501 3.657389e-43
-0.29611439 0.081961364 1.0297501 5.510424e-40
-0.29611439 0.084461361 1.0297501 7.3468817e-40
-0.30361438 0.086961366 1.0197501 1.3858211e-39
-0.30361438 0.089461364 1.0197501 0
-0.30111438 0.086961366 1.0197501 4.6026909e-40
-0.30111438 0.086961366 1.0222501 0
-0.30111438 0.089461364 1.0197501 9.8090893e-45
-0.30361438 0.091961361 1.0197501 0
-0.29861438 0.086961366 1.0197501 0
-0.29861438 0.086961366 1.0222501 0
-0.29861438 0.089461364 1.0197501 0
-0.29861438 0.089461364 1.0222501 0
-0.29611439 0.086961366 1.0197501 2.7551349e-40
-0.29611439 0.086961366 1.0222501 2.8025969e-45
-0.29611439 0.089461364 1.0197501 2.667558e-39
-0.29611439 0.089461364 1.0222501 8.2654609e-40
-0.29861438 0.086961366 1.0247501 4.2038954e-45
-0.29611439 0.086961366 1.0247501 0
-0.29611439 0.086961366 1.0272501 7.0064923e-45
-0.29611439 0.089461364 1.0247501 2.5786092e-39
-0.29861438 0.086961366 1.0297501 9.8090893e-45
-0.29611439 0.086961366 1.0297501 0
-0.29361439 0.076961361 1.0272501 0
-0.29361439 0.079461366 1.0272501 2.489282e-39
-0.29111439 0.079461366 1.0272501 1.4747798e-39
-0.29361439 0.084461361 1.0222501 4.2038954e-45
-0.29111439 0.084461361 1.0222501 0
-0.29361439 0.081961364 1.0247501 1.8369341e-40
-0.29361439 0.081961364 1.0272501 1.5414283e-44
-0.29361439 0.084461361 1.0247501 0
-0.29361439 0.084461361 1.0272501 0
-0.29111439 0.081961364 1.0247501 1.6815582e-44
-0.29111439 0.081961364 1.0272501 1.6815582e-44
-0.29111439 0.084461361 1.0247501 1.8367099e-40
-0.29111439 0.084461361 1.0272501 1.4715568e-39
-0.28861439 0.081961364 1.0272501 2.8025969e-45
-0.28861439 0.084461361 1.0247501 2.4864135e-39
-0.28861439 0.084461361 1.0272501 3.0388811e-39
-0.28611439 0.084461361 1.0247501 3.8714682e-39
-0.28611439 0.084461361 1.0272501 1.4736727e-39
-0.29361439 0.076961361 1.0297501 0
-0.29361439 0.079461366 1.0297501 2.4914456e-39
-0.29111439 0.076961361 1.0297501 1.3861714e-39
-0.29111439 0.079461366 1.0297501 1.9618179e-44
-0.29361439 0.076961361 1.0347501 2.5153307e-42
-0.29361439 0.079461366 1.0347501 1.5662761e-39
-0.29111439 0.076961361 1.0347501 1.0177477e-39
-0.29111439 0.079461366 1.0347501 5.5642059e-40
-0.29361439 0.081961364 1.0297501 1.821688e-44
-0.29361439 0.084461361 1.0297501 4.5917748e-40
-0.29111439 0.081961364 1.0297501 1.6815582e-44
-0.29111439 0.084461361 1.0297501 4.2038954e-45
-0.28861439 0.076961361 1.0297501 1.1099447e-39
-0.28861439 0.079461366 1.0297501 9.1835496e-41
-0.28611439 0.076961361 1.0297501 0
-0.28611439 0.079461366 1.0297501 0
-0.28861439 0.076961361 1.0347501 5.5677091e-40
-0.28861439 0.079461366 1.0347501 4.6422496e-40
-0.28611439 0.076961361 1.0347501 1.8367099e-40
-0.28611439 0.079461366 1.0347501 5.0509523e-39
-0.28861439 0.081961364 1.0297501 0
-0.28861439 0.084461361 1.0297501 9.1835496e-41
-0.28611439 0.081961364 1.0297501 0
-0.28611439 0.084461361 1.0297501 1.3811198e-39
-0.29361439 0.086961366 1.0222501 9.1835496e-41
-0.29361439 0.089461364 1.0197501 2.3935117e-39
-0.29361439 0.089461364 1.0222501 2.3935117e-39
-0.29111439 0.086961366 1.0197501 1.1942202e-39
-0.29111439 0.086961366 1.0222501 1.3786086e-39
-0.29111439 0.089461364 1.0197501 4.1484152e-39
-0.29111439 0.089461364 1.0222501 4.6072087e-39
-0.29361439 0.086961366 1.0247501 0
-0.29361439 0.086961366 1.0272501 1.6530389e-39
-0.29111439 0.086961366 1.0247501 3.0370608e-39
-0.29111439 0.086961366 1.0272501 2.0250865e-39
-0.29111439 0.089461364 1.0247501 4.2392067e-39
-0.29111439 0.089461364 1.0272501 3.8707675e-39
-0.28861439 0.086961366 1.0197501 1.7491988e-39
-0.28861439 0.086961366 1.0222501 3.3140078e-39
-0.28861439 0.089461364 1.0197501 4.1448377e-39
-0.28861439 0.089461364 1.0222501 4.0544567e-39
-0.28611439 0.086961366 1.0197501 3.0399377e-39
-0.28611439 0.086961366 1.0222501 3.3215608e-39
-0.28611439 0.089461364 1.0197501 3.8700641e-39
-0.28611439 0.089461364 1.0222501 3.5945408e-39
-0.28861439 0.086961366 1.0247501 4.1434083e-39
-0.28861439 0.086961366 1.0272501 3.592052e-39
-0.28861439 0.089461364 1.0247501 3.9622611e-39
-0.28861439 0.089461364 1.0272501 4.0551602e-39
-0.28611439 0.086961366 1.0247501 3.6881755e-39
-0.28611439 0.086961366 1.0272501 3.7800208e-39
-0.29361439 0.086961366 1.0297501 5.5101298e-40
-0.29111439 0.086961366 1.0297501 2.9466854e-39
-0.28861439 0.086961366 1.0297501 3.5952386e-39
-0.2836144 0.094461367 0.99725008 1.6562941e-39
-0.2836144 0.074461363 1.0297501 5.0509523e-39
-0.2836144 0.089461364 1.0047501 2.764071e-39
-0.2836144 0.089461364 1.0072501 4.6980114e-39
-0.2836144 0.091961361 0.99975008 2.3016636e-39
-0.2836144 0.094461367 0.99975008 1.6562941e-39
-0.28111437 0.091961361 0.99975008 6.4466876e-40
-0.28111437 0.094461367 0.99975008 1.8410441e-39
-0.2836144 0.091961361 1.0047501 2.3938592e-39
-0.2836144 0.091961361 1.0072501 1.9357551e-39
-0.2836144 0.094461367 1.0047501 1.1981929e-39
-0.2836144 0.094461367 1.0072501 1.8403379e-39
-0.28111437 0.091961361 1.0072501 1.7481423e-39
-0.28111437 0.094461367 1.0047501 1.7484898e-39
-0.28111437 0.094461367 1.0072501 1.8410441e-39
-0.27861437 0.091961361 1.0072501 1.7481423e-39
-0.27861437 0.094461367 1.0047501 1.7484898e-39
-0.27861437 0.094461367 1.0072501 1.4747798e-39
-0.27611437 0.091961361 1.0072501 2.0254368e-39
-0.27611437 0.094461367 1.0072501 2.0254368e-39
-0.2836144 0.086961366 1.0097501 3.9619108e-39
-0.2836144 0.086961366 1.0122501 4.0559099e-39
-0.2836144 0.089461364 1.0097501 3.8697137e-39
-0.2836144 0.089461364 1.0122501 3.4094404e-39
-0.28111437 0.086961366 1.0097501 3.5009326e-39
-0.28111437 0.086961366 1.0122501 3.3179861e-39
-0.28111437 0.089461364 1.0097501 2.8555632e-39
-0.28111437 0.089461364 1.0122501 3.0403132e-39
-0.2836144 0.086961366 1.0147501 4.2384977e-39
-0.2836144 0.089461364 1.0147501 2.6729698e-39
-0.28111437 0.086961366 1.0147501 3.8697137e-39
-0.2836144 0.091961361 1.0097501 1.8425029e-39
-0.2836144 0.091961361 1.0122501 9.2449265e-40
-0.2836144 0.094461367 1.0097501 1.7484898e-39
-0.28111437 0.091961361 1.0097501 1.286811e-39
-0.28111437 0.094461367 1.0097501 1.7484898e-39
-0.27861437 0.086961366 1.0097501 2.4889289e-39
-0.27861437 0.086961366 1.0122501 1.5673313e-39
-0.27861437 0.089461364 1.0097501 1.8410441e-39
-0.27861437 0.089461364 1.0122501 1.8410441e-39
-0.27611437 0.086961366 1.0122501 1.2893291e-39
-0.27611437 0.089461364 1.0097501 1.7484898e-39
-0.27611437 0.089461364 1.0122501 1.6559466e-39
-0.27861437 0.086961366 1.0147501 3.5034339e-39
-0.27611437 0.086961366 1.0147501 3.1364647e-39
-0.27611437 0.089461364 1.0147501 1.4715568e-39
-0.27861437 0.091961361 1.0097501 1.6559466e-39
-0.27861437 0.091961361 1.0122501 1.8403351e-39
-0.27861437 0.094461367 1.0097501 2.667558e-39
-0.27861437 0.094461367 1.0122501 2.0254368e-39
-0.27611437 0.091961361 1.0097501 2.0250809e-39
-0.27611437 0.091961361 1.0122501 1.7484898e-39
-0.27611437 0.094461367 1.0097501 2.0257829e-39
-0.27611437 0.094461367 1.0122501 2.8516031e-39
-0.27611437 0.091961361 1.0147501 1.8410441e-39
-0.27611437 0.094461367 1.0147501 1.8413945e-39
-0.27361438 0.089461364 1.0122501 1.5669768e-39
-0.27361438 0.089461364 1.0147501 1.3825841e-39
-0.27111438 0.089461364 1.0147501 1.9357579e-39
-0.27361438 0.091961361 1.0122501 1.9335901e-39
-0.27361438 0.094461367 1.0122501 1.8413917e-39
-0.27361438 0.091961361 1.0147501 2.1179828e-39
-0.27361438 0.094461367 1.0147501 1.7491988e-39
-0.27111438 0.091961361 1.0147501 2.3020139e-39
-0.27111438 0.094461367 1.0147501 3.6734198e-40
-0.2836144 0.079461366 1.0272501 4.6836103e-39
-0.28111437 0.079461366 1.0272501 1.6212739e-38
-0.28111437 0.081961364 1.0222501 7.8182729e-39
-0.28111437 0.084461361 1.0222501 3.6867364e-39
-0.2836144 0.081961364 1.0272501 3.9489263e-39
-0.2836144 0.084461361 1.0247501 3.8707675e-39
-0.2836144 0.084461361 1.0272501 2.2072875e-39
-0.28111437 0.081961364 1.0272501 7.3583808e-39
-0.28111437 0.084461361 1.0247501 3.6867364e-39
-0.28111437 0.084461361 1.0272501 1.8410441e-39
-0.27861437 0.079461366 1.0197501 1.584288e-38
-0.27861437 0.079461366 1.0222501 1.6580801e-38
-0.27611437 0.076961361 1.0222501 1.5568151e-38
-0.27611437 0.079461366 1.0197501 1.5658489e-38
-0.27611437 0.079461366 1.0222501 1.6303855e-38
-0.27861437 0.076961361 1.0247501 2.1281291e-38
-0.27861437 0.079461366 1.0247501 1.6212739e-38
-0.27861437 0.079461366 1.0272501 1.6028348e-38
-0.27611437 0.079461366 1.0247501 1.1243563e-38
-0.27611437 0.079461366 1.0272501 0
-0.27861437 0.081961364 1.0197501 6.8949041e-39
-0.27861437 0.081961364 1.0222501 7.5406239e-39
-0.27861437 0.084461361 1.0197501 3.5034395e-39
-0.27861437 0.084461361 1.0222501 1.2903885e-39
-0.27611437 0.081961364 1.0197501 1.0105772e-39
-0.27611437 0.081961364 1.0222501 1.1981929e-39
-0.27611437 0.084461361 1.0197501 3.593487e-39
-0.27611437 0.084461361 1.0222501 3.3190427e-39
-0.27861437 0.081961364 1.0247501 4.4084794e-39
-0.27861437 0.081961364 1.0272501 5.3264896e-39
-0.27861437 0.084461361 1.0247501 3.4108852e-39
-0.27861437 0.084461361 1.0272501 1.8404094e-40
-0.27611437 0.081961364 1.0247501 2.2065813e-39
-0.27611437 0.081961364 1.0272501 1.6534075e-39
-0.27611437 0.084461361 1.0247501 2.9481176e-39
-0.27611437 0.084461361 1.0272501 2.1176324e-39
-0.2836144 0.076961361 1.0297501 0
-0.2836144 0.079461366 1.0297501 1.0218226e-38
-0.28111437 0.079461366 1.0297501 1.7962972e-38
-0.2836144 0.076961361 1.0347501 5.9829881e-39
-0.2836144 0.079461366 1.0347501 1.3435717e-38
-0.28111437 0.079461366 1.0347501 1.7777859e-38
-0.2836144 0.081961364 1.0297501 9.0168161e-39
-0.2836144 0.084461361 1.0297501 3.2221597e-39
-0.27861437 0.079461366 1.0297501 2.1097623e-38
-0.2836144 0.086961366 1.0197501 3.7796677e-39
-0.2836144 0.086961366 1.0222501 3.5063108e-39
-0.2836144 0.089461364 1.0197501 3.226847e-39
-0.28111437 0.086961366 1.0197501 3.6867364e-39
-0.28111437 0.086961366 1.0222501 3.1371681e-39
-0.28111437 0.089461364 1.0197501 2.6711551e-39
-0.2836144 0.086961366 1.0247501 3.3201119e-39
-0.2836144 0.086961366 1.0272501 3.5970589e-39
-0.28111437 0.086961366 1.0247501 3.1346514e-39
-0.28111437 0.086961366 1.0272501 3.4123075e-39
-0.27861437 0.086961366 1.0197501 3.9629645e-39
-0.27861437 0.086961366 1.0222501 3.5027305e-39
-0.27861437 0.089461364 1.0197501 1.3818779e-39
-0.27611437 0.086961366 1.0197501 2.7676836e-39
-0.27611437 0.086961366 1.0222501 1.9357579e-39
-0.27611437 0.089461364 1.0197501 8.2870969e-40
-0.27611437 0.089461364 1.0222501 1.4726133e-39
-0.27861437 0.086961366 1.0247501 3.6856826e-39
-0.27611437 0.091961361 1.0197501 1.749196e-39
-0.27611437 0.094461367 1.0197501 1.7491988e-39
-0.2836144 0.086961366 1.0347501 3.8707675e-39
-0.27361438 0.076961361 1.0222501 6.9017635e-39
-0.27361438 0.079461366 1.0197501 0
-0.27361438 0.079461366 1.0222501 0
-0.27111438 0.076961361 1.0222501 7.6445876e-39
-0.27111438 0.079461366 1.0197501 0
-0.27111438 0.079461366 1.0222501 0
-0.27361438 0.079461366 1.0247501 0
-0.27361438 0.079461366 1.0272501 0
-0.27111438 0.076961361 1.0247501 1.0963962e-38
-0.27111438 0.079461366 1.0247501 1.4693679e-39
-0.27111438 0.079461366 1.0272501 1.102026e-39
-0.27361438 0.081961364 1.0197501 3.3161742e-39
-0.27361438 0.081961364 1.0222501 7.3721471e-40
-0.27361438 0.084461361 1.0197501 1.8403407e-39
-0.27361438 0.084461361 1.0222501 1.1063476e-39
-0.27111438 0.081961364 1.0197501 7.3756504e-40
-0.27111438 0.081961364 1.0222501 2.8018262e-40
-0.27111438 0.084461361 1.0222501 1.7506576e-39
-0.27361438 0.081961364 1.0247501 1.8381575e-39
-0.27361438 0.081961364 1.0272501 9.2266255e-40
-0.27361438 0.084461361 1.0247501 2.3027482e-39
-0.27111438 0.081961364 1.0247501 0
-0.27111438 0.081961364 1.0272501 7.1746481e-43
-0.27111438 0.084461361 1.0247501 1.5666265e-39
-0.26861438 0.079461366 1.0222501 1.0208807e-38
-0.26861438 0.079461366 1.0247501 1.0760932e-38
-0.26861438 0.079461366 1.0272501 9.8400467e-39
-0.26861438 0.081961364 1.0197501 8.2976627e-40
-0.26861438 0.081961364 1.0222501 2.1122164e-39
-0.26861438 0.084461361 1.0197501 1.3818835e-39
-0.26861438 0.084461361 1.0222501 1.1063476e-39
-0.26611438 0.081961364 1.0197501 0
-0.26611438 0.081961364 1.0222501 2.1122164e-39
-0.26611438 0.084461361 1.0197501 1.2896822e-39
-0.26611438 0.084461361 1.0222501 0
-0.26861438 0.081961364 1.0247501 2.2958874e-39
-0.26861438 0.081961364 1.0272501 1.7448744e-39
-0.26861438 0.084461361 1.0247501 1.5666265e-39
-0.26861438 0.084461361 1.0272501 0
-0.26611438 0.081961364 1.0247501 1.7448744e-39
-0.26611438 0.084461361 1.0247501 0
-0.27361438 0.086961366 1.0222501 1.7510079e-39
-0.27361438 0.089461364 1.0197501 2.1179828e-39
-0.27361438 0.089461364 1.0222501 2.1179828e-39
-0.27111438 0.086961366 1.0222501 1.7481423e-39
-0.27111438 0.089461364 1.0197501 1.7510079e-39
-0.27111438 0.089461364 1.0222501 1.9357579e-39
-0.27361438 0.086961366 1.0247501 2.390625e-39
-0.27111438 0.086961366 1.0247501 2.3016636e-39
-0.27361438 0.091961361 1.0197501 2.0257857e-39
-0.27361438 0.091961361 1.0222501 1.3804163e-39
-0.27361438 0.094461367 1.0197501 4.5917748e-40
-0.27361438 0.094461367 1.0222501 2.7658689e-40
-0.27111438 0.091961361 1.0197501 1.1981929e-39
-0.27111438 0.091961361 1.0222501 5.5571433e-40
-0.27111438 0.094461367 1.0197501 4.2038954e-45
-0.27111438 0.094461367 1.0222501 0
-0.27111438 0.094461367 1.0247501 1.1095944e-39
-0.26861438 0.086961366 1.0222501 2.1179828e-39
-0.26861438 0.089461364 1.0222501 0
-0.26611438 0.086961366 1.0222501 0
-0.26611438 0.089461364 1.0197501 0
-0.26611438 0.089461364 1.0222501 0
-0.26861438 0.086961366 1.0247501 2.5786092e-39
-0.26611438 0.086961366 1.0247501 0
-0.26611438 0.089461364 1.0247501 0
-0.26861438 0.091961361 1.0222501 3.1346038e-39
-0.26861438 0.094461367 1.0197501 8.2896809e-39
-0.26861438 0.094461367 1.0222501 6.3550539e-39
-0.26611438 0.091961361 1.0197501 8.5737606e-39
-0.26611438 0.091961361 1.0222501 9.6747005e-39
-0.26611438 0.094461367 1.0197501 1.3996514e-38
-0.26611438 0.094461367 1.0222501 1.6585881e-38
-0.26861438 0.094461367 1.0247501 6.9085766e-39
-0.26611438 0.091961361 1.0247501 1.2438857e-38
-0.26611438 0.094461367 1.0247501 1.7142624e-38
-0.26361439 0.091961361 1.0147501 1.2805482e-38
-0.26361439 0.094461367 1.0147501 2.2386329e-38
-0.26111439 0.091961361 1.0147501 1.9721233e-38
-0.26111439 0.094461367 1.0147501 1.9538624e-38
-0.26361439 0.084461361 1.0222501 1.8367099e-39
-0.26361439 0.086961366 1.0222501 1.3775324e-39
-0.26361439 0.089461364 1.0197501 0
-0.26361439 0.089461364 1.0222501 0
-0.26111439 0.089461364 1.0197501 1.1985788e-38
-0.26361439 0.091961361 1.0197501 1.2622169e-38
-0.26361439 0.091961361 1.0222501 1.2715071e-38
-0.26361439 0.094461367 1.0197501 1.7602526e-38
-0.26361439 0.094461367 1.0222501 1.7418132e-38
-0.26111439 0.091961361 1.0197501 1.9536483e-38
-0.26111439 0.094461367 1.0197501 1.9538634e-38
-0.34861439 0.10446136 0.9747501 1.8155331e-38
-0.3461144 0.10446136 0.9747501 1.4190919e-38
-0.3461144 0.10446136 0.9772501 1.11492e-38
-0.35111439 0.10946137 0.9722501 1.8153534e-38
-0.35111439 0.10946137 0.9772501 1.8981847e-38
-0.35111439 0.11196136 0.9722501 1.8060973e-38
-0.35111439 0.11196136 0.9772501 1.898185e-38
-0.34861439 0.10696136 0.9722501 1.8706708e-38
-0.34861439 0.10946137 0.9722501 1.9166597e-38
-0.3461144 0.10696136 0.9722501 1.3546268e-38
-0.3461144 0.10946137 0.9722501 1.8065658e-38
-0.34861439 0.10696136 0.9747501 1.7695799e-38
-0.34861439 0.10946137 0.9747501 1.9074399e-38
-0.34861439 0.10946137 0.9772501 1.8157134e-38
-0.3461144 0.10696136 0.9747501 1.3454801e-38
-0.3461144 0.10946137 0.9747501 1.4377834e-38
-0.3461144 0.10946137 0.9772501 1.1890382e-38
-0.34861439 0.11196136 0.96975011 1.8613421e-38
-0.34861439 0.11196136 0.9722501 1.8798535e-38
-0.34861439 0.11446136 0.96975011 1.8245717e-38
-0.34861439 0.11446136 0.9722501 1.8797456e-38
-0.3461144 0.11196136 0.96975011 1.7787623e-38
-0.3461144 0.11196136 0.9722501 1.8247885e-38
-0.3461144 0.11446136 0.96975011 1.7878371e-38
-0.3461144 0.11446136 0.9722501 1.8153519e-38
-0.34861439 0.11196136 0.9747501 1.806421e-38
-0.34861439 0.11196136 0.9772501 1.8248251e-38
-0.34861439 0.11446136 0.9747501 1.870634e-38
-0.34861439 0.11446136 0.9772501 1.8338999e-38
-0.3461144 0.11196136 0.9747501 1.603483e-38
-0.3461144 0.11196136 0.9772501 1.2074791e-38
-0.3461144 0.11446136 0.9747501 1.5852588e-38
-0.3461144 0.11446136 0.9772501 1.5296938e-38
-0.3461144 0.11196136 0.9797501 1.1523044e-38
-0.3461144 0.11446136 0.9797501 1.5205096e-38
-0.34861439 0.11696137 0.9772501 1.7878374e-38
-0.3461144 0.11696137 0.9747501 1.8244638e-38
-0.3461144 0.11696137 0.9772501 1.6405081e-38
-0.34861439 0.11696137 0.9797501 1.7878377e-38
-0.3461144 0.11696137 0.9797501 1.6958605e-38
-0.34861439 0.11696137 0.98475009 1.6683093e-38
-0.3461144 0.11696137 0.98475009 1.3639911e-38
-0.3461144 0.11946137 0.98475009 1.6773468e-38
-0.3461144 0.11946137 0.98725009 1.6590544e-38
-0.34361437 0.10446136 0.9747501 4.7880589e-39
-0.34361437 0.10446136 0.9772501 4.6033103e-39
-0.34111437 0.10446136 0.9747501 3.8771813e-39
-0.34111437 0.10446136 0.9772501 4.6635213e-42
-0.33611438 0.099461362 0.9772501 3.9770294e-39
-0.33861437 0.10446136 0.9747501 3.9460565e-42
-0.33861437 0.10446136 0.9772501 8.3695353e-40
-0.33611438 0.10196137 0.9772501 5.7635406e-42
-0.33611438 0.10446136 0.9747501 1.1114076e-39
-0.33611438 0.10446136 0.9772501 1.2053773e-39
-0.34361437 0.10696136 0.9722501 1.069215e-38
-0.34361437 0.10946137 0.9722501 1.0327352e-38
-0.34111437 0.10696136 0.9722501 7.6497135e-39
-0.34111437 0.10946137 0.9722501 8.3880269e-39
-0.34361437 0.10696136 0.9747501 6.4515109e-39
-0.34361437 0.10696136 0.9772501 7.1894444e-39
-0.34361437 0.10946137 0.9747501 8.2990514e-39
-0.34361437 0.10946137 0.9772501 8.5713391e-39
-0.34111437 0.10696136 0.9747501 7.5571522e-39
-0.34111437 0.10696136 0.9772501 5.7136109e-39
-0.34111437 0.10946137 0.9747501 1.0509601e-38
-0.34111437 0.10946137 0.9772501 1.272157e-38
-0.34361437 0.11196136 0.96975011 1.5943712e-38
-0.34361437 0.11446136 0.96975011 1.7601783e-38
-0.34361437 0.11446136 0.9722501 1.5944825e-38
-0.34361437 0.11196136 0.9747501 1.0508194e-38
-0.34361437 0.11196136 0.9772501 1.041563e-38
-0.34361437 0.11446136 0.9747501 1.576114e-38
-0.34361437 0.11446136 0.9772501 1.4097319e-38
-0.34111437 0.11196136 0.9747501 1.1523365e-38
-0.34111437 0.11196136 0.9772501 1.3089612e-38
-0.34111437 0.11446136 0.9747501 1.0876192e-38
-0.34111437 0.11446136 0.9772501 1.2537158e-38
-0.33861437 0.10696136 0.9747501 2.9506749e-39
-0.33861437 0.10696136 0.9772501 3.3198064e-39
-0.33861437 0.10946137 0.9747501 1.0966989e-38
-0.33861437 0.10946137 0.9772501 1.0875154e-38
-0.33611438 0.10696136 0.9747501 2.9427268e-44
-0.33611438 0.10696136 0.9772501 8.2652507e-40
-0.33611438 0.10946137 0.9747501 0
-0.33611438 0.10946137 0.9772501 0
-0.33861437 0.11196136 0.9747501 9.9535337e-39
-0.33861437 0.11196136 0.9772501 9.8617094e-39
-0.33861437 0.11446136 0.9772501 8.4812819e-39
-0.33611438 0.11196136 0.9747501 0
-0.33611438 0.11196136 0.9772501 0
-0.33611438 0.11446136 0.9772501 0
-0.33361438 0.099461362 0.9747501 1.4012985e-45
-0.33361438 0.099461362 0.9772501 8.4077908e-45
-0.33111438 0.099461362 0.9747501 0
-0.33111438 0.099461362 0.9772501 8.2903199e-40
-0.33361438 0.10196137 0.9747501 1.2972226e-39
-0.33361438 0.10196137 0.9772501 1.1088881e-39
-0.33361438 0.10446136 0.9747501 1.8370182e-40
-0.33361438 0.10446136 0.9772501 1.8370182e-40
-0.33111438 0.10196137 0.9747501 2.6765417e-39
-0.33111438 0.10196137 0.9772501 2.4917987e-39
-0.33111438 0.10446136 0.9747501 2.3822074e-44
-0.33111438 0.10446136 0.9772501 1.6815582e-44
-0.32861438 0.099461362 0.9747501 2.2123448e-39
-0.32861438 0.099461362 0.9772501 1.7546106e-39
-0.32611439 0.099461362 0.9747501 2.8577142e-39
-0.32611439 0.099461362 0.9772501 2.6765571e-39
-0.32861438 0.10196137 0.9747501 2.5843461e-39
-0.32861438 0.10196137 0.9772501 1.9357579e-39
-0.32861438 0.10446136 0.9747501 1.2611686e-44
-0.32861438 0.10446136 0.9772501 7.0064923e-45
-0.32611439 0.10196137 0.9747501 7.0064923e-45
-0.32611439 0.10196137 0.9772501 2.3822074e-44
-0.32611439 0.10446136 0.9747501 1.2611686e-44
-0.32611439 0.10446136 0.9772501 0
-0.33361438 0.10696136 0.9747501 1.4012985e-45
-0.33361438 0.10696136 0.9772501 0
-0.33361438 0.10946137 0.9747501 0
-0.33111438 0.10696136 0.9747501 0
-0.33111438 0.10696136 0.9772501 0
-0.33111438 0.10946137 0.9747501 0
-0.33111438 0.10946137 0.9772501 0
-0.33361438 0.11196136 0.9747501 2.0286598e-39
-0.33361438 0.11446136 0.9747501 2.302367e-39
-0.33361438 0.11446136 0.9772501 2.5793126e-39
-0.33111438 0.11196136 0.9747501 9.8573346e-39
-0.33111438 0.11196136 0.9772501 1.3176728e-38
-0.33111438 0.11446136 0.9747501 7.0846862e-39
-0.33111438 0.11446136 0.9772501 1.1420382e-38
-0.32861438 0.10696136 0.9747501 0
-0.32861438 0.10696136 0.9772501 3.6734198e-40
-0.32861438 0.10946137 0.9747501 9.1911166e-41
-0.32861438 0.10946137 0.9772501 0
-0.32611439 0.10696136 0.9747501 0
-0.32611439 0.10696136 0.9772501 0
-0.32611439 0.10946137 0.9747501 1.3822913e-39
-0.32611439 0.10946137 0.9772501 1.3825841e-39
-0.32861438 0.11446136 0.9722501 1.4645804e-38
-0.32611439 0.11446136 0.9722501 1.4931006e-38
-0.32861438 0.11196136 0.9747501 1.1337872e-38
-0.32861438 0.11196136 0.9772501 1.0784698e-38
-0.32861438 0.11446136 0.9747501 1.6304249e-38
-0.32861438 0.11446136 0.9772501 1.2904167e-38
-0.32611439 0.11196136 0.9747501 4.6997869e-39
-0.32611439 0.11196136 0.9772501 4.1466131e-39
-0.34361437 0.10446136 0.9797501 7.3724064e-39
-0.34111437 0.10446136 0.9797501 0
-0.33611438 0.099461362 0.9797501 4.069225e-39
-0.33611438 0.099461362 0.98475009 4.6015979e-39
-0.33861437 0.10196137 0.9797501 5.5101298e-40
-0.33861437 0.10446136 0.9797501 4.6025368e-40
-0.33611438 0.10196137 0.9797501 3.7237825e-40
-0.33611438 0.10446136 0.9797501 1.9357579e-39
-0.33611438 0.10196137 0.98475009 5.6051939e-45
-0.34361437 0.10696136 0.9797501 7.5593158e-39
-0.34361437 0.10946137 0.9797501 1.0049712e-38
-0.34111437 0.10696136 0.9797501 5.9001546e-39
-0.34361437 0.10696136 0.98475009 2.8698593e-42
-0.34111437 0.10696136 0.98475009 8.3730106e-40
-0.34361437 0.11196136 0.9797501 1.170669e-38
-0.34361437 0.11446136 0.9797501 1.3914004e-38
-0.34111437 0.11196136 0.9797501 1.318218e-38
-0.34111437 0.11446136 0.9797501 1.2350246e-38
-0.34361437 0.11446136 0.98475009 1.2350246e-38
-0.34111437 0.11446136 0.98475009 7.8380775e-39
-0.33861437 0.10696136 0.9797501 2.9510267e-39
-0.33861437 0.10946137 0.9797501 9.4053934e-39
-0.33611438 0.10696136 0.9797501 1.1049407e-39
-0.33861437 0.11196136 0.9797501 1.0045376e-38
-0.33861437 0.11446136 0.9797501 8.2972508e-39
-0.33611438 0.11446136 0.9797501 0
-0.33361438 0.099461362 0.9797501 0
-0.33111438 0.099461362 0.9797501 0
-0.33361438 0.099461362 0.98475009 1.4349296e-42
-0.33361438 0.099461362 0.98725009 0
-0.33111438 0.096961364 0.98725009 3.3323788e-39
-0.33111438 0.099461362 0.98475009 0
-0.33111438 0.099461362 0.98725009 3.9628721e-42
-0.33361438 0.10196137 0.9797501 2.7690961e-39
-0.33361438 0.10446136 0.9797501 2.7683926e-39
-0.33111438 0.10196137 0.9797501 2.8612917e-39
-0.33361438 0.10196137 0.98475009 0
-0.33111438 0.10196137 0.98475009 2.3963773e-39
-0.32861438 0.099461362 0.9797501 3.3161742e-39
-0.32611439 0.099461362 0.9797501 3.0417523e-39
-0.32861438 0.096961364 0.98725009 0
-0.32861438 0.099461362 0.98475009 5.5895133e-40
-0.32861438 0.099461362 0.98725009 2.4914456e-39
-0.32611439 0.099461362 0.98475009 2.6765417e-39
-0.32611439 0.099461362 0.98725009 2.1237267e-39
-0.32861438 0.10196137 0.9797501 1.9618179e-44
-0.32861438 0.10446136 0.9797501 1.2611686e-44
-0.32611439 0.10196137 0.9797501 2.3822074e-44
-0.32611439 0.10446136 0.9797501 0
-0.32861438 0.10196137 0.98475009 3.6849483e-39
-0.32861438 0.10196137 0.98725009 2.123033e-39
-0.32861438 0.10446136 0.98475009 9.8090893e-45
-0.32611439 0.10196137 0.98475009 1.5414283e-44
-0.32611439 0.10196137 0.98725009 2.3963829e-39
-0.32611439 0.10446136 0.98475009 0
-0.32611439 0.10446136 0.98725009 0
-0.33111438 0.096961364 0.98975009 7.0064923e-45
-0.33111438 0.099461362 0.98975009 7.4404885e-40
-0.33111438 0.099461362 0.99225008 1.1210388e-44
-0.33361438 0.099461362 0.99475008 9.5082305e-41
-0.33111438 0.096961364 0.99475008 0
-0.33111438 0.099461362 0.99475008 0
-0.33111438 0.099461362 0.99725008 0
-0.33361438 0.10196137 0.99225008 2.1201492e-39
-0.33111438 0.10196137 0.99225008 2.5811273e-39
-0.32861438 0.099461362 0.98975009 2.9538377e-39
-0.32861438 0.099461362 0.99225008 6.4465054e-40
-0.32611439 0.096961364 0.98975009 1.1970942e-39
-0.32611439 0.099461362 0.98975009 2.4914456e-39
-0.32611439 0.099461362 0.99225008 1.4747798e-39
-0.32861438 0.096961364 0.99475008 1.0761972e-42
-0.32861438 0.096961364 0.99725008 3.61535e-42
-0.32861438 0.099461362 0.99475008 2.030822e-39
-0.32861438 0.099461362 0.99725008 2.1204995e-39
-0.32611439 0.096961364 0.99475008 2.1233862e-39
-0.32611439 0.096961364 0.99725008 1.2021403e-39
-0.32611439 0.099461362 0.99475008 2.8580701e-39
-0.32861438 0.10196137 0.98975009 3.1342983e-39
-0.32861438 0.10196137 0.99225008 1.9382732e-39
-0.32611439 0.10196137 0.98975009 1.8369341e-40
-0.32611439 0.10196137 0.99225008 9.8090893e-45
-0.32611439 0.10446136 0.98975009 2.8025969e-45
-0.32611439 0.10446136 0.99225008 5.6051939e-45
-0.32861438 0.10196137 0.99475008 1.0173945e-39
-0.32611439 0.10196137 0.99475008 4.2038954e-45
-0.33361438 0.10696136 0.9797501 1.821688e-44
-0.32861438 0.10696136 0.9797501 7.0064923e-45
-0.32611439 0.10696136 0.9797501 0
-0.32611439 0.10696136 0.98475009 0
-0.34361437 0.11696137 0.9747501 1.345517e-38
-0.34361437 0.11696137 0.9772501 1.3733186e-38
-0.34111437 0.11696137 0.9747501 1.0875847e-38
-0.34111437 0.11696137 0.9772501 1.106276e-38
-0.33861437 0.11696137 0.9772501 1.0049712e-38
-0.33861437 0.11946137 0.9772501 1.5303749e-38
-0.33611438 0.11696137 0.9772501 0
-0.33611438 0.11946137 0.9772501 9.772371e-39
-0.33861437 0.12196136 0.9772501 1.6035944e-38
-0.33611438 0.12196136 0.9772501 1.0135424e-38
-0.33611438 0.12446137 0.9772501 4.7927729e-39
-0.33611438 0.12696137 0.9772501 8.7582695e-39
-0.33611438 0.12946136 0.9772501 1.0966989e-38
-0.33611438 0.13196136 0.9772501 1.0596737e-38
-0.33361438 0.11696137 0.9747501 0
-0.33361438 0.11696137 0.9772501 0
-0.33361438 0.11946137 0.9747501 5.9023224e-39
-0.33361438 0.11946137 0.9772501 5.9023196e-39
-0.33111438 0.11696137 0.9747501 4.8737385e-39
-0.33111438 0.11696137 0.9772501 5.0559745e-39
-0.33111438 0.11946137 0.9747501 7.8261763e-39
-0.33111438 0.11946137 0.9772501 7.3666527e-39
-0.33361438 0.12196136 0.9747501 2.3941801e-39
-0.33361438 0.12196136 0.9772501 2.8537233e-39
-0.33361438 0.12446137 0.9747501 1.1045875e-39
-0.33361438 0.12446137 0.9772501 3.6737421e-40
-0.33111438 0.12196136 0.9747501 7.5470558e-39
-0.33111438 0.12196136 0.9772501 7.8225637e-39
-0.33111438 0.12446137 0.9747501 2.7644045e-39
-0.33111438 0.12446137 0.9772501 2.7593697e-39
-0.32861438 0.11696137 0.9722501 1.3447206e-38
-0.32861438 0.11946137 0.9722501 1.0683896e-38
-0.32611439 0.11696137 0.96975011 1.2896916e-38
-0.32611439 0.11696137 0.9722501 1.2813022e-38
-0.32611439 0.11946137 0.96975011 1.2255882e-38
-0.32611439 0.11946137 0.9722501 1.391251e-38
-0.32861438 0.11696137 0.9747501 1.4554267e-38
-0.32861438 0.11946137 0.9747501 1.3355376e-38
-0.32611439 0.12196136 0.9722501 1.2712528e-38
-0.32611439 0.12446137 0.9722501 2.9419645e-39
-0.32861438 0.12196136 0.9747501 1.3446856e-38
-0.32861438 0.12196136 0.9772501 1.2528138e-38
-0.32861438 0.12446137 0.9747501 8.28929e-39
-0.32861438 0.12446137 0.9772501 8.2904012e-39
-0.32611439 0.12446137 0.9747501 9.9499183e-39
-0.33361438 0.12696137 0.9772501 3.3190847e-39
-0.33361438 0.12946136 0.9772501 8.9383322e-39
-0.33111438 0.12696137 0.9747501 3.7760551e-39
-0.33111438 0.12696137 0.9772501 3.7760551e-39
-0.33111438 0.12946136 0.9747501 8.7560415e-39
-0.33111438 0.12946136 0.9772501 8.4798273e-39
-0.33361438 0.13196136 0.9772501 9.3978404e-39
-0.33111438 0.13196136 0.9772501 1.1244605e-38
-0.32611439 0.12696137 0.9722501 1.8367099e-40
-0.32611439 0.12946136 0.9722501 0
-0.32861438 0.12696137 0.9747501 7.9255802e-39
-0.32861438 0.12696137 0.9772501 7.2809408e-39
-0.32861438 0.12946136 0.9747501 8.3883772e-39
-0.32861438 0.12946136 0.9772501 8.3883772e-39
-0.32611439 0.12696137 0.9747501 0
-0.32611439 0.12946136 0.9747501 0
-0.32611439 0.12946136 0.9772501 0
-0.32861438 0.13196136 0.9747501 9.2213959e-39
-0.32861438 0.13196136 0.9772501 1.0324485e-38
-0.32611439 0.13196136 0.9747501 2.1019477e-44
-0.32611439 0.13196136 0.9772501 4.6087151e-39
-0.32611439 0.13446136 0.9772501 6.3506398e-39
-0.34361437 0.11696137 0.9797501 1.4192735e-38
-0.34111437 0.11696137 0.9797501 1.0693248e-38
-0.34111437 0.11946137 0.9797501 1.6866758e-38
-0.34361437 0.11696137 0.98475009 1.0601772e-38
-0.34361437 0.11696137 0.98725009 7.4678208e-39
-0.34361437 0.11946137 0.98475009 1.7050804e-38
-0.34361437 0.11946137 0.98725009 1.7143718e-38
-0.34111437 0.11696137 0.98475009 1.0234456e-38
-0.34111437 0.11696137 0.98725009 6.6398846e-39
-0.34111437 0.11946137 0.98475009 1.5395944e-38
-0.34111437 0.11946137 0.98725009 1.5487421e-38
-0.34361437 0.12196136 0.98725009 1.7139755e-38
-0.34111437 0.12196136 0.98475009 1.5116513e-38
-0.34111437 0.12196136 0.98725009 9.7673642e-39
-0.34111437 0.12446137 0.98725009 9.2176937e-39
-0.33861437 0.11696137 0.9797501 9.2269759e-40
-0.33611438 0.11696137 0.9797501 0
-0.33611438 0.11946137 0.9797501 6.917919e-39
-0.33861437 0.11696137 0.98475009 2.2420775e-44
-0.33861437 0.11946137 0.98475009 9.8634877e-39
-0.33611438 0.11946137 0.98475009 6.8239157e-39
-0.33611438 0.12446137 0.9797501 6.3554196e-39
-0.33861437 0.12196136 0.98475009 9.9517554e-39
-0.33861437 0.12196136 0.98725009 9.8591703e-39
-0.33861437 0.12446137 0.98725009 5.7118481e-39
-0.33611438 0.12196136 0.98475009 9.3059979e-39
-0.33611438 0.12196136 0.98725009 6.8195829e-39
-0.33611438 0.12446137 0.98475009 5.5176968e-40
-0.33611438 0.12446137 0.98725009 1.0102241e-39
-0.34361437 0.12196136 0.98975009 1.594483e-38
-0.34361437 0.12196136 0.99225008 1.5116863e-38
-0.34111437 0.12196136 0.98975009 1.0041787e-38
-0.34111437 0.12196136 0.99225008 9.5822499e-39
-0.34111437 0.12446137 0.98975009 8.3851584e-39
-0.34111437 0.12446137 0.99225008 8.2936606e-39
-0.34361437 0.12196136 0.99475008 1.6126339e-38
-0.34361437 0.12446137 0.99475008 9.3078112e-39
-0.33861437 0.12446137 0.98975009 6.9096276e-39
-0.34111437 0.12696137 0.98725009 8.6731715e-39
-0.34111437 0.12946136 0.98725009 1.1972442e-38
-0.34111437 0.13196136 0.98725009 1.3267871e-38
-0.33611438 0.12696137 0.9797501 8.7582667e-39
-0.33611438 0.12946136 0.9797501 1.1612005e-38
-0.33861437 0.12696137 0.98725009 7.6508276e-39
-0.33861437 0.12946136 0.98725009 1.1337567e-38
-0.33611438 0.12696137 0.98475009 7.5575628e-39
-0.33611438 0.12946136 0.98475009 1.1521958e-38
-0.33611438 0.13196136 0.9797501 1.1149556e-38
-0.33611438 0.13446136 0.9797501 7.0024566e-39
-0.33861437 0.13196136 0.98725009 1.1334299e-38
-0.33611438 0.13196136 0.98475009 1.1426495e-38
-0.33611438 0.13446136 0.98475009 7.3683636e-40
-0.34111437 0.12696137 0.98975009 8.8471329e-39
-0.34111437 0.12696137 0.99225008 7.9331205e-39
-0.34111437 0.12946136 0.98975009 1.1513263e-38
-0.34111437 0.12946136 0.99225008 1.1144126e-38
-0.34111437 0.13196136 0.98975009 1.3178563e-38
-0.33861437 0.12696137 0.98975009 6.3557728e-39
-0.33861437 0.12946136 0.98975009 8.391645e-39
-0.33861437 0.13196136 0.98975009 1.1521602e-38
-0.33361438 0.11946137 0.9797501 7.8233078e-39
-0.33361438 0.12196136 0.9797501 3.7724622e-39
-0.33361438 0.12446137 0.9797501 1.3790136e-39
-0.33111438 0.12196136 0.9797501 1.2895472e-38
-0.33111438 0.12446137 0.9797501 9.5828931e-39
-0.33361438 0.12196136 0.98475009 1.0865003e-38
-0.33361438 0.12196136 0.98725009 9.2101547e-39
-0.33361438 0.12446137 0.98475009 7.8247119e-39
-0.33361438 0.12446137 0.98725009 3.130299e-39
-0.33111438 0.12446137 0.98475009 1.2985869e-38
-0.32861438 0.12196136 0.9797501 1.225155e-38
-0.32861438 0.12446137 0.9797501 8.382594e-39
-0.33361438 0.12696137 0.9797501 2.9520945e-39
-0.33361438 0.12946136 0.9797501 8.4791435e-39
-0.33111438 0.12696137 0.9797501 8.6624235e-39
-0.33111438 0.12946136 0.9797501 9.3988773e-39
-0.33361438 0.12696137 0.98475009 3.0381174e-39
-0.33361438 0.12946136 0.98475009 8.5712999e-39
-0.33361438 0.13196136 0.9797501 9.5829407e-39
-0.33361438 0.13446136 0.9797501 5.159693e-39
-0.33111438 0.13196136 0.9797501 1.0781792e-38
-0.33111438 0.13446136 0.9797501 1.13368e-38
-0.33361438 0.13196136 0.98475009 9.675446e-39
-0.33361438 0.13446136 0.98475009 4.6972505e-39
-0.33111438 0.13446136 0.98475009 1.1519727e-38
-0.32861438 0.13196136 0.9797501 8.5771083e-39
-0.32861438 0.13446136 0.9797501 6.9960302e-39
-0.32611439 0.13446136 0.9797501 6.0744158e-39
-0.32611439 0.13696137 0.9772501 1.3730973e-38
-0.32361439 0.10446136 0.9747501 0
-0.32361439 0.10446136 0.9772501 0
-0.32361439 0.11446136 0.96725005 1.4837738e-38
-0.32111439 0.11196136 0.96725005 1.8615928e-39
-0.32111439 0.11446136 0.96475005 1.170924e-38
-0.32111439 0.11446136 0.96725005 1.1802508e-38
-0.3161144 0.10946137 0.96725005 3.5938317e-39
-0.31861439 0.11446136 0.96225005 8.8475785e-39
-0.3161144 0.11446136 0.96225005 2.4900401e-39
-0.31861439 0.11196136 0.96475005 5.7050083e-40
-0.31861439 0.11196136 0.96725005 2.0171271e-40
-0.31861439 0.11446136 0.96475005 5.3488137e-39
-0.3161144 0.11196136 0.96475005 7.9257441e-42
-0.3161144 0.11196136 0.96725005 8.6362024e-42
-0.3161144 0.11446136 0.96475005 1.4349296e-42
-0.32361439 0.10946137 0.9722501 2.1244427e-39
-0.32111439 0.10946137 0.96975011 2.7698121e-39
-0.32111439 0.10946137 0.9722501 4.2399102e-39
-0.32361439 0.10696136 0.9747501 0
-0.32361439 0.10696136 0.9772501 1.102026e-39
-0.32361439 0.10946137 0.9747501 3.503043e-39
-0.32361439 0.10946137 0.9772501 4.0555161e-39
-0.32111439 0.10696136 0.9747501 9.1835496e-40
-0.32111439 0.10696136 0.9772501 3.1296151e-39
-0.32111439 0.10946137 0.9747501 3.6881755e-39
-0.32111439 0.10946137 0.9772501 3.5938317e-39
-0.32361439 0.11196136 0.96975011 9.7709613e-39
-0.32361439 0.11196136 0.9722501 1.9457646e-39
-0.32361439 0.11446136 0.96975011 1.4746256e-38
-0.32111439 0.11196136 0.96975011 4.7065692e-40
-0.32111439 0.11196136 0.9722501 1.5695089e-39
-0.31861439 0.10946137 0.96975011 3.6874721e-39
-0.31861439 0.10946137 0.9722501 3.7803711e-39
-0.3161144 0.10946137 0.96975011 3.7796677e-39
-0.3161144 0.10946137 0.9722501 3.7796677e-39
-0.31861439 0.10696136 0.9772501 3.1371681e-39
-0.31861439 0.10946137 0.9747501 4.0555105e-39
-0.31861439 0.10946137 0.9772501 2.9516895e-39
-0.3161144 0.10696136 0.9747501 3.3219111e-39
-0.3161144 0.10696136 0.9772501 3.3215608e-39
-0.3161144 0.10946137 0.9747501 3.2264939e-39
-0.31861439 0.11196136 0.96975011 1.8446735e-39
-0.31861439 0.11196136 0.9722501 1.7542603e-39
-0.3161144 0.11196136 0.96975011 1.660641e-39
-0.3161144 0.11196136 0.9722501 2.0254368e-39
-0.3136144 0.10446136 0.9772501 3.4123075e-39
-0.31111437 0.10446136 0.9747501 3.8707675e-39
-0.31111437 0.10446136 0.9772501 3.7796677e-39
