# .PCD v0.7 - Point Cloud Data file format
VERSION 0.7
FIELDS x y z rgb
SIZE 4 4 4 4
TYPE F F F F
COUNT 1 1 1 1
WIDTH 1114
HEIGHT 1
VIEWPOINT 0 0 0 1 0 0 0
POINTS 1114
DATA ascii
0.21041319 0.095428593 0.99274999 0
0.2129132 0.095428593 0.99024999 1.6566445e-39
0.2129132 0.095428593 0.99274999 1.4726133e-39
0.2129132 0.095428593 0.99524999 0
0.2154132 0.092928596 0.99524999 1.4693679e-39
0.2154132 0.095428593 0.99274999 2.6689859e-39
0.2154132 0.095428593 0.99524999 3.6734198e-40
0.2129132 0.092928596 0.99774998 5.4248187e-39
0.2154132 0.092928596 0.99774998 7.3468397e-40
0.2154132 0.095428593 0.99774998 1.8367099e-40
0.2154132 0.095428593 1.00275 0
0.20791319 0.097928591 0.99024999 0
0.20791319 0.1004286 0.98774999 2.0257829e-39
0.20791319 0.1004286 0.99024999 1.8413945e-39
0.21041319 0.097928591 0.98774999 2.1165338e-39
0.21041319 0.097928591 0.99024999 1.4729665e-39
0.21041319 0.1004286 0.98774999 1.749196e-39
0.21041319 0.1004286 0.99024999 2.1179828e-39
0.20791319 0.097928591 0.99274999 0
0.21041319 0.097928591 0.99274999 0
0.21041319 0.1004286 0.99274999 2.6711551e-39
0.20791319 0.10292859 0.98774999 2.0257857e-39
0.20791319 0.10292859 0.99024999 1.841742e-39
0.20791319 0.10542859 0.98774999 0
0.21041319 0.10292859 0.98774999 4.5953621e-40
0.21041319 0.10292859 0.99024999 6.4320721e-40
0.21041319 0.10542859 0.98774999 0
0.21041319 0.10542859 0.99024999 0
0.20791319 0.10292859 0.99274999 2.118689e-39
0.21041319 0.10292859 0.99274999 1.8424496e-39
0.2129132 0.097928591 0.98774999 2.759755e-39
0.2129132 0.097928591 0.99024999 2.6679055e-39
0.2129132 0.1004286 0.98774999 1.3804163e-39
0.2129132 0.1004286 0.99024999 1.838505e-39
0.2154132 0.097928591 0.99024999 2.6679055e-39
0.2154132 0.1004286 0.98774999 0
0.2154132 0.1004286 0.99024999 3.6734899e-40
0.2129132 0.097928591 0.99274999 2.6679055e-39
0.2129132 0.097928591 0.99524999 1.6566445e-39
0.2129132 0.1004286 0.99274999 2.3027201e-39
0.2129132 0.1004286 0.99524999 2.1190365e-39
0.2154132 0.097928591 0.99274999 2.759755e-39
0.2154132 0.097928591 0.99524999 2.3020139e-39
0.2154132 0.1004286 0.99274999 8.2724394e-40
0.2154132 0.1004286 0.99524999 1.6577025e-39
0.2129132 0.10292859 0.98774999 2.8025969e-45
0.2129132 0.10292859 0.99024999 7.0064923e-45
0.2129132 0.10542859 0.98774999 0
0.2129132 0.10542859 0.99024999 0
0.2154132 0.10292859 0.98774999 0
0.2154132 0.10292859 0.99024999 0
0.2154132 0.10542859 0.98774999 0
0.2154132 0.10542859 0.99024999 0
0.2154132 0.10292859 0.99274999 0
0.2154132 0.10542859 0.99274999 0
0.2154132 0.10542859 0.99524999 0
0.2129132 0.097928591 0.99774998 6.4284847e-40
0.2154132 0.097928591 0.99774998 2.4864135e-39
0.2179132 0.092928596 0.99524999 1.0101905e-39
0.2179132 0.095428593 0.99524999 2.1143856e-39
0.2179132 0.092928596 0.99774998 1.0101905e-39
0.2179132 0.092928596 1.00025 1.3775366e-39
0.2179132 0.095428593 0.99774998 2.3909725e-39
0.2179132 0.095428593 1.00025 2.2072875e-39
0.22041319 0.092928596 0.99774998 2.2062309e-39
0.22041319 0.092928596 1.00025 2.2069372e-39
0.22041319 0.095428593 0.99774998 2.8519507e-39
0.22041319 0.095428593 1.00025 3.3096918e-39
0.2179132 0.092928596 1.00275 1.2856997e-39
0.2179132 0.095428593 1.00275 2.2065813e-39
0.22041319 0.092928596 1.00275 1.6570004e-39
0.22041319 0.095428593 1.00275 2.7604613e-39
0.22291319 0.092928596 1.00025 2.4871114e-39
0.22291319 0.095428593 1.00025 2.3027201e-39
0.22541319 0.092928596 1.00025 1.7491988e-39
0.22541319 0.095428593 1.00025 2.118689e-39
0.22291319 0.092928596 1.00275 2.3027201e-39
0.22291319 0.095428593 1.00275 2.1179828e-39
0.22541319 0.092928596 1.00275 1.6566445e-39
0.22541319 0.095428593 1.00275 1.841742e-39
0.2179132 0.1004286 0.99024999 0
0.22041319 0.1004286 0.99024999 0
0.2179132 0.097928591 0.99274999 2.1143856e-39
0.2179132 0.097928591 0.99524999 2.8533758e-39
0.2179132 0.1004286 0.99274999 0
0.2179132 0.1004286 0.99524999 0
0.22041319 0.097928591 0.99274999 1.3775366e-39
0.22041319 0.097928591 0.99524999 1.3775366e-39
0.22041319 0.1004286 0.99274999 0
0.22041319 0.1004286 0.99524999 0
0.2179132 0.10292859 0.98774999 0
0.2179132 0.10292859 0.99024999 0
0.2179132 0.10542859 0.98774999 0
0.2179132 0.10542859 0.99024999 0
0.22041319 0.10292859 0.99024999 0
0.22041319 0.10542859 0.99024999 0
0.2179132 0.10292859 0.99274999 0
0.2179132 0.10292859 0.99524999 0
0.2179132 0.10542859 0.99274999 0
0.2179132 0.10542859 0.99524999 0
0.22041319 0.10292859 0.99274999 0
0.22041319 0.10292859 0.99524999 0
0.22041319 0.10542859 0.99274999 0
0.22041319 0.10542859 0.99524999 0
0.22291319 0.1004286 0.98774999 1.4012985e-45
0.22541319 0.1004286 0.98774999 0
0.22291319 0.097928591 0.99524999 4.5917748e-40
0.22291319 0.1004286 0.99274999 9.1835496e-41
0.22291319 0.1004286 0.99524999 0
0.22541319 0.097928591 0.99274999 0
0.22541319 0.1004286 0.99274999 0
0.22541319 0.1004286 0.99524999 0
0.22291319 0.10292859 0.98774999 1.83678e-40
0.22291319 0.10292859 0.99024999 0
0.22291319 0.10542859 0.98774999 2.1176324e-39
0.22291319 0.10542859 0.99024999 0
0.22541319 0.10292859 0.98774999 8.2724394e-40
0.22541319 0.10292859 0.99024999 3.6734899e-40
0.22541319 0.10542859 0.98774999 2.1179828e-39
0.22541319 0.10542859 0.99024999 8.2724394e-40
0.22291319 0.10292859 0.99274999 0
0.22291319 0.10292859 0.99524999 0
0.22291319 0.10542859 0.99274999 0
0.22291319 0.10542859 0.99524999 0
0.22541319 0.10292859 0.99274999 9.1849509e-41
0.22541319 0.10292859 0.99524999 7.0064923e-45
0.22541319 0.10542859 0.99524999 6.4284847e-40
0.2179132 0.097928591 0.99774998 2.6718614e-39
0.2179132 0.097928591 1.00025 2.4871114e-39
0.22041319 0.097928591 0.99774998 2.2080064e-39
0.22041319 0.097928591 1.00025 2.026492e-39
0.22041319 0.1004286 0.99774998 0
0.2179132 0.097928591 1.00275 2.4871114e-39
0.22041319 0.097928591 1.00275 2.118689e-39
0.22041319 0.10292859 0.99774998 0
0.22041319 0.10542859 0.99774998 0
0.22291319 0.097928591 0.99774998 1.1020274e-39
0.22291319 0.097928591 1.00025 1.3775366e-39
0.22291319 0.1004286 0.99774998 8.2651947e-40
0.22541319 0.097928591 0.99774998 0
0.22541319 0.097928591 1.00025 3.6734198e-40
0.22541319 0.1004286 0.99774998 0
0.22541319 0.1004286 1.00025 9.18397e-41
0.22291319 0.097928591 1.00275 2.2072875e-39
0.22541319 0.097928591 1.00275 1.8367099e-40
0.22541319 0.1004286 1.00275 0
0.22291319 0.10542859 1.00025 0
0.22541319 0.10292859 0.99774998 0
0.22541319 0.10292859 1.00025 9.18397e-41
0.22541319 0.10542859 0.99774998 5.5102419e-40
0.22541319 0.10542859 1.00025 0
0.2279132 0.095428593 0.97525001 2.0085699e-38
0.2329132 0.095428593 0.98525 1.5385479e-38
0.23541319 0.092928596 0.98525 1.8798535e-38
0.23541319 0.095428593 0.98525 8.5584542e-39
0.2279132 0.097928591 0.97525001 1.2150055e-38
0.2279132 0.1004286 0.97525001 2.0214865e-39
0.2304132 0.097928591 0.97525001 6.8012848e-39
0.2304132 0.1004286 0.97525001 3.1224069e-39
0.2279132 0.10292859 0.97525001 1.6541151e-39
0.2279132 0.10542859 0.97275001 2.026492e-39
0.2279132 0.10542859 0.97525001 2.6689859e-39
0.2304132 0.10292859 0.97525001 2.026492e-39
0.2304132 0.10542859 0.97275001 1.4733196e-39
0.2304132 0.10542859 0.97525001 2.118689e-39
0.2329132 0.10292859 0.97525001 2.1179828e-39
0.2329132 0.10542859 0.97275001 7.3504691e-40
0.2329132 0.10542859 0.97525001 1.2882179e-39
0.23541319 0.10542859 0.97275001 8.279544e-40
0.23541319 0.10542859 0.97525001 8.2759987e-40
0.2279132 0.097928591 0.98025 1.2980537e-38
0.2279132 0.1004286 0.98025 4.0512351e-39
0.2304132 0.097928591 0.98025 7.6324692e-39
0.2304132 0.1004286 0.97775 3.8570908e-39
0.2304132 0.1004286 0.98025 3.3060779e-39
0.2279132 0.097928591 0.98525 2.1192044e-38
0.2279132 0.1004286 0.98525 4.9764214e-39
0.2304132 0.1004286 0.98525 2.2980734e-39
0.2279132 0.10292859 0.97775 2.1150919e-39
0.2279132 0.10292859 0.98025 2.0225361e-39
0.2279132 0.10542859 0.97775 2.9455714e-39
0.2279132 0.10542859 0.98025 2.3949158e-39
0.2304132 0.10292859 0.97775 2.118689e-39
0.2304132 0.10292859 0.98025 2.6653818e-39
0.2304132 0.10542859 0.97775 2.4878176e-39
0.2279132 0.10292859 0.98525 1.9285454e-39
0.2279132 0.10542859 0.98525 2.2072875e-39
0.2304132 0.10292859 0.98525 2.2962461e-39
0.2304132 0.10542859 0.98525 2.1143856e-39
0.2329132 0.097928591 0.97775 2.3877341e-39
0.2329132 0.097928591 0.98025 2.2040519e-39
0.2329132 0.1004286 0.97775 1.9285454e-39
0.2329132 0.1004286 0.98025 1.7448744e-39
0.23541319 0.097928591 0.98025 9.1871369e-40
0.23541319 0.1004286 0.98025 2.8526569e-39
0.2329132 0.097928591 0.98525 1.2803664e-38
0.2329132 0.1004286 0.98525 1.7448744e-39
0.23541319 0.097928591 0.98525 3.6892545e-39
0.23541319 0.1004286 0.98525 3.6734198e-40
0.2329132 0.10292859 0.97775 2.3027201e-39
0.2329132 0.10292859 0.98025 2.3949158e-39
0.2329132 0.10542859 0.97775 2.3030677e-39
0.2329132 0.10542859 0.98025 2.6668531e-39
0.23541319 0.10292859 0.97775 1.7491988e-39
0.23541319 0.10292859 0.98025 1.6566445e-39
0.23541319 0.10542859 0.97775 1.4726133e-39
0.23541319 0.10542859 0.98025 8.2724394e-40
0.23541319 0.10292859 0.98525 2.1179828e-39
0.23791319 0.092928596 0.98525 1.6493284e-38
0.23791319 0.095428593 0.98525 6.4290312e-40
0.23791319 0.10542859 0.97275001 2.5786092e-39
0.23791319 0.10542859 0.97525001 1.4715568e-39
0.23791319 0.097928591 0.98025 1.751717e-39
0.23791319 0.1004286 0.98025 3.1296151e-39
0.24041319 0.097928591 0.98025 0
0.24041319 0.1004286 0.98025 1.6562941e-39
0.23791319 0.097928591 0.98525 0
0.23791319 0.1004286 0.98525 3.0370608e-39
0.24041319 0.097928591 0.98525 0
0.24041319 0.1004286 0.98525 2.5764428e-39
0.23791319 0.10292859 0.97775 2.4835269e-39
0.23791319 0.10292859 0.98025 2.2072875e-39
0.23791319 0.10542859 0.97775 1.1963726e-39
0.23791319 0.10542859 0.98025 1.3778912e-39
0.24041319 0.10292859 0.97775 2.2987769e-39
0.24041319 0.10292859 0.98025 1.6534075e-39
0.24041319 0.10542859 0.97775 2.579307e-39
0.24041319 0.10542859 0.98025 3.5001745e-39
0.24041319 0.10292859 0.98525 2.389546e-39
0.24041319 0.10542859 0.98525 2.3916788e-39
0.2429132 0.1004286 0.98025 0
0.2429132 0.097928591 0.98525 2.0203809e-39
0.2429132 0.1004286 0.98525 0
0.2454132 0.1004286 0.98525 0
0.2429132 0.10292859 0.98025 1.1020288e-39
0.2429132 0.10542859 0.98025 9.1835496e-41
0.2454132 0.10542859 0.98025 0
0.2429132 0.10292859 0.98525 2.7550649e-40
0.2429132 0.10542859 0.98525 9.1835496e-41
0.2454132 0.10292859 0.98525 0
0.2454132 0.10542859 0.98525 0
0.23541319 0.095428593 0.98774999 7.356681e-39
0.2279132 0.092928596 1.00275 0
0.2279132 0.095428593 1.00275 0
0.2279132 0.1004286 0.98774999 3.5005431e-39
0.2279132 0.1004286 0.99024999 4.605813e-39
0.2304132 0.1004286 0.98774999 5.7096705e-39
0.2279132 0.1004286 0.99274999 5.5101298e-39
0.2279132 0.1004286 0.99524999 4.2244328e-39
0.2304132 0.1004286 0.99274999 1.3347159e-38
0.2304132 0.1004286 0.99524999 1.3532566e-38
0.2279132 0.10292859 0.98774999 1.5619209e-39
0.2279132 0.10292859 0.99024999 8.279544e-40
0.2279132 0.10542859 0.98774999 2.2987769e-39
0.2304132 0.10292859 0.98774999 2.4795584e-39
0.2279132 0.10292859 0.99274999 1.5612034e-39
0.2279132 0.10292859 0.99524999 7.3504691e-40
0.2279132 0.10542859 0.99524999 1.4733196e-39
0.2304132 0.10292859 0.99524999 3.7760523e-39
0.23541319 0.097928591 0.98774999 4.7008799e-39
0.2279132 0.097928591 0.99774998 9.832554e-39
0.2279132 0.097928591 1.00025 9.9261691e-39
0.2279132 0.1004286 0.99774998 5.3264588e-39
0.2279132 0.1004286 1.00025 5.3264588e-39
0.2304132 0.1004286 1.00025 1.4544196e-38
0.2279132 0.097928591 1.00275 0
0.2279132 0.1004286 1.00275 0
0.2304132 0.097928591 1.00275 6.0630163e-39
0.2304132 0.1004286 1.00275 1.3716597e-38
0.2279132 0.10292859 0.99774998 0
0.2279132 0.10292859 1.00025 0
0.2279132 0.10542859 1.00025 2.9423344e-39
0.2304132 0.10292859 1.00025 4.3303051e-39
0.2304132 0.10542859 0.99774998 2.6679055e-39
0.2304132 0.10542859 1.00025 3.2185626e-39
0.2279132 0.10292859 1.00275 0
0.2304132 0.10292859 1.00275 0
0.2304132 0.10542859 1.00275 1.6541151e-39
0.2329132 0.1004286 1.00025 1.3993966e-38
0.23541319 0.1004286 1.00025 1.2703229e-38
0.2329132 0.1004286 1.00275 1.3625904e-38
0.23541319 0.1004286 1.00275 1.3164566e-38
0.23791319 0.1004286 0.98774999 1.56336e-39
0.24041319 0.097928591 0.98774999 0
0.24041319 0.1004286 0.98774999 1.1956747e-39
0.2429132 0.097928591 0.98774999 1.3775324e-39
0.2429132 0.097928591 0.99024999 1.3775324e-39
0.2429132 0.1004286 0.98774999 1.7484898e-39
0.2429132 0.1004286 0.99024999 1.102026e-39
0.2454132 0.097928591 0.98774999 3.5859032e-39
0.2454132 0.1004286 0.98774999 1.7448744e-39
0.2454132 0.1004286 0.99024999 2.7550649e-40
0.2429132 0.097928591 0.99274999 0
0.2454132 0.097928591 0.99274999 5.4247739e-39
0.2454132 0.097928591 0.99524999 8.2651947e-40
0.2454132 0.1004286 0.99274999 5.5101298e-40
0.2429132 0.10292859 0.98774999 1.7463094e-39
0.2454132 0.10292859 0.98774999 0
0.2454132 0.10292859 0.99024999 4.5917748e-40
0.2454132 0.10542859 0.98774999 0
0.2454132 0.10542859 0.99024999 0
0.2454132 0.10292859 0.99274999 0
0.2429132 0.097928591 0.99774998 0
0.2454132 0.097928591 0.99774998 1.8367099e-40
0.2479132 0.10292859 0.98525 8.3894464e-39
0.2479132 0.10542859 0.98525 1.0602851e-38
0.2479132 0.1004286 0.99024999 0
0.2479132 0.097928591 0.99274999 1.4451549e-38
0.2479132 0.097928591 0.99524999 1.3713264e-38
0.2479132 0.1004286 0.99274999 8.2651947e-40
0.2479132 0.1004286 0.99524999 8.2651947e-40
0.2479132 0.10292859 0.98774999 8.1132224e-39
0.2479132 0.10292859 0.99024999 0
0.2479132 0.10542859 0.98774999 1.1519768e-38
0.2479132 0.10542859 0.99024999 1.060105e-38
0.2479132 0.10292859 0.99274999 0
0.2479132 0.10292859 0.99524999 0
0.2479132 0.10542859 0.99274999 0
0.25041318 0.10292859 0.99274999 8.2990514e-39
0.25041318 0.10542859 0.99274999 1.0232273e-38
0.2479132 0.097928591 0.99774998 2.8508576e-39
0.16291319 0.12042859 0.95025003 1.3172428e-38
0.1654132 0.11792859 0.94775003 1.2626838e-38
0.1654132 0.11792859 0.95025003 2.7550649e-40
0.1654132 0.12042859 0.95025003 1.3358245e-38
0.16291319 0.12042859 0.95275003 1.4832659e-38
0.1654132 0.12042859 0.95275003 1.2805071e-38
0.1654132 0.12042859 0.95525002 1.3080231e-38
0.16291319 0.1229286 0.95025003 1.2066449e-38
0.16291319 0.12542859 0.95025003 1.6400726e-38
0.1654132 0.1229286 0.95025003 7.4566398e-39
0.1654132 0.12542859 0.95025003 1.5019589e-38
0.16291319 0.1229286 0.95275003 1.2066102e-38
0.16291319 0.12542859 0.95275003 1.640072e-38
0.16291319 0.12542859 0.95525002 1.1794188e-38
0.1654132 0.1229286 0.95275003 7.1818228e-39
0.1654132 0.1229286 0.95525002 1.0224647e-38
0.1654132 0.12542859 0.95275003 1.5018139e-38
0.1654132 0.12542859 0.95525002 1.6311048e-38
0.1654132 0.1229286 0.95775002 1.0039142e-38
0.1654132 0.12542859 0.95775002 1.1601849e-38
0.16291319 0.1279286 0.95025003 1.676771e-38
0.1654132 0.1279286 0.95025003 1.5293675e-38
0.1654132 0.1304286 0.95025003 1.2802945e-38
0.16291319 0.1279286 0.95275003 1.6859906e-38
0.16291319 0.1279286 0.95525002 1.6768432e-38
0.16291319 0.1304286 0.95275003 1.6398925e-38
0.16291319 0.1304286 0.95525002 1.6491121e-38
0.1654132 0.1279286 0.95275003 1.5476621e-38
0.1654132 0.1279286 0.95525002 1.7044317e-38
0.1654132 0.1304286 0.95275003 1.0408748e-38
0.1654132 0.1304286 0.95525002 1.6122359e-38
0.1654132 0.13292859 0.95525002 1.2069346e-38
0.1654132 0.1279286 0.95775002 1.7595689e-38
0.1654132 0.1304286 0.95775002 1.6581167e-38
0.1654132 0.13292859 0.95775002 1.1516175e-38
0.1654132 0.13542859 0.95775002 8.8446274e-39
0.1654132 0.13292859 0.96275002 1.2438854e-38
0.1654132 0.13542859 0.96275002 9.2112631e-39
0.1654132 0.13792859 0.96275002 4.6742833e-40
0.1654132 0.14042859 0.96275002 5.2425308e-39
0.1679132 0.11042859 0.94024998 2.2040519e-39
0.1679132 0.11042859 0.94275004 5.5191527e-39
0.1704132 0.1079286 0.94275004 1.2436314e-38
0.1704132 0.1079286 0.94525003 1.8797437e-38
0.1704132 0.11042859 0.94275004 9.1835496e-40
0.1704132 0.11042859 0.94525003 1.6126312e-38
0.1679132 0.11292859 0.94024998 0
0.1679132 0.11292859 0.94275004 3.6734198e-40
0.1704132 0.11292859 0.94275004 0
0.1704132 0.11292859 0.94525003 1.8367099e-39
0.17291319 0.1079286 0.94024998 2.4796341e-39
0.17541319 0.1079286 0.94024998 0
0.17291319 0.1079286 0.94275004 5.7857596e-39
0.17291319 0.1079286 0.94525003 6.2449455e-39
0.17291319 0.11042859 0.94525003 5.5101298e-40
0.17541319 0.1079286 0.94275004 0
0.17541319 0.1079286 0.94525003 0
0.17541319 0.11042859 0.94275004 0
0.17541319 0.11042859 0.94525003 0
0.17291319 0.11292859 0.94525003 6.4284847e-40
0.17541319 0.11292859 0.94525003 1.2907388e-39
0.17791319 0.1079286 0.94024998 1.1063476e-39
0.17791319 0.1079286 0.94275004 0
0.17791319 0.1079286 0.94525003 0
0.17791319 0.11042859 0.94275004 1.0155813e-39
0.17791319 0.11042859 0.94525003 9.2051156e-40
0.1804132 0.1079286 0.94275004 6.4501908e-40
0.1804132 0.1079286 0.94525003 0
0.1804132 0.11042859 0.94275004 1.7491988e-39
0.1854132 0.11792859 0.93524998 0
0.1854132 0.12042859 0.93524998 1.4733196e-39
0.1829132 0.1229286 0.93274999 2.8563143e-39
0.1829132 0.12542859 0.93274999 6.3697829e-39
0.1854132 0.1229286 0.93274999 4.4841551e-44
0.1854132 0.1229286 0.93524998 3.5032462e-44
0.1854132 0.12542859 0.93274999 3.5985162e-39
0.1854132 0.12542859 0.93524998 6.5365108e-40
0.1854132 0.12042859 0.94024998 0
0.1829132 0.1229286 0.93774998 8.8450323e-39
0.1829132 0.1229286 0.94024998 3.7835059e-44
0.1829132 0.12542859 0.93774998 1.3089278e-38
0.1829132 0.12542859 0.94024998 1.3088908e-38
0.1854132 0.1229286 0.93774998 2.3960704e-39
0.1854132 0.12542859 0.93774998 6.922598e-39
0.1854132 0.12542859 0.94024998 7.1977429e-39
0.1829132 0.1229286 0.94525003 4.4841551e-44
0.1829132 0.12542859 0.94275004 1.5117582e-38
0.1829132 0.12542859 0.94525003 1.2164434e-38
0.1854132 0.1229286 0.94525003 0
0.1854132 0.12542859 0.94275004 1.354918e-38
0.1854132 0.12542859 0.94525003 3.1321879e-39
0.1679132 0.11292859 0.94775003 0
0.1679132 0.1154286 0.94775003 0
0.1679132 0.1154286 0.95025003 0
0.1704132 0.11292859 0.94775003 0
0.1704132 0.11292859 0.95025003 2.6632294e-39
0.1704132 0.1154286 0.94775003 0
0.1704132 0.1154286 0.95025003 0
0.1704132 0.11292859 0.95275003 3.3060779e-39
0.1704132 0.1154286 0.95275003 0
0.17291319 0.1079286 0.94775003 6.9810686e-39
0.17291319 0.11042859 0.94775003 7.3468397e-40
0.17291319 0.11042859 0.95025003 8.842126e-39
0.17541319 0.1079286 0.94775003 2.8469803e-39
0.17541319 0.11042859 0.94775003 0
0.17541319 0.11042859 0.95025003 1.3775324e-39
0.17291319 0.11042859 0.95525002 8.4758645e-39
0.17541319 0.11042859 0.95275003 6.4284847e-40
0.17541319 0.11042859 0.95525002 5.5101298e-40
0.17291319 0.11292859 0.94775003 9.1835496e-41
0.17291319 0.11292859 0.95025003 7.3468397e-40
0.17291319 0.1154286 0.94775003 7.3901118e-40
0.17291319 0.1154286 0.95025003 7.3937972e-40
0.17541319 0.11292859 0.94775003 1.1020344e-39
0.17541319 0.11292859 0.95025003 5.6051939e-45
0.17541319 0.1154286 0.95025003 2.0257829e-39
0.17291319 0.11292859 0.95275003 1.7448744e-39
0.17291319 0.11292859 0.95525002 6.4284847e-40
0.17291319 0.1154286 0.95275003 1.8146815e-42
0.17291319 0.1154286 0.95525002 0
0.17541319 0.11292859 0.95275003 6.4287089e-40
0.17541319 0.11292859 0.95525002 0
0.17541319 0.1154286 0.95275003 1.6570004e-39
0.17541319 0.1154286 0.95525002 2.118689e-39
0.1704132 0.1154286 0.95775002 6.4284847e-40
0.17291319 0.11292859 0.95775002 2.6632294e-39
0.17291319 0.1154286 0.95775002 0
0.17541319 0.1154286 0.95775002 4.5918589e-40
0.1679132 0.11792859 0.94775003 1.0508134e-38
0.1679132 0.11792859 0.95025003 0
0.1679132 0.12042859 0.95025003 1.2808318e-38
0.1704132 0.11792859 0.94775003 9.2137952e-39
0.1704132 0.11792859 0.95025003 4.2038954e-44
0.1704132 0.12042859 0.95025003 1.3451637e-38
0.1679132 0.11792859 0.95275003 0
0.1679132 0.11792859 0.95525002 0
0.1679132 0.12042859 0.95275003 1.2992702e-38
0.1679132 0.12042859 0.95525002 1.4091143e-38
0.1704132 0.11792859 0.95275003 4.6242849e-44
0.1704132 0.11792859 0.95525002 0
0.1704132 0.12042859 0.95275003 1.4560388e-38
0.1679132 0.1229286 0.95025003 1.067767e-38
0.1679132 0.12542859 0.95025003 1.46433e-38
0.1704132 0.1229286 0.95025003 1.7318073e-38
0.1704132 0.12542859 0.95025003 1.2800777e-38
0.1679132 0.1229286 0.95275003 1.039715e-38
0.1679132 0.1229286 0.95525002 7.4587782e-39
0.1679132 0.12542859 0.95275003 1.2231396e-38
0.1679132 0.12542859 0.95525002 8.5622825e-39
0.1704132 0.1229286 0.95275003 1.6582969e-38
0.1704132 0.1229286 0.95525002 1.9437659e-38
0.1704132 0.12542859 0.95275003 1.7865113e-38
0.17291319 0.11792859 0.94775003 1.5619209e-39
0.17291319 0.11792859 0.95025003 5.7453237e-44
0.17291319 0.12042859 0.95025003 7.4589211e-39
0.17541319 0.11792859 0.95025003 3.6734198e-40
0.17541319 0.12042859 0.95025003 0
0.17291319 0.11792859 0.95275003 4.5923634e-40
0.17291319 0.11792859 0.95525002 5.8854536e-44
0.17291319 0.12042859 0.95275003 7.8280344e-39
0.17541319 0.11792859 0.95275003 2.7623797e-40
0.17541319 0.11792859 0.95525002 1.1981929e-39
0.17541319 0.12042859 0.95275003 0
0.17541319 0.12042859 0.95525002 0
0.17291319 0.1229286 0.95025003 1.2431346e-38
0.17291319 0.12542859 0.95025003 7.5456265e-39
0.17541319 0.1229286 0.95025003 1.8367099e-40
0.17541319 0.12542859 0.95025003 6.4284847e-40
0.17291319 0.1229286 0.95275003 1.1973187e-38
0.17291319 0.12542859 0.95275003 1.3624116e-38
0.17541319 0.1229286 0.95275003 3.6734198e-40
0.17541319 0.1229286 0.95525002 4.412815e-39
0.17541319 0.12542859 0.95275003 6.4284847e-40
0.17541319 0.12542859 0.95525002 7.7339806e-39
0.1679132 0.11792859 0.95775002 0
0.1679132 0.12042859 0.95775002 1.2626485e-38
0.1704132 0.11792859 0.95775002 0
0.1679132 0.1229286 0.95775002 1.3267131e-38
0.1679132 0.12542859 0.95775002 8.9296343e-39
0.17291319 0.11792859 0.95775002 0
0.17791319 0.1079286 0.94775003 0
0.17791319 0.11042859 0.94775003 1.3814897e-39
0.17791319 0.11042859 0.95025003 0
0.1804132 0.1079286 0.94775003 1.7495464e-39
0.1804132 0.11042859 0.94775003 2.1143856e-39
0.1804132 0.11042859 0.95025003 1.7495464e-39
0.17791319 0.1079286 0.95525002 7.744786e-39
0.17791319 0.11042859 0.95275003 0
0.17791319 0.11042859 0.95525002 0
0.1804132 0.1079286 0.95525002 0
0.1804132 0.11042859 0.95275003 9.2051436e-40
0.1804132 0.11042859 0.95525002 1.3814897e-39
0.17791319 0.11292859 0.94775003 1.7491988e-39
0.17791319 0.11292859 0.95025003 1.8413945e-39
0.17791319 0.1154286 0.95025003 1.2907388e-39
0.1804132 0.11292859 0.95025003 1.8413945e-39
0.17791319 0.11292859 0.95275003 1.6566445e-39
0.17791319 0.11292859 0.95525002 2.1179828e-39
0.17791319 0.1154286 0.95275003 6.4607706e-40
0.17791319 0.1154286 0.95525002 1.2885682e-39
0.1804132 0.11292859 0.95275003 1.7495464e-39
0.1804132 0.11292859 0.95525002 1.3829344e-39
0.1804132 0.1154286 0.95275003 0
0.1804132 0.1154286 0.95525002 1.1985432e-39
0.1829132 0.1079286 0.94775003 2.0257857e-39
0.1829132 0.1079286 0.95025003 0
0.1829132 0.11042859 0.95025003 1.2903885e-39
0.1854132 0.1079286 0.95025003 1.6534075e-39
0.1854132 0.11042859 0.95025003 1.841742e-39
0.1829132 0.1079286 0.95525002 0
0.1829132 0.11042859 0.95275003 1.6566445e-39
0.1829132 0.11042859 0.95525002 1.7495464e-39
0.1854132 0.1079286 0.95525002 1.8381575e-39
0.1854132 0.11042859 0.95275003 1.7491988e-39
0.1829132 0.11292859 0.95275003 1.1963726e-39
0.1829132 0.11292859 0.95525002 1.1963726e-39
0.1829132 0.1154286 0.95525002 0
0.1854132 0.1154286 0.95525002 0
0.1804132 0.1079286 0.95775002 0
0.1804132 0.11292859 0.95775002 1.3814897e-39
0.1804132 0.1154286 0.95775002 1.7495464e-39
0.1804132 0.11292859 0.96275002 1.3829344e-39
0.1804132 0.1154286 0.96275002 1.3804163e-39
0.1829132 0.1079286 0.95775002 0
0.1829132 0.11042859 0.95775002 1.8403379e-39
0.1854132 0.1079286 0.95775002 1.1038294e-39
0.1854132 0.11042859 0.95775002 1.841742e-39
0.1829132 0.1079286 0.96275002 0
0.1829132 0.11042859 0.96275002 1.3804163e-39
0.1854132 0.1079286 0.96275002 1.6534075e-39
0.1854132 0.11042859 0.96275002 1.6566445e-39
0.1829132 0.11292859 0.95775002 1.841742e-39
0.1829132 0.1154286 0.95775002 6.4536941e-40
0.1854132 0.11292859 0.95775002 1.0123429e-39
0.1854132 0.1154286 0.95775002 0
0.1829132 0.11292859 0.96275002 1.8424496e-39
0.1829132 0.1154286 0.96275002 1.1985432e-39
0.1854132 0.11292859 0.96275002 1.19709e-39
0.1854132 0.1154286 0.96275002 0
0.17791319 0.11792859 0.95025003 3.6734198e-40
0.17791319 0.12042859 0.95025003 0
0.1804132 0.12042859 0.95025003 0
0.17791319 0.11792859 0.95275003 8.2724394e-40
0.17791319 0.11792859 0.95525002 2.7658689e-40
0.17791319 0.12042859 0.95275003 0
0.17791319 0.12042859 0.95525002 0
0.1804132 0.11792859 0.95275003 0
0.1804132 0.11792859 0.95525002 0
0.1804132 0.12042859 0.95275003 0
0.1804132 0.12042859 0.95525002 0
0.17791319 0.12542859 0.95025003 1.9618179e-44
0.1804132 0.12542859 0.95025003 1.4012985e-45
0.17791319 0.1229286 0.95275003 0
0.17791319 0.1229286 0.95525002 0
0.17791319 0.12542859 0.95275003 0
0.17791319 0.12542859 0.95525002 1.8367099e-40
0.1804132 0.1229286 0.95275003 0
0.1804132 0.1229286 0.95525002 0
0.1804132 0.12542859 0.95275003 0
0.1804132 0.12542859 0.95525002 0
0.1829132 0.12042859 0.95025003 0
0.1854132 0.12042859 0.95025003 0
0.1829132 0.11792859 0.95275003 0
0.1829132 0.11792859 0.95525002 0
0.1829132 0.12042859 0.95275003 0
0.1829132 0.12042859 0.95525002 0
0.1854132 0.11792859 0.95525002 0
0.1854132 0.12042859 0.95275003 0
0.1854132 0.12042859 0.95525002 0
0.1829132 0.1229286 0.94775003 4.0637655e-44
0.1829132 0.1229286 0.95025003 0
0.1829132 0.12542859 0.94775003 1.1888204e-38
0.1829132 0.12542859 0.95025003 1.161163e-38
0.1854132 0.1229286 0.94775003 3.7835059e-44
0.1854132 0.12542859 0.94775003 8.2922145e-39
0.1854132 0.12542859 0.95025003 8.3837081e-39
0.1829132 0.1229286 0.95275003 0
0.1829132 0.1229286 0.95525002 0
0.1829132 0.12542859 0.95275003 0
0.1829132 0.12542859 0.95525002 0
0.1854132 0.1229286 0.95525002 0
0.1854132 0.12542859 0.95275003 3.0828566e-44
0.1854132 0.12542859 0.95525002 5.0446745e-44
0.1804132 0.11792859 0.95775002 7.3576017e-40
0.1829132 0.11792859 0.95775002 0
0.1829132 0.12042859 0.95775002 0
0.1854132 0.11792859 0.95775002 0
0.1854132 0.12042859 0.95775002 0
0.1829132 0.11792859 0.96275002 0
0.1854132 0.11792859 0.96275002 0
0.1854132 0.12042859 0.96275002 0
0.1829132 0.1229286 0.95775002 0
0.1829132 0.12542859 0.95775002 0
0.1854132 0.1229286 0.95775002 0
0.1854132 0.12542859 0.95775002 4.0637655e-44
0.1854132 0.1229286 0.96275002 0
0.1854132 0.1304286 0.93024999 8.382594e-39
0.1829132 0.1279286 0.93274999 1.4553914e-38
0.1829132 0.1304286 0.93274999 9.8522745e-39
0.1854132 0.1279286 0.93274999 1.6670453e-38
0.1854132 0.1279286 0.93524998 1.5844302e-38
0.1854132 0.1304286 0.93274999 5.611651e-39
0.1854132 0.1304286 0.93524998 9.9448232e-39
0.1854132 0.13292859 0.93024999 1.6492961e-38
0.1854132 0.13542859 0.93024999 1.7969771e-38
0.1829132 0.13292859 0.93274999 1.289733e-38
0.1829132 0.13292859 0.93524998 1.2067884e-38
0.1829132 0.13542859 0.93274999 1.0133142e-38
0.1854132 0.13292859 0.93274999 1.7043982e-38
0.1854132 0.13292859 0.93524998 1.2987374e-38
0.1854132 0.13542859 0.93274999 1.8611584e-38
0.1854132 0.13542859 0.93524998 1.3906422e-38
0.1804132 0.1304286 0.94024998 8.9285651e-39
0.1804132 0.1279286 0.94275004 1.6764171e-38
0.1804132 0.1279286 0.94525003 1.6581196e-38
0.1804132 0.1304286 0.94275004 1.6574331e-38
0.1804132 0.1304286 0.94525003 1.5930397e-38
0.1804132 0.13292859 0.94024998 1.0871159e-38
0.1804132 0.13542859 0.94024998 1.2524248e-38
0.17791319 0.13292859 0.94525003 1.1237768e-38
0.17791319 0.13542859 0.94525003 9.1140284e-39
0.1804132 0.13292859 0.94275004 9.7655313e-39
0.1804132 0.13292859 0.94525003 1.0039241e-38
0.1804132 0.13542859 0.94275004 1.0495944e-38
0.1804132 0.13542859 0.94525003 1.0590641e-38
0.1829132 0.1279286 0.93774998 1.4007253e-38
0.1829132 0.1279286 0.94024998 1.6402187e-38
0.1829132 0.1304286 0.93774998 1.2339796e-38
0.1829132 0.1304286 0.94024998 1.2524188e-38
0.1854132 0.1279286 0.93774998 1.5760388e-38
0.1854132 0.1279286 0.94024998 1.5484162e-38
0.1854132 0.1304286 0.93774998 9.8515542e-39
0.1829132 0.1279286 0.94275004 1.6679133e-38
0.1829132 0.1279286 0.94525003 1.5670035e-38
0.1829132 0.1304286 0.94275004 1.5204716e-38
0.1854132 0.1279286 0.94275004 1.6494368e-38
0.1854132 0.1279286 0.94525003 8.2086579e-39
0.1829132 0.13292859 0.93774998 1.1698377e-38
0.1829132 0.13292859 0.94024998 1.2896566e-38
0.1829132 0.13542859 0.93774998 8.6544501e-39
0.1829132 0.13542859 0.94024998 1.0957896e-38
0.1854132 0.13292859 0.93774998 1.2529618e-38
0.1854132 0.13542859 0.93774998 1.2530311e-38
0.1854132 0.13792859 0.93024999 1.703885e-38
0.1854132 0.14042859 0.93024999 0
0.1829132 0.13792859 0.93274999 7.7267373e-39
0.1854132 0.13792859 0.93274999 1.6486422e-38
0.1854132 0.13792859 0.93524998 6.5289354e-39
0.1854132 0.14042859 0.93274999 6.4284847e-40
0.1854132 0.14042859 0.93524998 0
0.1854132 0.1429286 0.93524998 0
0.1854132 0.1454286 0.93524998 4.7644148e-44
0.1804132 0.13792859 0.94024998 1.096085e-38
0.1804132 0.14042859 0.94024998 9.2123925e-39
0.1804132 0.13792859 0.94275004 1.0131089e-38
0.1804132 0.13792859 0.94525003 1.0131089e-38
0.1804132 0.14042859 0.94275004 1.0134708e-38
0.1804132 0.14042859 0.94525003 1.0317651e-38
0.1804132 0.1429286 0.94525003 1.0227251e-38
0.1829132 0.13792859 0.93774998 0
0.1829132 0.13792859 0.94024998 4.0421968e-39
0.1829132 0.14042859 0.93774998 0
0.1829132 0.14042859 0.94024998 5.5101298e-40
0.1854132 0.13792859 0.93774998 7.5405664e-39
0.1854132 0.14042859 0.93774998 1.8367099e-40
0.1829132 0.1429286 0.93774998 4.5917748e-40
0.1829132 0.1429286 0.94024998 6.4284847e-40
0.1829132 0.1454286 0.94024998 0
0.1854132 0.1429286 0.93774998 0
0.1854132 0.1454286 0.93774998 6.4459729e-44
0.1854132 0.1454286 0.94024998 0
0.1829132 0.1429286 0.94275004 9.1835496e-41
0.1854132 0.1454286 0.94275004 6.5861028e-44
0.1854132 0.1454286 0.94525003 0
0.1679132 0.1279286 0.95025003 1.3452636e-38
0.1679132 0.1304286 0.95025003 1.2620664e-38
0.1704132 0.1279286 0.95025003 8.0195905e-39
0.1704132 0.1304286 0.95025003 1.4464575e-38
0.1679132 0.1279286 0.95275003 1.3085999e-38
0.1679132 0.1279286 0.95525002 1.5752502e-38
0.1679132 0.1304286 0.95275003 1.1694318e-38
0.1679132 0.1304286 0.95525002 1.087008e-38
0.1704132 0.1279286 0.95275003 1.2256238e-38
0.1704132 0.1304286 0.95275003 1.6211878e-38
0.1704132 0.1304286 0.95525002 1.6579223e-38
0.1679132 0.13292859 0.95275003 5.2346233e-39
0.1679132 0.13292859 0.95525002 4.869075e-39
0.1679132 0.13542859 0.95525002 0
0.1704132 0.13292859 0.95275003 1.4361248e-38
0.1704132 0.13292859 0.95525002 1.3627632e-38
0.1704132 0.13542859 0.95525002 1.1426495e-38
0.17291319 0.1279286 0.95025003 2.755163e-40
0.17291319 0.1304286 0.95025003 1.7448744e-39
0.17541319 0.1279286 0.95025003 0
0.17541319 0.1304286 0.95025003 0
0.17291319 0.1279286 0.95275003 1.1210388e-44
0.17291319 0.1304286 0.95275003 6.5379808e-39
0.17291319 0.1304286 0.95525002 1.4098022e-38
0.17541319 0.1279286 0.95275003 0
0.17541319 0.1304286 0.95275003 0
0.17541319 0.1304286 0.95525002 4.1458971e-39
0.17291319 0.13292859 0.95025003 1.0133243e-38
0.17541319 0.13292859 0.95025003 1.1244623e-38
0.17541319 0.13542859 0.95025003 1.2346308e-38
0.17291319 0.13292859 0.95275003 1.0133944e-38
0.17291319 0.13292859 0.95525002 1.2715422e-38
0.17291319 0.13542859 0.95275003 1.2856969e-39
0.17291319 0.13542859 0.95525002 1.3775324e-39
0.17541319 0.13292859 0.95275003 9.953884e-39
0.17541319 0.13292859 0.95525002 9.4932758e-39
0.17541319 0.13542859 0.95275003 3.4036629e-39
0.17541319 0.13542859 0.95525002 2.2958874e-39
0.1679132 0.13292859 0.95775002 2.2065658e-39
0.1679132 0.13542859 0.95775002 3.6734198e-40
0.1704132 0.13292859 0.95775002 1.3443591e-38
0.1704132 0.13542859 0.95775002 1.1426495e-38
0.1679132 0.13542859 0.96275002 0
0.17291319 0.13292859 0.95775002 9.8559319e-39
0.17291319 0.13542859 0.95775002 1.1244299e-38
0.17541319 0.13292859 0.95775002 9.5844023e-39
0.17541319 0.13542859 0.95775002 7.8294441e-39
0.17291319 0.13542859 0.96275002 1.1244296e-38
0.1704132 0.1429286 0.95525002 1.2994559e-38
0.17541319 0.13792859 0.95025003 1.7466681e-39
0.17291319 0.13792859 0.95275003 3.4037049e-39
0.17291319 0.13792859 0.95525002 3.4958978e-39
0.17291319 0.14042859 0.95525002 3.7782061e-39
0.17541319 0.13792859 0.95275003 1.6544739e-39
0.17541319 0.13792859 0.95525002 1.0101905e-39
0.17541319 0.14042859 0.95275003 1.7496038e-39
0.17541319 0.14042859 0.95525002 1.8417994e-39
0.17291319 0.1429286 0.95275003 1.1520468e-38
0.17291319 0.1429286 0.95525002 1.1610866e-38
0.17291319 0.1454286 0.95275003 1.1515784e-38
0.17541319 0.1429286 0.95275003 5.2512273e-39
0.17541319 0.1429286 0.95525002 8.8464967e-39
0.17541319 0.1454286 0.95275003 9.7647858e-39
0.1679132 0.13792859 0.95775002 0
0.1704132 0.13792859 0.95775002 1.1795276e-38
0.1704132 0.14042859 0.95775002 1.1524451e-38
0.1679132 0.13792859 0.96275002 0
0.1679132 0.14042859 0.96275002 4.5917748e-40
0.1704132 0.13792859 0.96275002 1.170668e-38
0.1704132 0.14042859 0.96275002 1.1433334e-38
0.1704132 0.1429286 0.95775002 1.0973467e-38
0.17291319 0.13792859 0.95775002 3.403349e-39
0.17291319 0.14042859 0.95775002 1.8420979e-39
0.17541319 0.13792859 0.95775002 1.0101905e-39
0.17541319 0.14042859 0.95775002 2.155197e-42
0.17291319 0.13792859 0.96275002 1.2440672e-38
0.17291319 0.14042859 0.96275002 1.1430085e-38
0.17291319 0.1429286 0.95775002 3.9647624e-39
0.17541319 0.1429286 0.95775002 2.4882282e-39
0.17791319 0.1279286 0.95025003 0
0.17791319 0.1304286 0.94775003 0
0.17791319 0.1304286 0.95025003 0
0.1804132 0.1279286 0.94775003 3.3979582e-39
0.1804132 0.1279286 0.95025003 3.3061129e-39
0.1804132 0.1304286 0.94775003 4.4081038e-39
0.1804132 0.1304286 0.95025003 0
0.17791319 0.1279286 0.95275003 0
0.17791319 0.1304286 0.95275003 0
0.17791319 0.1304286 0.95525002 0
0.1804132 0.1279286 0.95275003 3.4897867e-39
0.1804132 0.1304286 0.95275003 0
0.17791319 0.13292859 0.94775003 1.3173876e-38
0.17791319 0.13292859 0.95025003 1.1057677e-38
0.17791319 0.13542859 0.94775003 9.0207762e-39
0.17791319 0.13542859 0.95025003 1.3081677e-38
0.1804132 0.13292859 0.94775003 9.9488435e-39
0.1804132 0.13292859 0.95025003 7.0010679e-39
0.1804132 0.13542859 0.94775003 1.0868307e-38
0.1804132 0.13542859 0.95025003 9.4795865e-39
0.17791319 0.13292859 0.95275003 1.1334632e-38
0.17791319 0.13292859 0.95525002 1.1059532e-38
0.17791319 0.13542859 0.95275003 4.9620007e-39
0.17791319 0.13542859 0.95525002 3.9503697e-39
0.1804132 0.13292859 0.95275003 7.1858291e-39
0.1804132 0.13542859 0.95275003 1.0126363e-38
0.1804132 0.13542859 0.95525002 9.5735814e-39
0.1829132 0.1279286 0.94775003 1.5940155e-38
0.1829132 0.1279286 0.95025003 1.6764521e-38
0.1829132 0.1304286 0.94775003 1.6941675e-38
0.1829132 0.1304286 0.95025003 1.712536e-38
0.1854132 0.1279286 0.94775003 1.2629019e-38
0.1854132 0.1279286 0.95025003 1.5301973e-38
0.1854132 0.1304286 0.95025003 1.5204713e-38
0.1829132 0.1304286 0.95525002 1.6576467e-38
0.17791319 0.13292859 0.95775002 1.0876561e-38
0.17791319 0.13542859 0.95775002 1.1336468e-38
0.17791319 0.13792859 0.94775003 1.939313e-39
0.17791319 0.13792859 0.95025003 1.4349296e-42
0.17791319 0.14042859 0.94775003 4.6969184e-39
0.17791319 0.14042859 0.95025003 6.4284847e-40
0.1804132 0.13792859 0.94775003 9.9474212e-39
0.1804132 0.13792859 0.95025003 2.215544e-39
0.1804132 0.14042859 0.94775003 1.0409497e-38
0.1804132 0.14042859 0.95025003 4.6029067e-39
0.17791319 0.13792859 0.95275003 1.0761972e-42
0.17791319 0.13792859 0.95525002 1.5619209e-39
0.17791319 0.14042859 0.95275003 2.1136513e-39
0.17791319 0.14042859 0.95525002 1.7506632e-39
0.1804132 0.13792859 0.95275003 2.0343953e-39
0.1804132 0.13792859 0.95525002 2.3113395e-39
0.1804132 0.14042859 0.95275003 2.579307e-39
0.17791319 0.1429286 0.94775003 5.9898068e-39
0.17791319 0.1429286 0.95025003 4.2384234e-39
0.17791319 0.1454286 0.95025003 7.3731337e-39
0.1804132 0.1429286 0.94775003 9.6765979e-39
0.1804132 0.1429286 0.95025003 6.0808912e-39
0.1804132 0.1454286 0.95025003 1.004649e-38
0.17791319 0.1429286 0.95275003 4.1447942e-39
0.17791319 0.1429286 0.95525002 5.7118509e-39
0.17791319 0.1454286 0.95275003 8.0152591e-39
0.1804132 0.1429286 0.95275003 5.8079295e-39
0.1804132 0.1454286 0.95275003 9.3059979e-39
0.1829132 0.14042859 0.95025003 1.0222938e-38
0.1829132 0.1429286 0.94775003 1.6530389e-39
0.1829132 0.1429286 0.95025003 8.8443191e-39
0.1829132 0.1454286 0.95025003 7.3720953e-39
0.1854132 0.1454286 0.94775003 0
0.1854132 0.1454286 0.95025003 0
0.1829132 0.1454286 0.95275003 7.8327203e-39
0.1854132 0.1454286 0.95275003 1.6530389e-39
0.17791319 0.13792859 0.95775002 1.2856969e-39
0.19541319 0.1154286 0.93774998 1.3804163e-39
0.18791319 0.11792859 0.93524998 6.4284847e-40
0.18791319 0.12042859 0.93274999 1.6562941e-39
0.19041319 0.12042859 0.93524998 1.6566445e-39
0.18791319 0.12542859 0.93024999 8.2889915e-39
0.19041319 0.12542859 0.93024999 1.5612034e-39
0.18791319 0.1229286 0.93274999 0
0.18791319 0.1229286 0.93524998 0
0.18791319 0.12542859 0.93274999 9.8090893e-44
0.18791319 0.12542859 0.93524998 8.8281803e-44
0.19041319 0.1229286 0.93274999 4.5921532e-40
0.19041319 0.1229286 0.93524998 1.0105772e-39
0.19041319 0.12542859 0.93274999 0
0.19041319 0.12542859 0.93524998 0
0.19291319 0.11792859 0.93524998 1.6570004e-39
0.19291319 0.12042859 0.93524998 1.6566445e-39
0.19541319 0.11792859 0.93524998 1.7484898e-39
0.19541319 0.12042859 0.93524998 2.2065813e-39
0.19291319 0.12542859 0.93024999 8.2835377e-40
0.19291319 0.1229286 0.93274999 6.4396531e-40
0.19291319 0.1229286 0.93524998 6.4287089e-40
0.19291319 0.12542859 0.93274999 9.1835496e-41
0.19291319 0.12542859 0.93524998 0
0.19541319 0.1229286 0.93524998 5.5317378e-40
0.19541319 0.12542859 0.93274999 1.7484898e-39
0.19541319 0.12542859 0.93524998 1.1063476e-39
0.18791319 0.11792859 0.93774998 0
0.18791319 0.12042859 0.93774998 2.1143856e-39
0.18791319 0.12042859 0.94024998 1.1960251e-39
0.19041319 0.12042859 0.93774998 1.7491988e-39
0.19041319 0.12042859 0.94024998 1.6566445e-39
0.19041319 0.12042859 0.94275004 1.4726133e-39
0.18791319 0.1229286 0.93774998 3.9236357e-44
0.18791319 0.1229286 0.94024998 1.2882179e-39
0.18791319 0.12542859 0.93774998 1.2068277e-39
0.18791319 0.12542859 0.94024998 8.8281803e-44
0.19041319 0.1229286 0.93774998 1.6562941e-39
0.19041319 0.1229286 0.94024998 1.8413917e-39
0.19041319 0.12542859 0.93774998 2.7550649e-40
0.19041319 0.12542859 0.94024998 8.6880505e-44
0.19291319 0.11792859 0.93774998 1.4715624e-39
0.19291319 0.11792859 0.94024998 1.4726133e-39
0.19291319 0.12042859 0.93774998 1.6562941e-39
0.19291319 0.12042859 0.94024998 1.6562941e-39
0.19541319 0.11792859 0.93774998 1.3804163e-39
0.19541319 0.11792859 0.94024998 1.6562941e-39
0.19541319 0.12042859 0.93774998 1.6566445e-39
0.19541319 0.12042859 0.94024998 2.4817416e-39
0.19291319 0.12042859 0.94275004 2.0254368e-39
0.19541319 0.11792859 0.94275004 1.6573507e-39
0.19541319 0.11792859 0.94525003 1.8413945e-39
0.19541319 0.12042859 0.94275004 1.6566445e-39
0.19541319 0.12042859 0.94525003 1.6566445e-39
0.19291319 0.1229286 0.93774998 1.1031204e-39
0.19291319 0.1229286 0.94024998 1.3800674e-39
0.19291319 0.12542859 0.93774998 0
0.19291319 0.12542859 0.94024998 5.521172e-40
0.19541319 0.1229286 0.93774998 1.0112751e-39
0.19541319 0.1229286 0.94024998 1.2882179e-39
0.19541319 0.12542859 0.93774998 1.3800674e-39
0.1979132 0.1154286 0.94024998 1.8413945e-39
0.1979132 0.1154286 0.94275004 2.1176324e-39
0.2004132 0.1154286 0.94275004 1.8413945e-39
0.2004132 0.1154286 0.94525003 1.7491988e-39
0.1979132 0.1229286 0.93524998 2.1143856e-39
0.1979132 0.12542859 0.93524998 3.3118372e-39
0.2004132 0.12542859 0.93524998 4.2337921e-39
0.1979132 0.11792859 0.94024998 1.2907388e-39
0.1979132 0.12042859 0.94024998 1.6566445e-39
0.2004132 0.11792859 0.94024998 1.1985432e-39
0.2004132 0.12042859 0.94024998 1.6534075e-39
0.1979132 0.11792859 0.94275004 1.6559438e-39
0.1979132 0.11792859 0.94525003 1.6566445e-39
0.1979132 0.12042859 0.94275004 1.1960251e-39
0.1979132 0.12042859 0.94525003 1.6566445e-39
0.2004132 0.11792859 0.94275004 1.6566445e-39
0.2004132 0.11792859 0.94525003 1.1985432e-39
0.2004132 0.12042859 0.94275004 8.2724394e-40
0.2004132 0.12042859 0.94525003 1.2882207e-39
0.1979132 0.1229286 0.93774998 2.026492e-39
0.1979132 0.1229286 0.94024998 1.6534075e-39
0.1979132 0.12542859 0.93774998 2.3949158e-39
0.1979132 0.12542859 0.94024998 1.2885682e-39
0.2004132 0.1229286 0.93774998 3.5895157e-39
0.2004132 0.1229286 0.94024998 1.5612118e-39
0.2004132 0.12542859 0.93774998 2.6718614e-39
0.2004132 0.12542859 0.94024998 2.6718614e-39
0.2004132 0.1229286 0.94275004 1.5619209e-39
0.2004132 0.1229286 0.94525003 8.2724394e-40
0.2004132 0.12542859 0.94275004 2.1179828e-39
0.20291319 0.12042859 0.94024998 1.7481423e-39
0.20291319 0.11792859 0.94275004 1.4733196e-39
0.20291319 0.11792859 0.94525003 8.2976067e-40
0.20291319 0.12042859 0.94275004 6.4320721e-40
0.20291319 0.12042859 0.94525003 7.3899016e-40
0.20541319 0.11792859 0.94525003 4.6097815e-40
0.20541319 0.12042859 0.94275004 1.4733196e-39
0.20541319 0.12042859 0.94525003 4.6097815e-40
0.20291319 0.1229286 0.93774998 3.4990955e-39
0.20291319 0.1229286 0.94024998 2.6686146e-39
0.20291319 0.12542859 0.93774998 4.4181848e-39
0.20291319 0.12542859 0.94024998 3.9604338e-39
0.20541319 0.1229286 0.94024998 3.4973075e-39
0.20541319 0.12542859 0.94024998 3.7760551e-39
0.20291319 0.1229286 0.94275004 1.5619209e-39
0.20291319 0.1229286 0.94525003 8.2689361e-40
0.20291319 0.12542859 0.94275004 3.588773e-39
0.20291319 0.12542859 0.94525003 3.0381174e-39
0.20541319 0.1229286 0.94275004 3.3140078e-39
0.20541319 0.1229286 0.94525003 2.6718614e-39
0.20541319 0.12542859 0.94275004 2.7658689e-39
0.20541319 0.12542859 0.94525003 3.3172448e-39
0.18791319 0.1079286 0.95775002 1.7491988e-39
0.18791319 0.11042859 0.95775002 1.4726133e-39
0.18791319 0.1079286 0.96275002 2.2987769e-39
0.18791319 0.11042859 0.96275002 1.7491988e-39
0.19041319 0.1079286 0.96275002 1.0155785e-39
0.19041319 0.11042859 0.96275002 1.1967313e-39
0.18791319 0.11292859 0.95775002 0
0.18791319 0.1154286 0.95775002 0
0.18791319 0.11292859 0.96275002 0
0.18791319 0.1154286 0.96275002 0
0.19041319 0.11292859 0.96275002 0
0.19041319 0.1154286 0.96275002 0
0.18791319 0.12042859 0.94775003 0
0.18791319 0.12042859 0.95025003 0
0.18791319 0.12042859 0.95525002 0
0.18791319 0.1229286 0.94775003 7.0064923e-45
0.18791319 0.12542859 0.94775003 2.1205569e-39
0.18791319 0.1229286 0.95525002 9.1835496e-41
0.18791319 0.12542859 0.95525002 4.4841551e-44
0.19041319 0.1229286 0.95525002 1.4733322e-39
0.18791319 0.11792859 0.95775002 0
0.18791319 0.12042859 0.95775002 0
0.19041319 0.12042859 0.95775002 0
0.18791319 0.11792859 0.96275002 0
0.18791319 0.12042859 0.96275002 0
0.19041319 0.11792859 0.96275002 0
0.19041319 0.12042859 0.96275002 0
0.18791319 0.1229286 0.95775002 0
0.18791319 0.12542859 0.95775002 3.3631163e-44
0.19041319 0.1229286 0.95775002 0
0.18791319 0.1229286 0.96275002 0
0.19041319 0.1229286 0.96275002 0
0.19541319 0.11792859 0.96275002 0
0.19541319 0.12042859 0.96275002 1.6566445e-39
0.19541319 0.1229286 0.96275002 1.6566445e-39
0.1979132 0.1154286 0.94775003 1.841742e-39
0.2004132 0.1154286 0.94775003 2.3027201e-39
0.2004132 0.1154286 0.95025003 2.1176324e-39
0.20541319 0.11042859 0.95025003 3.0363419e-39
0.20291319 0.1154286 0.94775003 2.026492e-39
0.20291319 0.1154286 0.95025003 1.8410441e-39
0.20541319 0.11292859 0.95025003 2.026492e-39
0.20541319 0.1154286 0.94775003 1.7491988e-39
0.20541319 0.1154286 0.95025003 1.6566445e-39
0.20541319 0.11292859 0.95275003 1.841742e-39
0.20541319 0.1154286 0.95275003 1.3829344e-39
0.20541319 0.1154286 0.95525002 2.1172821e-39
0.1979132 0.11792859 0.94775003 1.8410441e-39
0.2004132 0.11792859 0.94775003 1.6566445e-39
0.2004132 0.11792859 0.95025003 2.759755e-39
0.2004132 0.12042859 0.95025003 1.6566445e-39
0.20291319 0.11792859 0.94775003 1.2907388e-39
0.20291319 0.11792859 0.95025003 2.759755e-39
0.20291319 0.12042859 0.94775003 1.1063476e-39
0.20291319 0.12042859 0.95025003 1.6566445e-39
0.20541319 0.11792859 0.94775003 4.6097815e-40
0.20541319 0.11792859 0.95025003 1.6566445e-39
0.20541319 0.12042859 0.94775003 2.7801762e-40
0.20541319 0.12042859 0.95025003 8.2724394e-40
0.20541319 0.11792859 0.95275003 1.472263e-39
0.1979132 0.11792859 0.96275002 6.4501908e-40
0.1979132 0.12042859 0.96275002 1.4726133e-39
0.1979132 0.1229286 0.96275002 1.4726133e-39
0.18791319 0.1279286 0.93024999 1.3907533e-38
0.18791319 0.1304286 0.92774999 1.5110379e-38
0.18791319 0.1304286 0.93024999 1.5384821e-38
0.19041319 0.1279286 0.93024999 7.0064923e-45
0.19041319 0.1304286 0.92774999 1.6530417e-39
0.19041319 0.1304286 0.93024999 1.8367099e-39
0.18791319 0.1279286 0.93274999 1.3723495e-38
0.18791319 0.1279286 0.93524998 1.4559724e-38
0.18791319 0.1304286 0.93274999 1.2713579e-38
0.19041319 0.1279286 0.93274999 5.6148796e-39
0.19041319 0.1279286 0.93524998 8.4730128e-39
0.19041319 0.1304286 0.93274999 1.1423629e-38
0.18791319 0.13292859 0.92774999 1.4922429e-38
0.18791319 0.13292859 0.93024999 1.5196151e-38
0.18791319 0.13542859 0.92774999 1.2891251e-38
0.18791319 0.13542859 0.93024999 1.2982005e-38
0.19041319 0.13292859 0.92774999 2.3880816e-39
0.19041319 0.13292859 0.93024999 2.2040519e-39
0.19041319 0.13542859 0.92774999 1.8367099e-40
0.19041319 0.13542859 0.93024999 2.7550649e-40
0.18791319 0.13292859 0.93274999 1.5291218e-38
0.18791319 0.13542859 0.93274999 1.2983802e-38
0.19041319 0.13542859 0.93274999 8.3825002e-39
0.19291319 0.1279286 0.93024999 1.1056385e-39
0.19291319 0.1304286 0.92774999 1.4736727e-39
0.19291319 0.1304286 0.93024999 1.1967313e-39
0.19541319 0.1279286 0.93024999 3.0392286e-39
0.19541319 0.1304286 0.92774999 2.7647773e-39
0.19541319 0.1304286 0.93024999 2.7640584e-39
0.19291319 0.1279286 0.93274999 1.102026e-39
0.19291319 0.1279286 0.93524998 1.5612034e-39
0.19291319 0.1304286 0.93274999 1.0119841e-39
0.19541319 0.1279286 0.93274999 2.5811273e-39
0.19541319 0.1279286 0.93524998 2.4878751e-39
0.19541319 0.1304286 0.93274999 2.5814776e-39
0.19541319 0.1304286 0.93524998 3.0399348e-39
0.19291319 0.13292859 0.92774999 0
0.19291319 0.13292859 0.93024999 9.1835496e-41
0.19291319 0.13542859 0.92774999 0
0.19291319 0.13542859 0.93024999 0
0.19541319 0.13292859 0.92774999 9.1835496e-41
0.19541319 0.13292859 0.93024999 0
0.19541319 0.13542859 0.92774999 0
0.19541319 0.13542859 0.93024999 0
0.19291319 0.13292859 0.93274999 0
0.19291319 0.13292859 0.93524998 1.8367099e-39
0.19291319 0.13542859 0.93274999 6.4284847e-40
0.19541319 0.13292859 0.93274999 0
0.19541319 0.13292859 0.93524998 2.7640584e-39
0.18791319 0.1279286 0.93774998 1.695712e-38
0.19041319 0.1279286 0.93774998 7.9223404e-39
0.19541319 0.1279286 0.93774998 2.4875192e-39
0.18791319 0.13792859 0.93024999 1.0502408e-38
0.18791319 0.14042859 0.93024999 0
0.19041319 0.13792859 0.93024999 1.2031941e-39
0.19041319 0.14042859 0.93024999 0
0.18791319 0.13792859 0.93274999 1.0685723e-38
0.18791319 0.13792859 0.93524998 1.5110395e-38
0.18791319 0.14042859 0.93274999 9.1835496e-40
0.18791319 0.14042859 0.93524998 1.3775324e-39
0.19041319 0.13792859 0.93274999 1.0180952e-39
0.19041319 0.13792859 0.93524998 6.5325732e-40
0.19041319 0.14042859 0.93274999 0
0.19041319 0.14042859 0.93524998 0
0.18791319 0.1429286 0.93524998 0
0.18791319 0.1454286 0.93524998 0
0.19041319 0.1429286 0.93524998 0
0.19291319 0.13792859 0.93274999 0
0.19291319 0.13792859 0.93524998 0
0.19291319 0.14042859 0.93274999 0
0.19291319 0.14042859 0.93524998 0
0.19291319 0.1429286 0.93524998 0
0.19041319 0.14042859 0.93774998 0
0.18791319 0.1429286 0.93774998 0
0.18791319 0.1454286 0.93774998 0
0.18791319 0.1454286 0.94024998 0
0.19041319 0.1429286 0.93774998 0
0.19041319 0.1429286 0.94024998 0
0.19041319 0.1454286 0.93774998 0
0.19041319 0.1454286 0.94024998 0
0.18791319 0.1454286 0.94275004 3.7835059e-44
0.19041319 0.1454286 0.94275004 0
0.19041319 0.1454286 0.94525003 0
0.19291319 0.14042859 0.93774998 0
0.19291319 0.1429286 0.93774998 0
0.19291319 0.1429286 0.94024998 0
0.19291319 0.1454286 0.94024998 0
0.19291319 0.1429286 0.94525003 0
0.19291319 0.1454286 0.94275004 0
0.19291319 0.1454286 0.94525003 0
0.19541319 0.1429286 0.94525003 0
0.19541319 0.1454286 0.94275004 9.1835496e-40
0.19541319 0.1454286 0.94525003 1.4012985e-45
