# .PCD v0.7 - Point Cloud Data file format
VERSION 0.7
FIELDS x y z rgb
SIZE 4 4 4 4
TYPE F F F F
COUNT 1 1 1 1
WIDTH 1116
HEIGHT 1
VIEWPOINT 0 0 0 1 0 0 0
POINTS 1116
DATA ascii
0.066133432 0.16288157 0.90375006 3.0366979e-39
0.066133432 0.16288157 0.90625006 4.1437433e-39
0.06863343 0.16288157 0.90625006 5.1615063e-39
0.066133432 0.16538157 0.90375006 9.1835496e-40
0.06863343 0.16538157 0.90375006 4.2399074e-39
0.07613343 0.14038157 0.88625008 0
0.07613343 0.14288157 0.88375008 0
0.07613343 0.14288157 0.88625008 0
0.078633428 0.14288157 0.88375008 0
0.078633428 0.14288157 0.88625008 0
0.07613343 0.14038157 0.88875008 1.4012985e-45
0.07613343 0.14038157 0.89125007 0
0.07613343 0.14288157 0.88875008 0
0.07613343 0.14288157 0.89125007 0
0.078633428 0.14038157 0.89125007 0
0.078633428 0.14288157 0.88875008 0
0.078633428 0.14288157 0.89125007 0
0.08363343 0.13788156 0.88875008 3.7202933e-40
0.08363343 0.13788156 0.89125007 3.2369995e-42
0.081133425 0.14288157 0.88375008 0
0.081133425 0.14288157 0.88625008 0
0.08363343 0.14288157 0.88375008 5.6051939e-45
0.08363343 0.14288157 0.88625008 0
0.081133425 0.14038157 0.88875008 0
0.081133425 0.14038157 0.89125007 0
0.081133425 0.14288157 0.88875008 0
0.081133425 0.14288157 0.89125007 0
0.08363343 0.14038157 0.88875008 9.219563e-41
0.08363343 0.14038157 0.89125007 7.0064923e-45
0.08363343 0.14288157 0.88875008 1.4012985e-45
0.08363343 0.14288157 0.89125007 1.4012985e-45
0.07613343 0.13788156 0.89625007 0
0.078633428 0.13788156 0.89625007 0
0.07613343 0.13788156 0.90125006 0
0.078633428 0.13788156 0.90125006 3.2285917e-42
0.07613343 0.14038157 0.89375007 0
0.07613343 0.14038157 0.89625007 0
0.07613343 0.14288157 0.89375007 0
0.07613343 0.14288157 0.89625007 9.1835496e-41
0.078633428 0.14038157 0.89375007 0
0.078633428 0.14038157 0.89625007 0
0.078633428 0.14288157 0.89375007 0
0.078633428 0.14288157 0.89625007 0
0.07613343 0.14038157 0.89875007 0
0.07613343 0.14038157 0.90125006 0
0.078633428 0.14038157 0.89875007 3.5873241e-43
0.078633428 0.14038157 0.90125006 5.6051939e-45
0.081133425 0.13788156 0.89625007 0
0.08363343 0.13788156 0.89625007 1.44614e-42
0.081133425 0.13788156 0.90125006 3.2285917e-42
0.08363343 0.13788156 0.90125006 1.44614e-42
0.081133425 0.14038157 0.89375007 3.657389e-43
0.081133425 0.14038157 0.89625007 1.4012985e-45
0.081133425 0.14288157 0.89375007 1.4012985e-45
0.081133425 0.14288157 0.89625007 0
0.08363343 0.14038157 0.89375007 9.1845305e-41
0.08363343 0.14038157 0.89625007 5.6051939e-45
0.08363343 0.14288157 0.89375007 7.0064923e-45
0.08363343 0.14288157 0.89625007 0
0.081133425 0.14038157 0.89875007 2.1523944e-42
0.081133425 0.14038157 0.90125006 1.44614e-42
0.08363343 0.14038157 0.89875007 1.460153e-42
0.08363343 0.14038157 0.90125006 1.8202867e-42
0.07613343 0.14538157 0.88375008 0
0.07613343 0.14788157 0.88375008 2.2420775e-44
0.078633428 0.14538157 0.88375008 0
0.078633428 0.14538157 0.88625008 0
0.078633428 0.14788157 0.88375008 0
0.078633428 0.14788157 0.88625008 0
0.078633428 0.14538157 0.88875008 0
0.078633428 0.14538157 0.89125007 0
0.081133425 0.14538157 0.88375008 0
0.081133425 0.14538157 0.88625008 0
0.081133425 0.14788157 0.88375008 0
0.081133425 0.14788157 0.88625008 0
0.08363343 0.14538157 0.88375008 0
0.08363343 0.14538157 0.88625008 0
0.08363343 0.14788157 0.88375008 0
0.08363343 0.14788157 0.88625008 0
0.081133425 0.14538157 0.88875008 0
0.08363343 0.14538157 0.88875008 0
0.08363343 0.14538157 0.89125007 0
0.08363343 0.14788157 0.88875008 0
0.08363343 0.15038157 0.88375008 0
0.078633428 0.14538157 0.89375007 0
0.081133425 0.14538157 0.89375007 0
0.08363343 0.14538157 0.89375007 0
0.086133428 0.13788156 0.88875008 3.61535e-42
0.086133428 0.13788156 0.89125007 0
0.086133428 0.14038157 0.88625008 3.7202933e-40
0.086133428 0.14288157 0.88375008 0
0.086133428 0.14288157 0.88625008 0
0.088633426 0.14038157 0.88375008 0
0.088633426 0.14038157 0.88625008 0
0.088633426 0.14288157 0.88375008 9.1845305e-41
0.088633426 0.14288157 0.88625008 4.6026909e-40
0.086133428 0.14038157 0.88875008 1.44614e-42
0.086133428 0.14038157 0.89125007 9.1845305e-41
0.086133428 0.14288157 0.88875008 9.219563e-41
0.086133428 0.14288157 0.89125007 5.6051939e-45
0.088633426 0.14038157 0.88875008 1.821688e-44
0.088633426 0.14038157 0.89125007 8.4077908e-45
0.088633426 0.14288157 0.88875008 7.258726e-43
0.088633426 0.14288157 0.89125007 2.7912604e-40
0.091133431 0.14038157 0.88375008 8.290376e-40
0.091133431 0.14038157 0.88625008 0
0.091133431 0.14288157 0.88375008 0
0.091133431 0.14288157 0.88625008 3.7835059e-43
0.093633428 0.14038157 0.88375008 1.2051615e-38
0.093633428 0.14038157 0.88625008 1.0134289e-39
0.093633428 0.14288157 0.88375008 5.5101298e-39
0.093633428 0.14288157 0.88625008 5.4182943e-39
0.091133431 0.14038157 0.88875008 0
0.091133431 0.14038157 0.89125007 0
0.091133431 0.14288157 0.88875008 8.4077908e-45
0.093633428 0.14038157 0.88875008 9.2123323e-40
0.093633428 0.14288157 0.88875008 5.3264588e-39
0.086133428 0.13788156 0.89375007 0
0.086133428 0.13788156 0.89625007 1.44614e-42
0.086133428 0.13788156 0.90125006 1.836766e-40
0.088633426 0.13788156 0.90125006 0
0.086133428 0.14038157 0.89375007 5.5282345e-40
0.086133428 0.14038157 0.89625007 1.8404094e-40
0.086133428 0.14288157 0.89375007 1.44614e-42
0.086133428 0.14288157 0.89625007 2.7623797e-40
0.088633426 0.14038157 0.89375007 1.836766e-40
0.088633426 0.14038157 0.89625007 4.2038954e-45
0.088633426 0.14288157 0.89375007 1.44614e-42
0.088633426 0.14288157 0.89625007 5.6051939e-45
0.086133428 0.14038157 0.89875007 1.8202867e-42
0.086133428 0.14038157 0.90125006 3.7835059e-43
0.088633426 0.14038157 0.89875007 1.5414283e-44
0.088633426 0.14038157 0.90125006 0
0.088633426 0.14288157 0.89875007 1.8404094e-40
0.091133431 0.14038157 0.89625007 0
0.091133431 0.14288157 0.89375007 0
0.091133431 0.14288157 0.89625007 0
0.091133431 0.14038157 0.89875007 0
0.086133428 0.14538157 0.88375008 0
0.086133428 0.14538157 0.88625008 0
0.086133428 0.14788157 0.88375008 0
0.086133428 0.14788157 0.88625008 0
0.088633426 0.14538157 0.88375008 0
0.088633426 0.14538157 0.88625008 9.219563e-41
0.088633426 0.14788157 0.88375008 0
0.088633426 0.14788157 0.88625008 0
0.086133428 0.14538157 0.88875008 8.4077908e-45
0.086133428 0.14538157 0.89125007 2.7658689e-40
0.086133428 0.14788157 0.88875008 0
0.088633426 0.14538157 0.88875008 0
0.088633426 0.14538157 0.89125007 2.5265411e-42
0.088633426 0.14788157 0.88875008 1.4012985e-45
0.088633426 0.15038157 0.88375008 0
0.091133431 0.14538157 0.88375008 1.098618e-42
0.091133431 0.14538157 0.88625008 2.5265411e-42
0.091133431 0.14788157 0.88375008 0
0.091133431 0.14788157 0.88625008 1.4349296e-42
0.093633428 0.14538157 0.88625008 8.4077908e-45
0.093633428 0.14788157 0.88625008 4.6097815e-40
0.091133431 0.14538157 0.88875008 1.821688e-44
0.091133431 0.14788157 0.88875008 2.5265411e-42
0.093633428 0.14538157 0.88875008 0
0.091133431 0.15038157 0.88375008 0
0.086133428 0.14538157 0.89375007 0
0.07613343 0.13538156 0.90625006 8.4077908e-45
0.07613343 0.13788156 0.90375006 0
0.07613343 0.13788156 0.90625006 4.2038954e-45
0.078633428 0.13538156 0.90625006 4.6026909e-40
0.078633428 0.13788156 0.90375006 0
0.078633428 0.13788156 0.90625006 1.8439126e-40
0.07613343 0.13538156 0.90875006 1.6815582e-44
0.07613343 0.13788156 0.90875006 1.4012985e-45
0.078633428 0.13538156 0.90875006 4.6026909e-40
0.078633428 0.13788156 0.90875006 2.7623797e-40
0.07613343 0.14038157 0.90375006 0
0.078633428 0.14038157 0.90375006 1.4012985e-45
0.07613343 0.14038157 0.90875006 0
0.078633428 0.14038157 0.90875006 7.0064923e-45
0.081133425 0.13538156 0.90625006 2.5153307e-42
0.081133425 0.13788156 0.90375006 2.5265411e-42
0.081133425 0.13788156 0.90625006 9.5082305e-41
0.08363343 0.13538156 0.90625006 6.4286249e-40
0.08363343 0.13788156 0.90375006 1.44614e-42
0.08363343 0.13788156 0.90625006 1.44614e-42
0.081133425 0.13538156 0.90875006 0
0.081133425 0.13788156 0.90875006 1.8727793e-40
0.08363343 0.13538156 0.90875006 3.6734198e-40
0.08363343 0.13788156 0.90875006 1.098618e-42
0.081133425 0.14038157 0.90375006 2.5265411e-42
0.08363343 0.14038157 0.90375006 2.8866748e-42
0.08363343 0.14038157 0.90625006 9.5082305e-41
0.081133425 0.14038157 0.90875006 2.5153307e-42
0.08363343 0.14038157 0.90875006 9.5082305e-41
0.07613343 0.13538156 0.91375011 1.3793611e-39
0.07613343 0.13788156 0.91375011 3.673602e-40
0.086133428 0.13538156 0.90625006 7.4436974e-39
0.086133428 0.13788156 0.90375006 1.4012985e-45
0.086133428 0.13788156 0.90625006 0
0.088633426 0.13538156 0.90625006 1.3898082e-38
0.088633426 0.13788156 0.90375006 0
0.088633426 0.13788156 0.90625006 3.039932e-39
0.086133428 0.13538156 0.90875006 7.2567979e-39
0.086133428 0.13788156 0.90875006 0
0.088633426 0.13538156 0.90875006 1.444731e-38
0.088633426 0.13788156 0.90875006 2.3963633e-39
0.086133428 0.14038157 0.90375006 3.7835059e-43
0.086133428 0.14038157 0.90625006 1.460153e-42
0.088633426 0.14038157 0.90375006 0
0.088633426 0.14038157 0.90625006 0
0.086133428 0.14038157 0.90875006 6.4284847e-40
0.063633427 0.17538157 0.88125008 7.892113e-42
0.063633427 0.17788157 0.88125008 8.681044e-42
0.066133432 0.17538157 0.87875009 2.2155818e-39
0.066133432 0.17538157 0.88125008 2.4003332e-39
0.066133432 0.17788157 0.87875009 8.9683102e-42
0.066133432 0.17788157 0.88125008 8.2592531e-42
0.06863343 0.17538157 0.87875009 1.8413945e-39
0.06863343 0.17538157 0.88125008 1.1056385e-39
0.06863343 0.17788157 0.87875009 2.6736733e-39
0.06863343 0.17788157 0.88125008 2.5811245e-39
0.06863343 0.18038157 0.87875009 1.4747798e-39
0.071133427 0.17538157 0.87375009 1.1210388e-44
0.071133427 0.17788157 0.87375009 1.1981929e-39
0.073633432 0.17538157 0.87375009 0
0.073633432 0.17788157 0.87375009 4.2038954e-45
0.071133427 0.17538157 0.87875009 1.4012985e-45
0.071133427 0.17788157 0.87875009 9.219563e-40
0.071133427 0.17788157 0.88125008 2.4006835e-39
0.073633432 0.17538157 0.87875009 0
0.073633432 0.17788157 0.87875009 1.2611686e-44
0.073633432 0.18038157 0.87375009 4.6026909e-40
0.073633432 0.18288156 0.87375009 1.8439126e-39
0.071133427 0.18038157 0.87875009 2.2126951e-39
0.073633432 0.18038157 0.87875009 5.5317378e-40
0.081133425 0.17538157 0.84375006 0
0.08363343 0.17538157 0.84375006 1.7463094e-39
0.08363343 0.18038157 0.85125011 0
0.08363343 0.18288156 0.85125011 0
0.07613343 0.18288156 0.8587501 1.1963726e-39
0.078633428 0.18288156 0.8587501 0
0.078633428 0.18288156 0.8612501 1.0123429e-39
0.081133425 0.17788157 0.85625011 0
0.08363343 0.17788157 0.85375011 1.6544739e-39
0.081133425 0.18038157 0.85375011 0
0.081133425 0.18038157 0.85625011 0
0.081133425 0.18288156 0.85375011 0
0.081133425 0.18288156 0.85625011 0
0.08363343 0.18038157 0.85375011 0
0.08363343 0.18038157 0.85625011 0
0.08363343 0.18288156 0.85375011 0
0.08363343 0.18288156 0.85625011 0
0.081133425 0.18038157 0.8587501 0
0.081133425 0.18288156 0.8587501 0
0.081133425 0.18288156 0.8612501 0
0.08363343 0.18038157 0.8587501 0
0.08363343 0.18038157 0.8612501 0
0.08363343 0.18288156 0.8587501 0
0.08363343 0.18288156 0.8612501 0
0.08363343 0.18788157 0.84375006 1.3804163e-39
0.08363343 0.18788157 0.84625006 2.7658689e-40
0.081133425 0.18788157 0.85125011 3.6734198e-40
0.08363343 0.18538156 0.84875011 0
0.08363343 0.18538156 0.85125011 0
0.08363343 0.18788157 0.84875011 7.3504691e-40
0.08363343 0.18788157 0.85125011 1.4012985e-45
0.08363343 0.19038157 0.84375006 5.5642059e-40
0.08363343 0.19288157 0.84375006 3.5873241e-43
0.081133425 0.19038157 0.85125011 0
0.081133425 0.19288157 0.85125011 0
0.08363343 0.19038157 0.84875011 1.7495464e-39
0.08363343 0.19038157 0.85125011 1.7495464e-39
0.08363343 0.19288157 0.85125011 2.8533758e-39
0.07613343 0.18788157 0.85625011 0
0.078633428 0.18538156 0.85625011 3.6734198e-40
0.078633428 0.18788157 0.85625011 0
0.07613343 0.18538156 0.8587501 8.2651947e-40
0.07613343 0.18538156 0.8612501 1.0119841e-39
0.07613343 0.18788157 0.8587501 0
0.07613343 0.18788157 0.8612501 1.8367099e-40
0.078633428 0.18538156 0.8587501 3.6734899e-40
0.078633428 0.18538156 0.8612501 7.3504691e-40
0.078633428 0.18788157 0.8587501 9.1835496e-41
0.078633428 0.18788157 0.8612501 4.5917748e-40
0.07613343 0.19038157 0.85375011 0
0.07613343 0.19038157 0.85625011 0
0.078633428 0.19038157 0.85375011 0
0.078633428 0.19038157 0.85625011 0
0.081133425 0.18538156 0.85375011 9.1835496e-41
0.081133425 0.18538156 0.85625011 1.4012985e-45
0.081133425 0.18788157 0.85375011 1.8367099e-40
0.081133425 0.18788157 0.85625011 9.1835496e-41
0.08363343 0.18538156 0.85375011 1.836766e-40
0.08363343 0.18538156 0.85625011 0
0.08363343 0.18788157 0.85375011 1.8367099e-40
0.08363343 0.18788157 0.85625011 4.5917748e-40
0.081133425 0.18538156 0.8587501 0
0.081133425 0.18538156 0.8612501 0
0.081133425 0.18788157 0.8587501 5.6051939e-45
0.081133425 0.18788157 0.8612501 0
0.08363343 0.18538156 0.8587501 0
0.08363343 0.18538156 0.8612501 0
0.08363343 0.18788157 0.8587501 0
0.081133425 0.19038157 0.85375011 9.1835496e-41
0.081133425 0.19038157 0.85625011 0
0.08363343 0.19038157 0.85375011 9.2160738e-40
0.08363343 0.19038157 0.85625011 6.4284847e-40
0.086133428 0.17538157 0.84375006 2.8526569e-39
0.086133428 0.18038157 0.84375006 1.4693679e-39
0.086133428 0.18288156 0.84375006 0
0.086133428 0.18288156 0.84625006 3.6734198e-40
0.088633426 0.18038157 0.84375006 1.1141985e-38
0.088633426 0.18288156 0.84375006 0
0.086133428 0.18038157 0.85125011 1.5612034e-39
0.086133428 0.18288156 0.84875011 0
0.086133428 0.18288156 0.85125011 0
0.088633426 0.18288156 0.84875011 1.3775324e-39
0.091133431 0.18288156 0.84375006 0
0.093633428 0.18288156 0.84375006 0
0.086133428 0.18038157 0.85375011 0
0.086133428 0.18038157 0.85625011 0
0.086133428 0.18288156 0.85375011 0
0.086133428 0.18288156 0.85625011 0
0.088633426 0.18288156 0.85375011 2.2958874e-39
0.088633426 0.18288156 0.85625011 1.8367099e-39
0.086133428 0.18038157 0.8587501 0
0.086133428 0.18038157 0.8612501 1.8428084e-39
0.086133428 0.18288156 0.8587501 0
0.086133428 0.18288156 0.8612501 0
0.088633426 0.18288156 0.8587501 1.0101905e-39
0.086133428 0.18538156 0.84375006 0
0.086133428 0.18538156 0.84625006 0
0.086133428 0.18788157 0.84375006 3.5032462e-44
0.086133428 0.18788157 0.84625006 0
0.088633426 0.18538156 0.84375006 0
0.088633426 0.18538156 0.84625006 0
0.088633426 0.18788157 0.84375006 0
0.088633426 0.18788157 0.84625006 0
0.086133428 0.18538156 0.84875011 0
0.086133428 0.18538156 0.85125011 0
0.086133428 0.18788157 0.84875011 0
0.086133428 0.18788157 0.85125011 0
0.088633426 0.18538156 0.84875011 0
0.088633426 0.18538156 0.85125011 6.4320721e-40
0.088633426 0.18788157 0.84875011 0
0.086133428 0.19038157 0.84375006 1.4012985e-45
0.086133428 0.19038157 0.84625006 1.4733196e-39
0.086133428 0.19288157 0.84375006 1.4693679e-39
0.086133428 0.19288157 0.84625006 2.0203809e-39
0.088633426 0.19038157 0.84375006 3.2207528e-39
0.088633426 0.19038157 0.84625006 2.8508997e-39
0.088633426 0.19288157 0.84375006 1.6407267e-38
0.088633426 0.19288157 0.84625006 1.6867522e-38
0.086133428 0.19038157 0.84875011 1.4733196e-39
0.086133428 0.19038157 0.85125011 9.2266255e-40
0.086133428 0.19288157 0.84875011 1.44614e-42
0.086133428 0.19288157 0.85125011 1.4726133e-39
0.088633426 0.19038157 0.84875011 0
0.088633426 0.19038157 0.85125011 3.0828566e-44
0.088633426 0.19288157 0.84875011 1.2806538e-38
0.088633426 0.19288157 0.85125011 0
0.091133431 0.18538156 0.84375006 0
0.091133431 0.18538156 0.84625006 0
0.091133431 0.18788157 0.84375006 3.2208257e-39
0.091133431 0.18788157 0.84625006 0
0.093633428 0.18538156 0.84375006 0
0.093633428 0.18538156 0.84625006 0
0.093633428 0.18788157 0.84375006 6.1657132e-44
0.093633428 0.18788157 0.84625006 4.2038954e-44
0.091133431 0.18788157 0.84875011 0
0.091133431 0.19038157 0.84375006 8.4759037e-39
0.091133431 0.19038157 0.84625006 9.3949873e-39
0.091133431 0.19288157 0.84625006 1.43757e-38
0.093633428 0.19038157 0.84375006 3.2207934e-39
0.093633428 0.19038157 0.84625006 2.8512921e-39
0.093633428 0.19288157 0.84375006 1.2900237e-38
0.093633428 0.19288157 0.84625006 1.2535751e-38
0.091133431 0.19038157 0.84875011 8.3833549e-39
0.091133431 0.19038157 0.85125011 0
0.091133431 0.19288157 0.84875011 1.4836304e-38
0.091133431 0.19288157 0.85125011 3.6792128e-39
0.093633428 0.19038157 0.84875011 1.1243611e-38
0.093633428 0.19288157 0.84875011 1.4192427e-38
0.086133428 0.18538156 0.85375011 0
0.086133428 0.18538156 0.85625011 0
0.086133428 0.18788157 0.85375011 2.8025969e-45
0.088633426 0.18538156 0.85375011 0
0.088633426 0.18538156 0.85625011 0
0.086133428 0.18538156 0.8587501 0
0.086133428 0.18538156 0.8612501 0
0.088633426 0.18538156 0.8587501 1.4693679e-39
0.086133428 0.19038157 0.85375011 0
0.078633428 0.17788157 0.8662501 0
0.07613343 0.17538157 0.8687501 0
0.07613343 0.17538157 0.87125009 0
0.07613343 0.17788157 0.8687501 0
0.07613343 0.17788157 0.87125009 0
0.078633428 0.17538157 0.8687501 0
0.078633428 0.17538157 0.87125009 0
0.078633428 0.17788157 0.8687501 0
0.078633428 0.17788157 0.87125009 0
0.07613343 0.18288156 0.8637501 2.115445e-39
0.078633428 0.18038157 0.8662501 0
0.078633428 0.18288156 0.8637501 3.6734198e-40
0.078633428 0.18288156 0.8662501 1.4012985e-45
0.07613343 0.18038157 0.8687501 2.8025969e-45
0.07613343 0.18038157 0.87125009 4.2038954e-45
0.07613343 0.18288156 0.8687501 2.1179828e-39
0.07613343 0.18288156 0.87125009 3.6734899e-40
0.078633428 0.18038157 0.8687501 0
0.078633428 0.18038157 0.87125009 0
0.078633428 0.18288156 0.8687501 4.5917748e-40
0.078633428 0.18288156 0.87125009 0
0.081133425 0.17788157 0.8662501 0
0.081133425 0.17538157 0.8687501 1.5619209e-39
0.081133425 0.17538157 0.87125009 8.2831313e-40
0.081133425 0.17788157 0.8687501 0
0.081133425 0.17788157 0.87125009 1.2903731e-39
0.08363343 0.17788157 0.8687501 1.1967313e-39
0.081133425 0.18038157 0.8662501 0
0.081133425 0.18288156 0.8637501 0
0.081133425 0.18288156 0.8662501 0
0.08363343 0.18038157 0.8662501 0
0.08363343 0.18288156 0.8662501 0
0.081133425 0.18038157 0.8687501 0
0.081133425 0.18038157 0.87125009 0
0.081133425 0.18288156 0.8687501 4.2038954e-45
0.081133425 0.18288156 0.87125009 0
0.08363343 0.18038157 0.8687501 0
0.08363343 0.18038157 0.87125009 0
0.08363343 0.18288156 0.8687501 0
0.08363343 0.18288156 0.87125009 0
0.07613343 0.17538157 0.87375009 0
0.07613343 0.17788157 0.87375009 0
0.078633428 0.17538157 0.87375009 0
0.078633428 0.17788157 0.87375009 0
0.07613343 0.17538157 0.87875009 0
0.07613343 0.17788157 0.87875009 0
0.078633428 0.17538157 0.87875009 0
0.07613343 0.18038157 0.87375009 2.7658689e-40
0.07613343 0.18288156 0.87375009 2.3030677e-39
0.078633428 0.18038157 0.87375009 0
0.078633428 0.18288156 0.87375009 5.6051939e-45
0.07613343 0.18038157 0.87875009 0
0.078633428 0.18038157 0.87875009 0
0.081133425 0.17538157 0.87375009 3.5927205e-39
0.081133425 0.17788157 0.87375009 2.7586522e-39
0.07613343 0.18538156 0.8637501 1.0119841e-39
0.07613343 0.18538156 0.8662501 1.4733196e-39
0.078633428 0.18538156 0.8637501 2.7623797e-40
0.078633428 0.18538156 0.8662501 1.1048958e-39
0.081133425 0.18538156 0.8637501 0
0.081133425 0.18538156 0.8662501 0
0.086133428 0.19538157 0.84375006 5.6051939e-45
0.088633426 0.19538157 0.84375006 1.456724e-38
0.091133431 0.19538157 0.84375006 6.4540262e-39
0.093633428 0.19538157 0.84375006 9.7727242e-39
0.058633428 0.17538157 0.88875008 1.0414534e-38
0.061133429 0.17538157 0.88375008 1.0118776e-41
0.061133429 0.17538157 0.88625008 1.1916642e-41
0.063633427 0.17538157 0.88375008 5.7397185e-42
0.063633427 0.17538157 0.88625008 4.6691265e-42
0.061133429 0.17538157 0.88875008 8.3125025e-42
0.061133429 0.17538157 0.89125007 5.7397185e-42
0.063633427 0.17538157 0.88875008 9.5432629e-41
0.063633427 0.17538157 0.89125007 2.4910967e-39
0.066133432 0.17538157 0.88375008 1.7549638e-39
0.066133432 0.17538157 0.88625008 3.1342983e-39
0.06863343 0.17538157 0.88375008 1.1059944e-39
0.06863343 0.17538157 0.88625008 1.2907388e-39
0.071133427 0.17538157 0.88375008 4.2038954e-45
0.096133426 0.16538157 0.84125006 0
0.096133426 0.16788156 0.83875006 7.9262206e-39
0.096133426 0.16788156 0.84125006 6.4539898e-39
0.098633431 0.16538157 0.84125006 4.4841551e-44
0.098633431 0.16788156 0.83875006 1.3171432e-38
0.098633431 0.16788156 0.84125006 1.1882478e-38
0.096133426 0.17038156 0.83625007 1.658041e-38
0.096133426 0.17288157 0.83625007 1.5835945e-38
0.098633431 0.17038156 0.83625007 1.5842925e-38
0.098633431 0.17288157 0.83625007 9.6794874e-39
0.096133426 0.17038156 0.83875006 1.5847158e-38
0.096133426 0.17288157 0.83875006 1.6117184e-38
0.098633431 0.17038156 0.83875006 1.6395376e-38
0.098633431 0.17038156 0.84125006 1.5570299e-38
0.098633431 0.17288157 0.83875006 3.6806029e-39
0.098633431 0.17288157 0.84125006 1.5934039e-38
0.10113343 0.17288157 0.83625007 0
0.10113343 0.17038156 0.83875006 1.0965872e-38
0.10113343 0.17038156 0.84125006 1.0780775e-38
0.10113343 0.17288157 0.83875006 0
0.10113343 0.17288157 0.84125006 1.821688e-44
0.10363343 0.17288157 0.84125006 1.4012985e-44
0.11363343 0.17288157 0.83625007 1.5482926e-38
0.11613343 0.17288157 0.83625007 1.805702e-38
0.12113343 0.16788156 0.83875006 2.0644258e-38
0.12113343 0.17038156 0.83875006 2.0551694e-38
0.096133426 0.17538157 0.83375007 1.6218441e-38
0.096133426 0.17538157 0.83625007 1.7135068e-38
0.096133426 0.17788157 0.83625007 1.0125605e-38
0.098633431 0.17538157 0.83375007 1.2436721e-38
0.098633431 0.17538157 0.83625007 1.0043899e-38
0.098633431 0.17788157 0.83375007 8.0088159e-39
0.098633431 0.17788157 0.83625007 8.3779431e-39
0.098633431 0.17538157 0.83875006 1.4012985e-44
0.098633431 0.17788157 0.83875006 7.7336527e-39
0.096133426 0.18038157 0.83625007 8.2878803e-39
0.098633431 0.18038157 0.83625007 5.2504692e-39
0.096133426 0.18038157 0.83875006 8.1060085e-39
0.096133426 0.18038157 0.84125006 8.4747925e-39
0.096133426 0.18288156 0.83875006 9.3059951e-39
0.096133426 0.18288156 0.84125006 8.8518567e-39
0.098633431 0.18038157 0.83875006 5.9844763e-39
0.098633431 0.18288156 0.83875006 5.5263274e-39
0.098633431 0.18288156 0.84125006 1.1243213e-38
0.10113343 0.17538157 0.83375007 1.2713974e-38
0.10113343 0.17538157 0.83625007 1.1524437e-38
0.10113343 0.17788157 0.83375007 3.5815844e-39
0.10113343 0.17788157 0.83625007 3.7652553e-39
0.10363343 0.17788157 0.83625007 2.0232508e-39
0.10113343 0.17538157 0.83875006 1.0139696e-38
0.10113343 0.17538157 0.84125006 0
0.10113343 0.17788157 0.83875006 3.3060835e-39
0.10363343 0.17538157 0.83875006 1.1612359e-38
0.10363343 0.17538157 0.84125006 0
0.10363343 0.17788157 0.83875006 1.4736727e-39
0.10113343 0.18038157 0.83625007 2.1143856e-39
0.10363343 0.18038157 0.83625007 2.8530044e-39
0.10113343 0.18038157 0.83875006 1.2856969e-39
0.10113343 0.18038157 0.84125006 3.3060779e-39
0.10113343 0.18288156 0.83875006 2.2055149e-39
0.10113343 0.18288156 0.84125006 2.4835269e-39
0.10363343 0.18038157 0.83875006 2.395622e-39
0.10363343 0.18038157 0.84125006 2.5800133e-39
0.096133426 0.18538156 0.84125006 0
0.10613343 0.17538157 0.84125006 9.3042378e-39
0.10613343 0.17788157 0.83875006 1.8367099e-40
0.11363343 0.17538157 0.83625007 1.602653e-38
0.11363343 0.17788157 0.83625007 0
0.11363343 0.17538157 0.83875006 1.6672233e-38
0.11363343 0.17788157 0.83875006 0
0.11363343 0.18038157 0.83625007 0
0.11363343 0.18038157 0.83875006 0
0.11613343 0.17538157 0.83625007 1.7504222e-38
0.11613343 0.17788157 0.83625007 1.6530389e-39
0.11613343 0.17538157 0.83875006 1.759856e-38
0.11613343 0.17788157 0.83875006 6.4284847e-40
0.11613343 0.18038157 0.83625007 7.1746481e-43
0.11613343 0.18038157 0.83875006 1.0793703e-38
0.10863343 0.15288156 0.85625011 9.0059771e-39
0.10863343 0.15288156 0.8587501 1.5655515e-38
0.10863343 0.15288156 0.8612501 1.4915459e-38
0.096133426 0.14288157 0.87375009 4.2244328e-39
0.098633431 0.14288157 0.87375009 1.6209087e-38
0.096133426 0.14288157 0.87875009 4.7754458e-39
0.096133426 0.14288157 0.88125008 0
0.098633431 0.14288157 0.87875009 1.630128e-38
0.10113343 0.14288157 0.87375009 2.2017374e-38
0.096133426 0.14538157 0.87125009 0
0.096133426 0.14788157 0.87125009 3.657389e-43
0.098633431 0.14538157 0.8687501 9.0182202e-39
0.098633431 0.14538157 0.87125009 3.5830193e-39
0.098633431 0.14788157 0.8687501 0
0.098633431 0.14788157 0.87125009 0
0.096133426 0.15038157 0.87125009 3.657389e-43
0.096133426 0.15288156 0.8687501 5.6051939e-45
0.096133426 0.15288156 0.87125009 0
0.098633431 0.15038157 0.8687501 1.821688e-44
0.098633431 0.15038157 0.87125009 1.8404094e-40
0.098633431 0.15288156 0.8687501 8.4077908e-45
0.098633431 0.15288156 0.87125009 8.4077908e-45
0.10113343 0.14538157 0.8637501 1.8601464e-38
0.10113343 0.14538157 0.8687501 1.6853693e-38
0.10113343 0.14538157 0.87125009 1.5564769e-38
0.10113343 0.14788157 0.8687501 4.5932097e-39
0.10113343 0.14788157 0.87125009 4.3162683e-39
0.10363343 0.14538157 0.8687501 2.2845708e-38
0.10363343 0.14788157 0.8687501 1.6116831e-38
0.10363343 0.14788157 0.87125009 1.5104832e-38
0.10113343 0.15288156 0.8662501 5.521172e-40
0.10363343 0.15288156 0.8637501 1.8404094e-40
0.10363343 0.15288156 0.8662501 9.8090893e-45
0.10113343 0.15038157 0.8687501 4.2038954e-45
0.10113343 0.15038157 0.87125009 0
0.10113343 0.15288156 0.8687501 1.098618e-42
0.10113343 0.15288156 0.87125009 6.4286249e-40
0.10363343 0.15038157 0.8687501 9.1971814e-39
0.10363343 0.15038157 0.87125009 0
0.10363343 0.15288156 0.8687501 0
0.10363343 0.15288156 0.87125009 0
0.096133426 0.14538157 0.87375009 0
0.096133426 0.14788157 0.87375009 0
0.098633431 0.14538157 0.87375009 3.5815844e-39
0.098633431 0.14788157 0.87375009 0
0.096133426 0.14538157 0.87875009 0
0.098633431 0.14538157 0.87875009 0
0.096133426 0.15038157 0.87375009 1.44614e-42
0.096133426 0.15288156 0.87375009 0
0.098633431 0.15038157 0.87375009 3.657389e-43
0.10113343 0.14538157 0.87375009 1.8420293e-38
0.10113343 0.14788157 0.87375009 9.7521405e-39
0.10363343 0.14788157 0.87375009 1.8879483e-38
0.10363343 0.15038157 0.87375009 7.906821e-39
0.10363343 0.15288156 0.87375009 3.2142424e-39
0.10613343 0.15288156 0.8637501 6.4284847e-40
0.10613343 0.15288156 0.8662501 7.5326631e-39
0.10863343 0.15288156 0.8637501 1.4457017e-38
0.10863343 0.15288156 0.8662501 1.7213182e-38
0.10613343 0.15038157 0.8687501 6.0711999e-39
0.10613343 0.15038157 0.87125009 1.7953596e-38
0.10613343 0.15288156 0.8687501 0
0.10613343 0.15288156 0.87125009 0
0.10863343 0.15038157 0.8687501 1.4274325e-38
0.10863343 0.15038157 0.87125009 2.0174961e-38
0.10863343 0.15288156 0.8687501 1.7947517e-38
0.10863343 0.15288156 0.87125009 1.7397216e-38
0.10613343 0.15038157 0.87375009 1.7310746e-38
0.10613343 0.15288156 0.87375009 6.0708467e-39
0.10863343 0.15038157 0.87375009 2.0174245e-38
0.10863343 0.15288156 0.87375009 1.4551268e-38
0.096133426 0.16038157 0.84375006 0
0.096133426 0.16038157 0.84625006 0
0.096133426 0.16288157 0.84375006 5.6051939e-45
0.096133426 0.16288157 0.84625006 0
0.098633431 0.16288157 0.84375006 0
0.098633431 0.16288157 0.84625006 0
0.098633431 0.16288157 0.84875011 0
0.098633431 0.16288157 0.85125011 0
0.10113343 0.16288157 0.84375006 0
0.10113343 0.16288157 0.84625006 0
0.10363343 0.16288157 0.84625006 0
0.10113343 0.16288157 0.84875011 0
0.10113343 0.16288157 0.85125011 0
0.10363343 0.16288157 0.85125011 0
0.098633431 0.15788157 0.8612501 0
0.096133426 0.16038157 0.85625011 0
0.096133426 0.16288157 0.85625011 0
0.098633431 0.16038157 0.85625011 0
0.098633431 0.16288157 0.85375011 0
0.098633431 0.16288157 0.85625011 0
0.096133426 0.16288157 0.8587501 0
0.098633431 0.16038157 0.8587501 0
0.098633431 0.16038157 0.8612501 0
0.098633431 0.16288157 0.8587501 0
0.098633431 0.16288157 0.8612501 0
0.10363343 0.15538158 0.85625011 6.4501908e-40
0.10363343 0.15788157 0.85375011 2.5125281e-42
0.10363343 0.15788157 0.85625011 0
0.10113343 0.15538158 0.8612501 7.0064923e-45
0.10113343 0.15788157 0.8587501 0
0.10113343 0.15788157 0.8612501 3.5873241e-43
0.10363343 0.15538158 0.8587501 2.7623797e-40
0.10363343 0.15538158 0.8612501 6.4286249e-40
0.10363343 0.15788157 0.8587501 0
0.10363343 0.15788157 0.8612501 7.0064923e-45
0.10113343 0.16038157 0.85375011 0
0.10113343 0.16038157 0.85625011 0
0.10113343 0.16288157 0.85375011 0
0.10113343 0.16288157 0.85625011 0
0.10363343 0.16038157 0.85375011 0
0.10363343 0.16038157 0.85625011 0
0.10363343 0.16288157 0.85375011 0
0.10363343 0.16288157 0.85625011 0
0.10113343 0.16038157 0.8587501 0
0.10113343 0.16038157 0.8612501 0
0.10113343 0.16288157 0.8587501 0
0.10363343 0.16038157 0.8587501 1.4012985e-45
0.10363343 0.16038157 0.8612501 0
0.096133426 0.16538157 0.84375006 0
0.096133426 0.16788156 0.84375006 4.3328387e-39
0.098633431 0.16538157 0.84375006 1.9618179e-44
0.098633431 0.16788156 0.84375006 5.1583268e-39
0.098633431 0.16538157 0.84875011 0
0.098633431 0.16538157 0.85125011 0
0.096133426 0.17038156 0.84375006 6.9153112e-39
0.098633431 0.17038156 0.84375006 1.142114e-38
0.10113343 0.16538157 0.84375006 0
0.10113343 0.16538157 0.84625006 0
0.10113343 0.16788156 0.84375006 4.4260404e-39
0.10113343 0.16788156 0.84625006 3.8732338e-39
0.10363343 0.16538157 0.84625006 0
0.10363343 0.16788156 0.84375006 0
0.10363343 0.16788156 0.84625006 0
0.10113343 0.16538157 0.84875011 0
0.10113343 0.16538157 0.85125011 0
0.10113343 0.16788156 0.84875011 0
0.10363343 0.16538157 0.84875011 0
0.10363343 0.16538157 0.85125011 0
0.10363343 0.16788156 0.84875011 0
0.10113343 0.17038156 0.84375006 9.9542371e-39
0.10113343 0.17038156 0.84625006 4.3393239e-39
0.10113343 0.17288157 0.84375006 0
0.10363343 0.17038156 0.84375006 0
0.10363343 0.17038156 0.84625006 0
0.10363343 0.17288157 0.84375006 0
0.10363343 0.17288157 0.84625006 0
0.10113343 0.17038156 0.84875011 4.7985084e-39
0.10363343 0.17038156 0.84875011 2.8025969e-45
0.10363343 0.17038156 0.85125011 7.0064923e-45
0.10363343 0.17288157 0.84875011 0
0.098633431 0.16538157 0.85375011 0
0.10613343 0.15788157 0.85125011 9.5082305e-41
0.10863343 0.15788157 0.85125011 3.6734899e-40
0.10613343 0.16288157 0.84625006 0
0.10863343 0.16288157 0.84625006 0
0.10613343 0.16038157 0.85125011 2.7658689e-40
0.10613343 0.16288157 0.84875011 0
0.10613343 0.16288157 0.85125011 1.4012985e-45
0.10863343 0.16038157 0.84875011 2.1664074e-42
0.10863343 0.16038157 0.85125011 4.5992157e-40
0.10863343 0.16288157 0.84875011 7.0064923e-45
0.10863343 0.16288157 0.85125011 7.258726e-43
0.11113343 0.15788157 0.84625006 0
0.11363343 0.15538158 0.84375006 1.5745124e-38
0.11363343 0.15788157 0.84375006 1.9053876e-38
0.11363343 0.15788157 0.84625006 7.5305107e-39
0.11113343 0.15788157 0.85125011 0
0.11363343 0.15538158 0.85125011 2.0986734e-38
0.11363343 0.15788157 0.84875011 0
0.11363343 0.15788157 0.85125011 6.7039912e-39
0.11113343 0.16038157 0.84375006 1.9618179e-44
0.11113343 0.16038157 0.84625006 1.9618179e-44
0.11113343 0.16288157 0.84375006 0
0.11113343 0.16288157 0.84625006 0
0.11363343 0.16038157 0.84375006 0
0.11363343 0.16038157 0.84625006 8.2651947e-40
0.11363343 0.16288157 0.84375006 0
0.11363343 0.16288157 0.84625006 1.8382121e-39
0.11113343 0.16038157 0.84875011 7.3650846e-40
0.11113343 0.16038157 0.85125011 1.821688e-44
0.11113343 0.16288157 0.84875011 0
0.11113343 0.16288157 0.85125011 6.4501908e-40
0.11363343 0.16038157 0.84875011 0
0.11363343 0.16038157 0.85125011 0
0.11363343 0.16288157 0.84875011 0
0.10613343 0.15538158 0.85375011 1.4012985e-45
0.10613343 0.15538158 0.85625011 4.2038954e-45
0.10613343 0.15788157 0.85375011 2.7623797e-40
0.10613343 0.15788157 0.85625011 2.7658689e-40
0.10863343 0.15538158 0.85375011 0
0.10863343 0.15538158 0.85625011 3.2142424e-39
0.10863343 0.15788157 0.85375011 1.5414283e-44
0.10863343 0.15788157 0.85625011 1.5414283e-44
0.10613343 0.15538158 0.8587501 1.6815582e-44
0.10613343 0.15538158 0.8612501 8.4077908e-45
0.10613343 0.15788157 0.8587501 9.1845305e-41
0.10613343 0.15788157 0.8612501 6.4285968e-40
0.10863343 0.15538158 0.8587501 2.5713939e-39
0.10863343 0.15538158 0.8612501 2.2040519e-39
0.10863343 0.15788157 0.8587501 1.8404094e-40
0.10863343 0.15788157 0.8612501 9.18397e-41
0.10613343 0.16038157 0.85375011 7.0064923e-45
0.10613343 0.16038157 0.85625011 3.657389e-43
0.10613343 0.16288157 0.85375011 4.2038954e-45
0.10863343 0.16038157 0.85375011 7.3469798e-40
0.10863343 0.16038157 0.85625011 1.821688e-44
0.10863343 0.16288157 0.85375011 3.657389e-43
0.10613343 0.16038157 0.8612501 1.8404094e-40
0.10863343 0.16038157 0.8587501 2.7658689e-40
0.10863343 0.16038157 0.8612501 3.657389e-43
0.11113343 0.15538158 0.85375011 7.5305107e-39
0.11113343 0.15538158 0.85625011 4.8683575e-39
0.11113343 0.15788157 0.85375011 2.2958874e-39
0.11113343 0.15788157 0.85625011 2.4795584e-39
0.11363343 0.15538158 0.85375011 2.0065501e-38
0.11363343 0.15788157 0.85375011 1.5466389e-38
0.11363343 0.15788157 0.85625011 4.0407618e-39
0.11113343 0.15538158 0.8587501 4.5013756e-39
0.11113343 0.15538158 0.8612501 4.2273069e-39
0.11113343 0.15788157 0.8587501 7.7141817e-39
0.11113343 0.15788157 0.8612501 0
0.11363343 0.15538158 0.8612501 2.3492769e-38
0.11363343 0.15788157 0.8587501 2.0432844e-38
0.11363343 0.15788157 0.8612501 7.5305107e-39
0.11113343 0.16038157 0.85375011 0
0.11363343 0.16038157 0.85375011 6.7039912e-39
0.11113343 0.16038157 0.8612501 0
0.10613343 0.16538157 0.84375006 0
0.10613343 0.16538157 0.84625006 0
0.10613343 0.16788156 0.84375006 0
0.10613343 0.16788156 0.84625006 0
0.10863343 0.16538157 0.84375006 1.5673257e-39
0.10863343 0.16538157 0.84625006 1.5680488e-39
0.10863343 0.16788156 0.84375006 1.0970558e-38
0.10863343 0.16788156 0.84625006 1.152193e-38
0.10613343 0.16538157 0.84875011 0
0.10613343 0.16538157 0.85125011 0
0.10613343 0.16788156 0.84875011 0
0.10863343 0.16538157 0.84875011 0
0.10863343 0.16538157 0.85125011 0
0.10863343 0.16788156 0.84875011 0
0.10863343 0.16788156 0.85125011 0
0.10613343 0.17038156 0.84625006 0
0.10613343 0.17288157 0.84375006 4.056235e-39
0.10613343 0.17288157 0.84625006 0
0.10863343 0.17038156 0.84625006 0
0.10863343 0.17288157 0.84375006 9.4892499e-39
0.10863343 0.17288157 0.84625006 0
0.10613343 0.17038156 0.84875011 0
0.10613343 0.17038156 0.85125011 0
0.10613343 0.17288157 0.84875011 0
0.10613343 0.17288157 0.85125011 0
0.10863343 0.17038156 0.84875011 1.8367099e-39
0.10863343 0.17038156 0.85125011 1.0101905e-39
0.10863343 0.17288157 0.84875011 0
0.10863343 0.17288157 0.85125011 0
0.11113343 0.16538157 0.84375006 1.7141105e-38
0.11113343 0.16538157 0.84625006 1.7141455e-38
0.11113343 0.16788156 0.84375006 1.9717996e-38
0.11113343 0.16788156 0.84625006 1.9441769e-38
0.11363343 0.16538157 0.84375006 1.6494386e-38
0.11363343 0.16538157 0.84625006 1.6955364e-38
0.11363343 0.16788156 0.84375006 1.2439185e-38
0.11363343 0.16788156 0.84625006 1.6312127e-38
0.11113343 0.16538157 0.84875011 0
0.11363343 0.16538157 0.84875011 0
0.11113343 0.17038156 0.84625006 1.6211588e-38
0.11113343 0.17288157 0.84375006 1.511612e-38
0.11113343 0.17288157 0.84625006 1.2266322e-38
0.11363343 0.17038156 0.84375006 1.2255535e-38
0.11363343 0.17038156 0.84625006 1.6219241e-38
0.11363343 0.17288157 0.84375006 1.4467822e-38
0.11363343 0.17288157 0.84625006 1.5023909e-38
0.11113343 0.17038156 0.84875011 1.676555e-38
0.11113343 0.17038156 0.85125011 1.6581873e-38
0.11113343 0.17288157 0.84875011 6.6236352e-39
0.11113343 0.17288157 0.85125011 6.8065887e-39
0.11363343 0.17038156 0.84875011 1.8517981e-38
0.11363343 0.17288157 0.84875011 1.5843173e-38
0.098633431 0.15538158 0.8662501 0
0.098633431 0.15788157 0.8637501 0
0.098633431 0.15788157 0.8662501 0
0.096133426 0.15538158 0.8687501 0
0.096133426 0.15538158 0.87125009 0
0.096133426 0.15788157 0.8687501 0
0.096133426 0.15788157 0.87125009 0
0.098633431 0.15538158 0.8687501 0
0.098633431 0.15538158 0.87125009 1.4012985e-45
0.098633431 0.15788157 0.8687501 0
0.096133426 0.16038157 0.8637501 0
0.098633431 0.16038157 0.8637501 0
0.098633431 0.16038157 0.8662501 0
0.098633431 0.16288157 0.8637501 0
0.098633431 0.16288157 0.8662501 0
0.096133426 0.16038157 0.8687501 0
0.096133426 0.16038157 0.87125009 0
0.096133426 0.16288157 0.8687501 2.8025969e-45
0.096133426 0.16288157 0.87125009 0
0.098633431 0.16038157 0.8687501 0
0.098633431 0.16038157 0.87125009 0
0.098633431 0.16288157 0.8687501 0
0.098633431 0.16288157 0.87125009 0
0.10113343 0.15538158 0.8637501 1.44614e-42
0.10113343 0.15538158 0.8662501 7.0064923e-45
0.10113343 0.15788157 0.8637501 1.4012985e-45
0.10113343 0.15788157 0.8662501 0
0.10363343 0.15538158 0.8637501 6.4285968e-40
0.10363343 0.15538158 0.8662501 1.8404094e-40
0.10363343 0.15788157 0.8637501 4.6097815e-40
0.10363343 0.15788157 0.8662501 2.1664074e-42
0.10113343 0.15538158 0.8687501 6.4286249e-40
0.10113343 0.15538158 0.87125009 1.8202867e-42
0.10363343 0.15538158 0.8687501 7.3469798e-40
0.10363343 0.15538158 0.87125009 2.7623797e-40
0.10113343 0.16038157 0.8637501 0
0.10113343 0.16038157 0.8662501 0
0.10113343 0.16288157 0.8637501 0
0.10113343 0.16288157 0.8662501 0
0.10113343 0.16288157 0.8687501 0
0.096133426 0.15788157 0.87375009 0
0.096133426 0.16038157 0.87375009 0
0.096133426 0.16288157 0.87375009 0
0.098633431 0.16538157 0.8637501 0
0.096133426 0.16538157 0.8687501 7.0064923e-45
0.096133426 0.16538157 0.87125009 5.6051939e-45
0.098633431 0.16538157 0.8687501 0
0.098633431 0.16538157 0.87125009 0
0.10113343 0.16538157 0.8687501 0
0.10113343 0.16538157 0.87125009 0
0.096133426 0.16538157 0.87375009 0
0.098633431 0.16538157 0.87375009 0
0.10613343 0.15538158 0.8637501 0
0.10613343 0.15538158 0.8662501 1.836766e-40
0.10613343 0.15788157 0.8637501 1.5414283e-44
0.10863343 0.15538158 0.8637501 8.0843935e-39
0.10863343 0.15538158 0.8662501 0
0.10863343 0.15788157 0.8637501 3.1224069e-39
0.10613343 0.15538158 0.8687501 0
0.10613343 0.15538158 0.87125009 0
0.10863343 0.15538158 0.8687501 4.8748399e-39
0.10863343 0.15538158 0.87125009 5.1521499e-39
0.11113343 0.15538158 0.8662501 1.4639963e-38
0.11363343 0.15788157 0.8637501 7.8978527e-39
0.11113343 0.15538158 0.8687501 1.4640317e-38
0.11613343 0.15788157 0.84375006 1.445297e-38
0.11613343 0.15788157 0.84625006 2.0615806e-38
0.11863343 0.15788157 0.84375006 2.3491002e-38
0.11613343 0.15788157 0.84875011 2.0342814e-38
0.11613343 0.15788157 0.85125011 1.9329385e-38
0.11613343 0.16038157 0.84375006 2.4795584e-39
0.11613343 0.16038157 0.84625006 1.8367099e-39
0.11613343 0.16288157 0.84375006 1.8367408e-39
0.11613343 0.16288157 0.84625006 9.1176059e-39
0.11863343 0.16038157 0.84375006 1.6302419e-38
0.11863343 0.16038157 0.84625006 1.5935797e-38
0.11863343 0.16288157 0.84375006 9.0215427e-39
0.11863343 0.16288157 0.84625006 8.2857699e-39
0.11613343 0.16038157 0.84875011 1.3438475e-38
0.11613343 0.16038157 0.85125011 2.2040519e-39
0.11613343 0.16288157 0.84875011 1.3775324e-39
0.11863343 0.16038157 0.84875011 2.072851e-38
0.11863343 0.16038157 0.85125011 2.3492797e-38
0.11863343 0.16288157 0.84875011 1.5752778e-38
0.12113343 0.16038157 0.84625006 2.3495448e-38
0.12113343 0.16288157 0.84875011 2.2485202e-38
0.12113343 0.16288157 0.85125011 2.1468907e-38
0.11613343 0.15788157 0.85375011 2.3490988e-38
0.11613343 0.15538158 0.8612501 2.3497648e-38
0.11613343 0.15788157 0.8587501 2.3491693e-38
0.11613343 0.15788157 0.8612501 2.3304573e-38
0.11863343 0.15538158 0.8612501 2.2577107e-38
0.11863343 0.15788157 0.8587501 2.2940524e-38
0.11863343 0.15788157 0.8612501 2.1930668e-38
0.11613343 0.16038157 0.85375011 1.9236113e-38
0.11613343 0.16038157 0.85625011 1.9421583e-38
0.11863343 0.16038157 0.85375011 2.3211541e-38
0.11863343 0.16038157 0.85625011 1.3531028e-38
0.11613343 0.16038157 0.8612501 2.3489187e-38
0.11863343 0.16038157 0.8587501 2.3489684e-38
0.11863343 0.16038157 0.8612501 2.2936151e-38
0.11863343 0.16288157 0.8587501 2.3120061e-38
0.11863343 0.16288157 0.8612501 1.3531028e-38
0.12113343 0.15788157 0.8587501 2.1471129e-38
0.12113343 0.15788157 0.8612501 2.0367656e-38
0.12363343 0.15788157 0.8587501 2.1194901e-38
0.12363343 0.15788157 0.8612501 2.0642448e-38
0.12113343 0.16038157 0.85375011 2.1743065e-38
0.12113343 0.16038157 0.85625011 2.1928164e-38
0.12113343 0.16288157 0.85375011 2.1377084e-38
0.12113343 0.16288157 0.85625011 2.1004008e-38
0.12363343 0.16288157 0.85375011 2.1380013e-38
0.12113343 0.16038157 0.8587501 2.2116499e-38
0.12113343 0.16038157 0.8612501 2.1931387e-38
0.12113343 0.16288157 0.8587501 2.1560104e-38
0.12113343 0.16288157 0.8612501 2.146934e-38
0.12363343 0.16038157 0.8587501 2.1287098e-38
0.12363343 0.16288157 0.8587501 2.3313247e-38
0.11613343 0.16538157 0.84625006 1.5664625e-38
0.11613343 0.16788156 0.84375006 8.5731818e-39
0.11613343 0.16788156 0.84625006 1.2347715e-38
0.11863343 0.16538157 0.84625006 1.3914328e-38
0.11863343 0.16788156 0.84375006 1.4559347e-38
0.11863343 0.16788156 0.84625006 1.4557179e-38
0.11613343 0.16538157 0.84875011 1.3273301e-38
0.11863343 0.16538157 0.84875011 1.2621017e-38
0.11613343 0.17038156 0.84375006 1.5391275e-38
0.11613343 0.17038156 0.84625006 1.5481676e-38
0.11613343 0.17288157 0.84375006 1.7321953e-38
0.11613343 0.17288157 0.84625006 1.4838439e-38
0.11863343 0.17038156 0.84375006 1.6772396e-38
0.11863343 0.17288157 0.84375006 1.7968068e-38
0.12113343 0.16538157 0.84625006 1.88e-38
0.12113343 0.16788156 0.84375006 1.9353521e-38
0.12113343 0.16788156 0.84625006 1.9259157e-38
0.12113343 0.16538157 0.84875011 1.8340078e-38
0.12113343 0.16538157 0.85125011 1.9904472e-38
0.12113343 0.17038156 0.84375006 1.8708505e-38
0.12113343 0.17288157 0.84375006 1.8798188e-38
0.096133426 0.14288157 0.88375008 0
0.096133426 0.18288156 0.84375006 0
0.098633431 0.18038157 0.84375006 5.2512301e-39
0.098633431 0.18288156 0.84375006 1.1519768e-38
0.10113343 0.17538157 0.84375006 0
0.10113343 0.17788157 0.84375006 1.2528138e-38
0.10363343 0.17538157 0.84375006 1.1240343e-38
0.10363343 0.17538157 0.84625006 0
0.10363343 0.17788157 0.84375006 8.3883772e-39
0.10363343 0.17788157 0.84625006 8.7571583e-39
0.10113343 0.18038157 0.84375006 3.7652553e-39
0.10113343 0.18038157 0.84625006 3.9489263e-39
0.10113343 0.18288156 0.84375006 5.8036401e-39
0.10113343 0.18288156 0.84625006 2.1143856e-39
0.10363343 0.18038157 0.84375006 2.1158037e-39
0.10363343 0.18038157 0.84625006 3.5815844e-39
0.10363343 0.18288156 0.84375006 2.7630018e-39
0.10363343 0.18288156 0.84625006 2.9441463e-39
0.10113343 0.18288156 0.84875011 1.6566445e-39
0.10363343 0.18038157 0.85125011 3.5815844e-39
0.10363343 0.18288156 0.84875011 2.3945682e-39
0.10363343 0.18288156 0.85125011 1.5612034e-39
0.096133426 0.18538156 0.84375006 9.4046801e-39
0.096133426 0.18538156 0.84625006 1.005005e-38
0.096133426 0.18788157 0.84375006 0
0.096133426 0.18788157 0.84625006 9.6823362e-39
0.098633431 0.18538156 0.84375006 1.0600365e-38
0.098633431 0.18538156 0.84625006 1.0232286e-38
0.098633431 0.18788157 0.84375006 1.1340448e-38
0.098633431 0.18788157 0.84625006 1.0972374e-38
0.098633431 0.18538156 0.84875011 8.9440523e-39
0.098633431 0.18538156 0.85125011 1.1333601e-38
0.098633431 0.18788157 0.84875011 1.0696866e-38
0.098633431 0.18788157 0.85125011 1.0140443e-38
0.096133426 0.19038157 0.84375006 0
0.096133426 0.19038157 0.84625006 1.0602497e-38
0.096133426 0.19288157 0.84375006 1.1517286e-38
0.096133426 0.19288157 0.84625006 1.0138642e-38
0.098633431 0.19038157 0.84625006 1.3181105e-38
0.096133426 0.19288157 0.84875011 1.1060592e-38
0.098633431 0.19038157 0.84875011 1.4098353e-38
0.098633431 0.19038157 0.85125011 1.3181461e-38
0.098633431 0.19288157 0.84875011 6.8113013e-39
0.10113343 0.18538156 0.84375006 4.2388662e-39
0.10113343 0.18538156 0.84625006 3.9633611e-39
0.10113343 0.18788157 0.84625006 8.6682193e-39
0.10113343 0.18538156 0.84875011 1.2856969e-39
0.10113343 0.18538156 0.85125011 2.8469004e-39
0.10113343 0.18788157 0.84875011 8.7589702e-39
0.10113343 0.18788157 0.85125011 8.2936606e-39
0.10363343 0.18538156 0.84875011 3.9575359e-39
0.10363343 0.18538156 0.85125011 4.3209318e-39
0.10363343 0.18788157 0.84875011 1.0599981e-38
0.10363343 0.18788157 0.85125011 9.9531806e-39
0.10113343 0.19038157 0.84875011 7.1023285e-39
0.10113343 0.19038157 0.85125011 9.4911655e-39
0.10113343 0.19288157 0.84875011 6.7226873e-39
0.10113343 0.19288157 0.85125011 1.2715419e-38
0.10363343 0.19038157 0.84875011 2.6769383e-39
0.10363343 0.19038157 0.85125011 6.9096878e-39
0.10363343 0.19288157 0.84875011 5.7081753e-39
0.10363343 0.19288157 0.85125011 2.5847427e-39
0.10113343 0.18538156 0.85375011 4.882072e-39
0.10113343 0.18788157 0.85375011 3.8718661e-39
0.10363343 0.18538156 0.85375011 3.8653417e-39
0.10363343 0.18788157 0.85375011 1.0132477e-38
0.10113343 0.19038157 0.85375011 8.1157546e-39
0.10363343 0.19038157 0.85375011 9.8609849e-39
0.10613343 0.17538157 0.84375006 8.6527322e-39
0.10613343 0.17538157 0.84625006 4.1473558e-39
0.10613343 0.17788157 0.84375006 2.3034642e-39
0.10613343 0.17788157 0.84625006 2.212349e-39
0.10863343 0.17538157 0.84375006 1.5933967e-38
0.10863343 0.17538157 0.84625006 1.2255478e-38
0.10863343 0.17788157 0.84375006 1.5651495e-39
0.10863343 0.17788157 0.84625006 1.2351653e-38
0.10613343 0.17538157 0.84875011 9.2069849e-39
0.10613343 0.17788157 0.84875011 1.0135071e-38
0.10863343 0.17538157 0.84875011 1.2164005e-38
0.10863343 0.17538157 0.85125011 1.336003e-38
0.10863343 0.17788157 0.84875011 1.5846397e-38
0.10863343 0.17788157 0.85125011 1.5568734e-38
0.10613343 0.18038157 0.84375006 1.3778912e-39
0.10613343 0.18038157 0.84625006 1.8367099e-40
0.10613343 0.18288156 0.84625006 1.6544739e-39
0.10863343 0.18038157 0.84375006 5.0567144e-39
0.10863343 0.18038157 0.84625006 1.5104596e-38
0.10863343 0.18288156 0.84625006 1.5290428e-38
0.10613343 0.18038157 0.84875011 2.7550649e-40
0.10613343 0.18038157 0.85125011 7.3468397e-40
0.10613343 0.18288156 0.84875011 9.1835496e-41
0.10613343 0.18288156 0.85125011 2.6722089e-39
0.10863343 0.18038157 0.84875011 4.0411206e-39
0.10863343 0.18038157 0.85125011 4.3177327e-39
0.10863343 0.18288156 0.84875011 1.6209495e-38
0.10863343 0.18288156 0.85125011 1.5014214e-38
0.11113343 0.17538157 0.84375006 1.4005119e-38
0.11113343 0.17538157 0.84625006 1.3728539e-38
0.11113343 0.17788157 0.84375006 9.1835496e-41
0.11113343 0.17788157 0.84625006 1.4012985e-45
0.11363343 0.17538157 0.84375006 1.7036722e-38
0.11363343 0.17538157 0.84625006 1.5667082e-38
0.11363343 0.17788157 0.84375006 8.2857181e-39
0.11363343 0.17788157 0.84625006 8.2651947e-40
0.11113343 0.17538157 0.84875011 1.732381e-38
0.11113343 0.17538157 0.85125011 1.4469682e-38
0.11113343 0.17788157 0.84875011 1.4281321e-38
0.11113343 0.17788157 0.85125011 1.3912537e-38
0.11363343 0.17538157 0.84875011 1.4373911e-38
0.11363343 0.17788157 0.84875011 2.7550649e-40
0.11113343 0.18038157 0.84375006 0
0.11113343 0.18038157 0.84625006 0
0.11113343 0.18288156 0.84625006 0
0.11363343 0.18038157 0.84375006 0
0.11363343 0.18038157 0.84625006 0
0.11363343 0.18288156 0.84375006 1.3461641e-38
0.11363343 0.18288156 0.84625006 0
0.11113343 0.18038157 0.84875011 1.2167655e-38
0.11113343 0.18038157 0.85125011 1.3181807e-38
0.11113343 0.18288156 0.84875011 1.1891792e-38
0.11113343 0.18288156 0.85125011 1.2623631e-38
0.11363343 0.18038157 0.84875011 0
0.11363343 0.18288156 0.84875011 0
0.11363343 0.18288156 0.85125011 0
0.10613343 0.18538156 0.84875011 1.6577025e-39
0.10613343 0.18538156 0.85125011 1.9324915e-39
0.10613343 0.18788157 0.85125011 1.3173513e-38
0.10863343 0.18538156 0.84875011 1.4926649e-38
0.10863343 0.18538156 0.85125011 1.5197864e-38
0.10863343 0.18788157 0.85125011 1.2990185e-38
0.10613343 0.19038157 0.85125011 1.1020554e-39
0.10613343 0.19288157 0.85125011 0
0.10863343 0.19038157 0.85125011 0
0.10863343 0.19288157 0.85125011 0
0.11113343 0.18538156 0.84875011 1.1251454e-38
0.11113343 0.18538156 0.85125011 1.0974147e-38
0.11113343 0.18788157 0.85125011 1.3827121e-38
0.11363343 0.18538156 0.84875011 8.2651947e-40
0.11363343 0.18538156 0.85125011 0
0.11363343 0.18788157 0.84875011 1.1243509e-38
0.11363343 0.18788157 0.85125011 1.1242437e-38
0.11363343 0.19038157 0.85125011 1.022782e-38
0.10613343 0.18538156 0.85375011 2.9495189e-39
0.10613343 0.18788157 0.85375011 1.2163301e-38
0.10863343 0.18788157 0.85375011 1.216332e-38
0.10613343 0.19038157 0.85375011 1.3357544e-38
0.10863343 0.19038157 0.85375011 8.2651947e-40
0.11113343 0.18788157 0.85375011 1.2719009e-38
0.11363343 0.18538156 0.85375011 8.2651947e-40
