# .PCD v0.7 - Point Cloud Data file format
VERSION 0.7
FIELDS x y z rgb
SIZE 4 4 4 4
TYPE F F F F
COUNT 1 1 1 1
WIDTH 1038
HEIGHT 1
VIEWPOINT 0 0 0 1 0 0 0
POINTS 1038
DATA ascii
-0.2573449 0.090180472 1.0107501 2.5825342e-39
-0.2573449 0.090180472 1.0132501 1.188161e-41
-0.25484487 0.087680466 1.0132501 2.9516895e-39
-0.25484487 0.090180472 1.0107501 2.6733201e-39
-0.25484487 0.090180472 1.0132501 3.0410167e-39
-0.25234488 0.087680466 1.0132501 2.8594939e-39
-0.25234488 0.090180472 1.0107501 2.3967332e-39
-0.25234488 0.090180472 1.0132501 3.0410167e-39
-0.2573449 0.095180467 1.0057501 7.0072588e-39
-0.2598449 0.092680469 1.0107501 9.3910455e-39
-0.2598449 0.092680469 1.0132501 8.0085174e-39
-0.2598449 0.095180467 1.0107501 9.6700692e-39
-0.2598449 0.095180467 1.0132501 1.0132129e-38
-0.2573449 0.092680469 1.0107501 4.2377998e-39
-0.2573449 0.092680469 1.0132501 3.0409914e-39
-0.2573449 0.095180467 1.0107501 6.9093249e-39
-0.2598449 0.097680464 1.0107501 1.2440279e-38
-0.2598449 0.097680464 1.0132501 1.2900183e-38
-0.2598449 0.10018047 1.0132501 1.1795629e-38
-0.2573449 0.097680464 1.0107501 9.4010634e-39
-0.2573449 0.10018047 1.0107501 1.0227601e-38
-0.25484487 0.092680469 1.0057501 1.4715722e-39
-0.25484487 0.095180467 1.0057501 2.5223372e-44
-0.25234488 0.092680469 1.0057501 1.5669768e-39
-0.25234488 0.095180467 1.0057501 1.5669768e-39
-0.25484487 0.092680469 1.0107501 2.0254368e-39
-0.25484487 0.095180467 1.0107501 1.836766e-40
-0.25234488 0.092680469 1.0107501 2.0279535e-39
-0.25234488 0.092680469 1.0132501 1.3825841e-39
-0.25234488 0.095180467 1.0107501 2.0254368e-39
-0.25484487 0.097680464 1.0107501 4.5918589e-40
-0.25484487 0.10018047 1.0107501 0
-0.25234488 0.097680464 1.0107501 2.1176324e-39
-0.25234488 0.097680464 1.0132501 1.2907388e-39
-0.25234488 0.10018047 1.0107501 1.1063476e-39
-0.25234488 0.10018047 1.0132501 1.7484898e-39
-0.26984489 0.082680471 1.0182501 2.6736733e-39
-0.26984489 0.085180469 1.0182501 3.8783471e-39
-0.26984489 0.082680471 1.02075 2.8025969e-45
-0.26984489 0.085180469 1.02075 1.9618179e-44
-0.26734489 0.082680471 1.02075 1.4776664e-39
-0.26734489 0.090180472 1.0182501 8.3811507e-39
-0.26984489 0.087680466 1.02075 0
-0.26984489 0.090180472 1.02075 2.8025969e-44
-0.26734489 0.087680466 1.02075 7.2813444e-39
-0.26734489 0.090180472 1.02075 9.2163134e-39
-0.26484489 0.090180472 1.0182501 1.0225063e-38
-0.2623449 0.090180472 1.0182501 4.4240226e-39
-0.26484489 0.087680466 1.02075 6.7291445e-39
-0.26484489 0.090180472 1.02075 7.0976958e-39
-0.2623449 0.087680466 1.02075 3.1331716e-39
-0.2623449 0.090180472 1.02075 4.6991703e-39
-0.26984489 0.082680471 1.02575 1.1027728e-39
-0.26984489 0.085180469 1.02575 0
-0.26984489 0.085180469 1.0282501 0
-0.26734489 0.082680471 1.02575 7.3470919e-40
-0.26734489 0.082680471 1.0282501 1.0109247e-39
-0.26734489 0.085180469 1.02575 0
-0.26734489 0.085180469 1.0282501 0
-0.26984489 0.087680466 1.02575 0
-0.26984489 0.087680466 1.0282501 0
-0.26984489 0.090180472 1.02575 3.4098482e-39
-0.26984489 0.090180472 1.0282501 2.8584779e-39
-0.26734489 0.087680466 1.02575 0
-0.26734489 0.087680466 1.0282501 0
-0.26734489 0.090180472 1.02575 6.7288909e-39
-0.26734489 0.090180472 1.0282501 6.7306944e-39
-0.26484489 0.082680471 1.02575 9.1835496e-41
-0.26484489 0.082680471 1.0282501 1.8367099e-40
-0.26484489 0.085180469 1.02575 0
-0.26484489 0.085180469 1.0282501 0
-0.2623449 0.082680471 1.02575 2.8025969e-44
-0.2623449 0.082680471 1.0282501 7.0064923e-45
-0.2623449 0.085180469 1.02575 2.7550649e-40
-0.2623449 0.085180469 1.0282501 1.2878704e-39
-0.26484489 0.082680471 1.03075 3.6737141e-40
-0.26484489 0.085180469 1.03075 9.1835496e-41
-0.2623449 0.082680471 1.03075 1.5414283e-44
-0.2623449 0.082680471 1.0332501 3.5032462e-44
-0.2623449 0.085180469 1.03075 1.2871641e-39
-0.2623449 0.085180469 1.0332501 8.4077908e-45
-0.26484489 0.087680466 1.02575 0
-0.26484489 0.087680466 1.0282501 3.6770072e-40
-0.26484489 0.090180472 1.02575 6.2703216e-39
-0.26484489 0.090180472 1.0282501 3.5019458e-39
-0.2623449 0.087680466 1.02575 1.6562941e-39
-0.2623449 0.087680466 1.0282501 1.1031204e-39
-0.2623449 0.090180472 1.02575 2.9512915e-39
-0.2623449 0.090180472 1.0282501 2.7655158e-39
-0.2623449 0.087680466 1.03075 2.3906222e-39
-0.26984489 0.092680469 1.0182501 2.6624671e-44
-0.26984489 0.095180467 1.0182501 5.4374122e-39
-0.26734489 0.092680469 1.0182501 5.0534634e-39
-0.26734489 0.095180467 1.0182501 7.368365e-39
-0.26984489 0.092680469 1.02075 8.5479206e-44
-0.26984489 0.095180467 1.02075 7.5249728e-43
-0.26734489 0.092680469 1.02075 1.1697342e-38
-0.26734489 0.095180467 1.02075 5.4193705e-39
-0.26984489 0.10018047 1.0182501 3.0345651e-39
-0.26734489 0.097680464 1.0157501 4.1412672e-39
-0.26734489 0.097680464 1.0182501 8.7520184e-39
-0.26734489 0.10018047 1.0157501 3.8667864e-39
-0.26734489 0.10018047 1.0182501 3.2218122e-39
-0.26984489 0.097680464 1.02075 5.9938146e-39
-0.26984489 0.10018047 1.02075 8.3158096e-40
-0.26734489 0.097680464 1.02075 8.2914354e-39
-0.26734489 0.10018047 1.02075 2.1204673e-39
-0.26484489 0.092680469 1.0157501 1.4454518e-38
-0.26484489 0.092680469 1.0182501 1.3901342e-38
-0.26484489 0.095180467 1.0157501 1.1238432e-38
-0.26484489 0.095180467 1.0182501 1.0503016e-38
-0.2623449 0.092680469 1.0157501 1.5199739e-38
-0.2623449 0.092680469 1.0182501 1.5289413e-38
-0.2623449 0.095180467 1.0157501 1.2436661e-38
-0.2623449 0.095180467 1.0182501 1.2161541e-38
-0.26484489 0.092680469 1.02075 1.1235364e-38
-0.26484489 0.095180467 1.02075 1.5291922e-38
-0.26484489 0.097680464 1.0157501 1.0410563e-38
-0.26484489 0.097680464 1.0182501 1.0688127e-38
-0.26484489 0.10018047 1.0157501 7.834053e-39
-0.26484489 0.10018047 1.0182501 7.2834001e-39
-0.2623449 0.097680464 1.0157501 1.2438128e-38
-0.2623449 0.097680464 1.0182501 1.0967687e-38
-0.2623449 0.10018047 1.0157501 1.1423251e-38
-0.26984489 0.092680469 1.02575 5.5159382e-39
-0.26984489 0.095180467 1.02575 1.1112297e-42
-0.26734489 0.092680469 1.02575 1.2154024e-38
-0.26734489 0.095180467 1.02575 1.0964035e-38
-0.26984489 0.097680464 1.02575 7.0969111e-39
-0.26984489 0.10018047 1.02575 2.0232844e-39
-0.2598449 0.087680466 1.0182501 2.5832923e-39
-0.2598449 0.090180472 1.0157501 1.0156611e-40
-0.2598449 0.090180472 1.0182501 1.1877406e-41
-0.2573449 0.087680466 1.0157501 2.7683926e-39
-0.2573449 0.087680466 1.0182501 3.2264939e-39
-0.2573449 0.090180472 1.0157501 1.0238811e-39
-0.2598449 0.087680466 1.02075 2.5836426e-39
-0.2573449 0.087680466 1.02075 3.4115886e-39
-0.25234488 0.085180469 1.0157501 3.8679005e-39
-0.25484487 0.085180469 1.02075 3.1353493e-39
-0.25234488 0.085180469 1.02075 3.6870867e-39
-0.25484487 0.087680466 1.0157501 3.3172448e-39
-0.25484487 0.087680466 1.0182501 3.1350017e-39
-0.25234488 0.087680466 1.0157501 3.3172448e-39
-0.25234488 0.087680466 1.0182501 3.5945408e-39
-0.25484487 0.087680466 1.02075 2.6761914e-39
-0.25234488 0.087680466 1.02075 3.6863861e-39
-0.2598449 0.082680471 1.0282501 0
-0.2598449 0.085180469 1.02575 1.472263e-39
-0.2598449 0.085180469 1.0282501 2.8605322e-39
-0.2573449 0.082680471 1.0282501 0
-0.2573449 0.085180469 1.02575 3.4137018e-39
-0.2573449 0.085180469 1.0282501 3.1360555e-39
-0.2598449 0.082680471 1.03075 7.0064923e-45
-0.2598449 0.082680471 1.0332501 1.821688e-44
-0.2598449 0.085180469 1.03075 0
-0.2573449 0.082680471 1.03075 4.2038954e-45
-0.2573449 0.082680471 1.0332501 0
-0.2573449 0.085180469 1.03075 1.4012985e-45
-0.2598449 0.087680466 1.02575 2.3938592e-39
-0.2598449 0.087680466 1.0282501 2.7622956e-39
-0.2573449 0.087680466 1.02575 3.4112383e-39
-0.25484487 0.082680471 1.0282501 1.2856997e-39
-0.25484487 0.085180469 1.02575 3.5026955e-39
-0.25484487 0.085180469 1.0282501 3.3183e-39
-0.25234488 0.082680471 1.0282501 1.6559466e-39
-0.25234488 0.085180469 1.02575 3.5948883e-39
-0.25484487 0.082680471 1.03075 1.8367099e-40
-0.25484487 0.085180469 1.03075 8.2651947e-40
-0.25234488 0.082680471 1.03075 1.1031204e-39
-0.25234488 0.085180469 1.03075 1.6559466e-39
-0.2598449 0.092680469 1.0157501 7.9152498e-39
-0.24984489 0.077680469 1.0332501 1.821688e-44
-0.24984489 0.080180466 1.03075 0
-0.24984489 0.080180466 1.0332501 0
-0.24734488 0.077680469 1.0332501 1.5414283e-44
-0.24734488 0.080180466 1.03075 0
-0.24734488 0.080180466 1.0332501 9.1846707e-41
-0.24484488 0.080180466 1.0282501 3.6734198e-40
-0.24234489 0.080180466 1.0282501 1.1038294e-39
-0.24484488 0.077680469 1.0332501 4.591971e-40
-0.24484488 0.080180466 1.03075 7.3468397e-40
-0.24484488 0.080180466 1.0332501 1.5622796e-39
-0.24234489 0.077680469 1.0332501 1.2907388e-39
-0.24234489 0.080180466 1.03075 2.6708048e-39
-0.24234489 0.080180466 1.0332501 2.7633522e-39
-0.23984489 0.080180466 1.0332501 3.0399377e-39
-0.23734489 0.080180466 1.03075 2.8580645e-39
-0.23734489 0.080180466 1.0332501 2.8580645e-39
-0.23484489 0.080180466 1.0282501 3.1346514e-39
-0.2323449 0.080180466 1.0282501 3.6867364e-39
-0.23484489 0.080180466 1.03075 3.6867364e-39
-0.23484489 0.080180466 1.0332501 3.3172448e-39
-0.2323449 0.080180466 1.0332501 3.4090873e-39
-0.24984489 0.087680466 1.0132501 2.7669381e-39
-0.24984489 0.090180472 1.0107501 2.3020139e-39
-0.24984489 0.090180472 1.0132501 2.8562667e-39
-0.24734488 0.087680466 1.0132501 3.0410167e-39
-0.24734488 0.090180472 1.0107501 2.0250809e-39
-0.24734488 0.090180472 1.0132501 2.2123448e-39
-0.24484488 0.087680466 1.0132501 2.8562667e-39
-0.24484488 0.090180472 1.0132501 2.2123448e-39
-0.24234489 0.090180472 1.0132501 1.8439126e-39
-0.24984489 0.092680469 1.0107501 1.8439126e-39
-0.24984489 0.092680469 1.0132501 1.1981929e-39
-0.24984489 0.095180467 1.0107501 1.3829344e-39
-0.24984489 0.095180467 1.0132501 1.9332398e-39
-0.24734488 0.092680469 1.0132501 1.5669768e-39
-0.24734488 0.095180467 1.0132501 1.8410441e-39
-0.24984489 0.097680464 1.0107501 1.751717e-39
-0.24984489 0.097680464 1.0132501 1.2907388e-39
-0.24984489 0.10018047 1.0107501 1.2878704e-39
-0.24984489 0.10018047 1.0132501 1.1031204e-39
-0.24734488 0.097680464 1.0132501 1.7491988e-39
-0.24734488 0.10018047 1.0132501 5.5282345e-40
-0.24484488 0.092680469 1.0132501 1.5669768e-39
-0.24484488 0.095180467 1.0132501 1.8410441e-39
-0.24234489 0.092680469 1.0132501 1.4747798e-39
-0.24484488 0.097680464 1.0132501 1.1056385e-39
-0.23984489 0.090180472 1.0132501 2.1176324e-39
-0.23734489 0.090180472 1.0132501 2.0254368e-39
-0.23984489 0.092680469 1.0132501 1.2903885e-39
-0.23734489 0.092680469 1.0132501 2.1179828e-39
-0.23734489 0.095180467 1.0132501 9.2160738e-40
-0.23734489 0.097680464 1.0132501 9.1845305e-41
-0.23484489 0.095180467 1.0132501 6.4501908e-40
-0.2323449 0.095180467 1.0132501 2.7589044e-40
-0.23484489 0.097680464 1.0132501 8.4077908e-45
-0.2323449 0.097680464 1.0132501 5.6051939e-45
-0.24984489 0.085180469 1.0157501 3.6867364e-39
-0.24734488 0.085180469 1.0157501 2.9484679e-39
-0.24984489 0.085180469 1.02075 3.6856826e-39
-0.24734488 0.085180469 1.02075 3.4097964e-39
-0.24984489 0.087680466 1.0157501 3.408737e-39
-0.24984489 0.087680466 1.0182501 3.4097964e-39
-0.24734488 0.087680466 1.0157501 2.6736733e-39
-0.24734488 0.087680466 1.0182501 2.8580701e-39
-0.24734488 0.090180472 1.0157501 2.7633522e-39
-0.24734488 0.087680466 1.02075 2.9484623e-39
-0.24484488 0.085180469 1.02075 3.4097964e-39
-0.24234489 0.082680471 1.02075 3.0424558e-39
-0.24234489 0.085180469 1.02075 3.3172448e-39
-0.24484488 0.087680466 1.0157501 2.8562667e-39
-0.24484488 0.087680466 1.0182501 2.6718754e-39
-0.24484488 0.090180472 1.0157501 2.4867639e-39
-0.24484488 0.090180472 1.0182501 2.5786092e-39
-0.24234489 0.087680466 1.0157501 2.5814776e-39
-0.24234489 0.087680466 1.0182501 2.3938592e-39
-0.24234489 0.090180472 1.0157501 1.7510079e-39
-0.24984489 0.082680471 1.02575 3.1314242e-39
-0.24984489 0.082680471 1.0282501 2.6701e-39
-0.24984489 0.085180469 1.02575 3.6867686e-39
-0.24734488 0.082680471 1.02575 3.226847e-39
-0.24734488 0.082680471 1.0282501 3.8711178e-39
-0.24734488 0.085180469 1.02575 2.8580701e-39
-0.24984489 0.082680471 1.03075 1.3800674e-39
-0.24734488 0.082680471 1.03075 3.3183e-39
-0.24484488 0.082680471 1.02575 3.1346514e-39
-0.24484488 0.082680471 1.0282501 3.9633135e-39
-0.24234489 0.082680471 1.02575 2.8594939e-39
-0.24234489 0.082680471 1.0282501 3.041367e-39
-0.24484488 0.082680471 1.03075 3.4101411e-39
-0.24234489 0.082680471 1.03075 3.5034395e-39
-0.24734488 0.092680469 1.0157501 1.3825841e-39
-0.24734488 0.095180467 1.0157501 1.6562941e-39
-0.24734488 0.097680464 1.0157501 1.2882207e-39
-0.24734488 0.10018047 1.0157501 4.6026909e-40
-0.24734488 0.10018047 1.0182501 7.3504691e-40
-0.24734488 0.10018047 1.02075 6.4285968e-40
-0.24484488 0.092680469 1.0157501 1.5673257e-39
-0.24484488 0.092680469 1.0182501 1.5673257e-39
-0.24484488 0.095180467 1.0157501 1.7491988e-39
-0.24484488 0.095180467 1.0182501 1.2907388e-39
-0.24234489 0.092680469 1.0157501 1.2907388e-39
-0.24234489 0.092680469 1.0182501 1.1985432e-39
-0.24234489 0.095180467 1.0157501 1.6566445e-39
-0.24234489 0.095180467 1.0182501 1.1985432e-39
-0.24484488 0.097680464 1.0157501 9.219563e-40
-0.24484488 0.097680464 1.0182501 1.1031204e-39
-0.24484488 0.10018047 1.0182501 8.4077908e-45
-0.24234489 0.097680464 1.0157501 6.4536941e-40
-0.24234489 0.097680464 1.0182501 5.5282345e-40
-0.24234489 0.10018047 1.0182501 8.4077908e-45
-0.24484488 0.10018047 1.02075 4.2038954e-45
-0.24234489 0.10018047 1.02075 5.6051939e-45
-0.23984489 0.085180469 1.0182501 3.3168917e-39
-0.23734489 0.085180469 1.0182501 2.9484623e-39
-0.23984489 0.082680471 1.02075 3.0410167e-39
-0.23984489 0.085180469 1.02075 2.947033e-39
-0.23734489 0.082680471 1.02075 2.7658689e-39
-0.23734489 0.085180469 1.02075 2.947033e-39
-0.23984489 0.087680466 1.0157501 2.3945682e-39
-0.23984489 0.087680466 1.0182501 2.3016636e-39
-0.23984489 0.090180472 1.0157501 1.5669768e-39
-0.23984489 0.090180472 1.0182501 2.3020139e-39
-0.23734489 0.087680466 1.0157501 2.1176324e-39
-0.23734489 0.087680466 1.0182501 1.3818779e-39
-0.23734489 0.090180472 1.0157501 1.2903885e-39
-0.23734489 0.090180472 1.0182501 1.2903885e-39
-0.23734489 0.087680466 1.02075 2.3016636e-39
-0.23484489 0.082680471 1.02075 2.7630018e-39
-0.23484489 0.085180469 1.02075 2.3938592e-39
-0.2323449 0.082680471 1.02075 2.7633522e-39
-0.2323449 0.085180469 1.02075 1.9357579e-39
-0.23484489 0.087680466 1.0157501 2.1176324e-39
-0.23484489 0.087680466 1.0182501 1.3825841e-39
-0.23484489 0.090180472 1.0157501 1.7484898e-39
-0.23484489 0.090180472 1.0182501 1.1056385e-39
-0.2323449 0.087680466 1.0182501 1.8410441e-39
-0.2323449 0.090180472 1.0182501 1.3829344e-39
-0.23484489 0.087680466 1.02075 1.3825841e-39
-0.23484489 0.090180472 1.02075 1.1981929e-39
-0.2323449 0.087680466 1.02075 1.3829344e-39
-0.2323449 0.090180472 1.02075 1.6566445e-39
-0.23984489 0.082680471 1.02575 3.408737e-39
-0.23984489 0.082680471 1.0282501 3.4097964e-39
-0.23734489 0.082680471 1.02575 2.947033e-39
-0.23734489 0.082680471 1.0282501 2.9484623e-39
-0.23984489 0.082680471 1.03075 2.8580701e-39
-0.23484489 0.082680471 1.02575 2.947033e-39
-0.23484489 0.082680471 1.0282501 3.0410167e-39
-0.2323449 0.082680471 1.02575 2.6708048e-39
-0.2323449 0.082680471 1.0282501 2.9484623e-39
-0.2323449 0.085180469 1.02575 2.3016636e-39
-0.23484489 0.082680471 1.03075 3.3168917e-39
-0.23484489 0.082680471 1.0332501 3.3172448e-39
-0.2323449 0.082680471 1.03075 2.764071e-39
-0.2323449 0.082680471 1.0332501 2.7630018e-39
-0.23984489 0.092680469 1.0157501 1.8413945e-39
-0.23984489 0.092680469 1.0182501 1.1063476e-39
-0.23984489 0.095180467 1.0157501 1.4726133e-39
-0.23984489 0.095180467 1.0182501 9.219563e-40
-0.23734489 0.092680469 1.0157501 1.3825841e-39
-0.23734489 0.092680469 1.0182501 1.3800674e-39
-0.23734489 0.095180467 1.0157501 1.3804163e-39
-0.23734489 0.095180467 1.0182501 5.5317378e-40
-0.23734489 0.095180467 1.02075 6.4536941e-40
-0.23984489 0.097680464 1.0157501 1.8367281e-39
-0.23984489 0.097680464 1.0182501 4.6026909e-40
-0.23984489 0.10018047 1.0182501 5.6051939e-45
-0.23734489 0.097680464 1.0157501 8.2689361e-40
-0.23734489 0.097680464 1.0182501 9.1845305e-41
-0.23734489 0.10018047 1.0182501 4.2038954e-45
-0.23984489 0.097680464 1.02075 4.6026909e-40
-0.23984489 0.10018047 1.02075 5.6051939e-45
-0.23734489 0.097680464 1.02075 2.7623797e-40
-0.23734489 0.10018047 1.02075 1.4012985e-45
-0.23484489 0.092680469 1.0157501 1.3800674e-39
-0.23484489 0.092680469 1.0182501 1.2878704e-39
-0.23484489 0.095180467 1.0157501 1.1038294e-39
-0.23484489 0.095180467 1.0182501 4.6026909e-40
-0.2323449 0.092680469 1.0182501 1.7495464e-39
-0.23484489 0.092680469 1.02075 1.1981929e-39
-0.23484489 0.095180467 1.02075 1.1956747e-39
-0.2323449 0.092680469 1.02075 1.1985432e-39
-0.2323449 0.095180467 1.02075 5.5317378e-40
-0.23484489 0.097680464 1.0157501 7.3469798e-40
-0.23484489 0.097680464 1.0182501 5.6051939e-45
-0.23484489 0.097680464 1.02075 0
-0.23984489 0.10018047 1.02575 7.0064923e-45
-0.23984489 0.10018047 1.0282501 4.2038954e-45
-0.23734489 0.097680464 1.02575 7.0064923e-45
-0.23734489 0.10018047 1.02575 1.5414283e-44
-0.23984489 0.10018047 1.03075 5.6051939e-45
-0.23734489 0.097680464 1.0332501 0
-0.23734489 0.10018047 1.0332501 4.2038954e-45
-0.23484489 0.095180467 1.02575 2.7623797e-40
-0.2323449 0.095180467 1.02575 1.5414283e-44
-0.2323449 0.095180467 1.0282501 8.4077908e-45
-0.2323449 0.095180467 1.0332501 0
-0.23484489 0.097680464 1.02575 5.6051939e-45
-0.23484489 0.097680464 1.0282501 5.6051939e-45
-0.2323449 0.097680464 1.02575 9.18397e-41
-0.2323449 0.097680464 1.0282501 1.4012985e-45
-0.23484489 0.097680464 1.03075 0
-0.23484489 0.097680464 1.0332501 4.2038954e-45
-0.2323449 0.097680464 1.03075 5.6051939e-45
-0.2323449 0.097680464 1.0332501 4.2038954e-45
-0.2573449 0.075180471 1.0382501 7.1746481e-43
-0.2573449 0.072680466 1.0407501 3.1407849e-39
-0.2573449 0.075180471 1.0407501 4.3202032e-42
-0.2598449 0.077680469 1.0382501 0
-0.2573449 0.077680469 1.0382501 5.5642059e-40
-0.25484487 0.072680466 1.0382501 0
-0.25484487 0.075180471 1.0382501 3.9628721e-42
-0.25234488 0.072680466 1.0382501 0
-0.25234488 0.075180471 1.0382501 5.5965759e-40
-0.25484487 0.072680466 1.0407501 2.3822074e-44
-0.25484487 0.075180471 1.0407501 2.5223372e-42
-0.25484487 0.075180471 1.0432501 3.3631163e-44
-0.25234488 0.072680466 1.0407501 1.821688e-44
-0.25234488 0.075180471 1.0407501 6.5113435e-40
-0.25234488 0.075180471 1.0432501 0
-0.25484487 0.077680469 1.0382501 1.4776664e-39
-0.25234488 0.077680469 1.0382501 1.9357579e-39
-0.25234488 0.077680469 1.0407501 1.109244e-39
-0.24734488 0.070180468 1.0407501 7.3889711e-39
-0.24734488 0.070180468 1.0432501 3.2372965e-39
-0.24484488 0.070180468 1.0382501 1.854009e-39
-0.24234489 0.067680471 1.0382501 2.3878644e-39
-0.24234489 0.070180468 1.0382501 1.6815582e-44
-0.24484488 0.067680471 1.0432501 4.0430964e-39
-0.24484488 0.070180468 1.0407501 3.7835059e-44
-0.24484488 0.070180468 1.0432501 3.643376e-44
-0.24234489 0.067680471 1.0407501 2.2960317e-39
-0.24234489 0.067680471 1.0432501 2.6633751e-39
-0.24234489 0.070180468 1.0407501 2.3822074e-44
-0.24234489 0.070180468 1.0432501 2.8025969e-44
-0.24234489 0.067680471 1.0457501 0
-0.24234489 0.070180468 1.0457501 0
-0.24984489 0.075180471 1.0382501 1.5666265e-39
-0.24734488 0.072680466 1.0382501 2.7912604e-40
-0.24734488 0.075180471 1.0382501 4.3440252e-44
-0.24984489 0.072680466 1.0407501 0
-0.24984489 0.072680466 1.0432501 0
-0.24984489 0.075180471 1.0407501 1.1974838e-39
-0.24984489 0.075180471 1.0432501 1.8439126e-40
-0.24734488 0.072680466 1.0407501 5.5642059e-40
-0.24734488 0.072680466 1.0432501 3.2285917e-42
-0.24734488 0.075180471 1.0407501 4.5992157e-40
-0.24734488 0.075180471 1.0432501 8.2941034e-40
-0.24984489 0.077680469 1.0382501 2.1172821e-39
-0.24984489 0.080180466 1.0382501 0
-0.24734488 0.077680469 1.0382501 9.1835496e-41
-0.24734488 0.080180466 1.0382501 0
-0.24984489 0.077680469 1.0407501 1.5666265e-39
-0.24484488 0.072680466 1.0382501 2.5223372e-42
-0.24484488 0.075180471 1.0382501 3.9236357e-44
-0.24234489 0.072680466 1.0382501 4.3202032e-42
-0.24234489 0.075180471 1.0382501 1.6815582e-44
-0.24484488 0.072680466 1.0407501 1.1974866e-39
-0.24484488 0.072680466 1.0432501 3.7274539e-43
-0.24484488 0.075180471 1.0407501 2.2420775e-44
-0.24484488 0.075180471 1.0432501 1.0109247e-39
-0.24234489 0.072680466 1.0407501 1.2014397e-39
-0.24234489 0.072680466 1.0432501 6.1320821e-42
-0.24234489 0.075180471 1.0407501 1.4012985e-44
-0.24234489 0.075180471 1.0432501 1.4012985e-44
-0.24484488 0.077680469 1.0382501 9.1835496e-41
-0.24484488 0.080180466 1.0382501 2.7550649e-40
-0.24234489 0.077680469 1.0382501 4.2038954e-45
-0.24234489 0.080180466 1.0382501 3.0392286e-39
-0.24484488 0.077680469 1.0407501 7.0064923e-45
-0.24484488 0.080180466 1.0407501 1.6562941e-39
-0.24234489 0.077680469 1.0407501 0
-0.24234489 0.077680469 1.0432501 0
-0.24234489 0.080180466 1.0407501 2.3023698e-39
-0.24234489 0.080180466 1.0432501 1.2914451e-39
-0.24234489 0.072680466 1.0457501 1.109244e-39
-0.24234489 0.075180471 1.0457501 1.821688e-44
-0.23984489 0.067680471 1.0382501 0
-0.23984489 0.070180468 1.0382501 0
-0.23984489 0.067680471 1.0407501 0
-0.23984489 0.067680471 1.0432501 0
-0.23984489 0.070180468 1.0407501 0
-0.23984489 0.070180468 1.0432501 0
-0.23734489 0.067680471 1.0407501 9.1835496e-40
-0.23734489 0.067680471 1.0432501 2.8838722e-42
-0.23734489 0.070180468 1.0432501 1.1056385e-39
-0.23734489 0.065180466 1.0457501 1.3358344e-38
-0.23984489 0.067680471 1.0457501 0
-0.23984489 0.070180468 1.0457501 0
-0.23734489 0.067680471 1.0457501 1.44614e-42
-0.23734489 0.070180468 1.0457501 5.5282345e-40
-0.23984489 0.067680471 1.0532501 8.7679455e-39
-0.23734489 0.067680471 1.0507501 3.5124387e-39
-0.23734489 0.070180468 1.0507501 1.5669768e-39
-0.23484489 0.065180466 1.0457501 4.5015536e-39
-0.2323449 0.065180466 1.0457501 2.2960331e-39
-0.23484489 0.065180466 1.0507501 4.50262e-39
-0.23484489 0.065180466 1.0532501 1.7450188e-39
-0.2323449 0.065180466 1.0507501 2.3878616e-39
-0.2323449 0.065180466 1.0532501 0
-0.23484489 0.067680471 1.0457501 5.3809861e-42
-0.23484489 0.070180468 1.0457501 8.3624448e-40
-0.2323449 0.067680471 1.0457501 6.8299287e-42
-0.2323449 0.070180468 1.0457501 1.7510079e-39
-0.23484489 0.067680471 1.0507501 3.3631163e-44
-0.23484489 0.070180468 1.0507501 1.8468063e-39
-0.2323449 0.067680471 1.0507501 2.1019477e-44
-0.2323449 0.067680471 1.0532501 0
-0.2323449 0.070180468 1.0507501 1.662415e-39
-0.2323449 0.070180468 1.0532501 1.3818835e-39
-0.23984489 0.072680466 1.0407501 7.3939513e-40
-0.23984489 0.072680466 1.0432501 1.8435623e-39
-0.23984489 0.075180471 1.0432501 1.1210388e-44
-0.23734489 0.072680466 1.0432501 4.6242849e-44
-0.23734489 0.075180471 1.0432501 0
-0.23984489 0.080180466 1.0382501 2.8580645e-39
-0.23734489 0.080180466 1.0382501 3.0424558e-39
-0.23984489 0.077680469 1.0407501 0
-0.23984489 0.077680469 1.0432501 0
-0.23984489 0.080180466 1.0407501 2.7647773e-39
-0.23984489 0.080180466 1.0432501 3.8718241e-39
-0.23734489 0.077680469 1.0407501 8.2651947e-40
-0.23734489 0.077680469 1.0432501 8.2651947e-40
-0.23734489 0.080180466 1.0407501 3.4097964e-39
-0.23734489 0.080180466 1.0432501 3.8686011e-39
-0.23484489 0.075180471 1.0432501 5.5208917e-40
-0.2323449 0.075180471 1.0432501 1.472263e-39
-0.23484489 0.080180466 1.0382501 3.6867364e-39
-0.2323449 0.080180466 1.0382501 2.9484679e-39
-0.23484489 0.077680469 1.0432501 1.7466681e-39
-0.23484489 0.080180466 1.0407501 3.501992e-39
-0.23484489 0.080180466 1.0432501 4.0529924e-39
-0.2323449 0.077680469 1.0432501 3.2239786e-39
-0.2323449 0.080180466 1.0407501 3.6863861e-39
-0.2323449 0.080180466 1.0432501 3.4094404e-39
-0.23984489 0.072680466 1.0457501 1.1056385e-39
-0.23984489 0.075180471 1.0457501 8.2654329e-40
-0.23734489 0.072680466 1.0457501 4.4841551e-44
-0.23734489 0.075180471 1.0457501 0
-0.23484489 0.072680466 1.0457501 2.3822074e-44
-0.23484489 0.075180471 1.0457501 1.472263e-39
-0.2323449 0.072680466 1.0457501 1.4012985e-44
-0.2323449 0.075180471 1.0457501 2.3938592e-39
-0.23484489 0.072680466 1.0507501 1.9618179e-44
-0.23484489 0.075180471 1.0507501 8.4077908e-45
-0.2323449 0.072680466 1.0507501 1.4012985e-44
-0.2323449 0.075180471 1.0507501 0
-0.23484489 0.077680469 1.0457501 2.947033e-39
-0.2323449 0.065180466 1.0557501 0
-0.23984489 0.10018047 1.0382501 1.4012985e-45
-0.23734489 0.10018047 1.0382501 1.4012985e-45
-0.23984489 0.10018047 1.0407501 1.4012985e-45
-0.23734489 0.10018047 1.0407501 7.0064923e-45
-0.23484489 0.097680464 1.0382501 0
-0.23484489 0.10018047 1.0382501 4.2038954e-45
-0.2323449 0.097680464 1.0382501 1.836766e-40
-0.2323449 0.10018047 1.0382501 1.4012985e-45
-0.23484489 0.10018047 1.0407501 4.2038954e-45
-0.2323449 0.097680464 1.0407501 0
-0.2323449 0.10018047 1.0407501 0
-0.22234489 0.060180467 1.0607501 1.6865692e-38
-0.21984489 0.060180467 1.0557501 1.6679852e-38
-0.2173449 0.060180467 1.0557501 9.0459743e-39
-0.21984489 0.060180467 1.0607501 1.5759337e-38
-0.21984489 0.060180467 1.0632501 9.3214822e-39
-0.2173449 0.060180467 1.0607501 4.3439972e-39
-0.2173449 0.060180467 1.0632501 4.2507226e-39
-0.21484488 0.060180467 1.0557501 4.0674103e-39
-0.21234488 0.060180467 1.0557501 3.3631163e-44
-0.21484488 0.060180467 1.0607501 5.0446745e-44
-0.21484488 0.060180467 1.0632501 2.9231086e-42
-0.21234488 0.060180467 1.0607501 2.9427268e-44
-0.21234488 0.060180467 1.0632501 0
-0.21484488 0.060180467 1.0657501 2.5223372e-44
-0.21234488 0.057680469 1.0657501 3.6734198e-40
-0.21234488 0.060180467 1.0657501 2.8025969e-45
-0.21234488 0.060180467 1.0707501 1.102026e-39
-0.20984489 0.060180467 1.0557501 0
-0.20984489 0.060180467 1.0607501 7.0064923e-45
-0.20984489 0.060180467 1.0632501 1.2889396e-39
-0.20734489 0.060180467 1.0632501 9.2449265e-40
-0.20484489 0.057680469 1.0632501 2.5713939e-39
-0.20484489 0.060180467 1.0632501 1.44614e-42
-0.20234489 0.057680469 1.0632501 3.0305714e-39
-0.20234489 0.060180467 1.0632501 0
-0.20984489 0.057680469 1.0657501 1.8020698e-42
-0.20984489 0.060180467 1.0657501 7.3708299e-43
-0.20734489 0.057680469 1.0657501 0
-0.20734489 0.060180467 1.0657501 1.1088881e-39
-0.20984489 0.060180467 1.0707501 1.2903885e-39
-0.20984489 0.060180467 1.0732501 2.155197e-42
-0.20734489 0.060180467 1.0707501 9.2160738e-40
-0.20734489 0.060180467 1.0732501 0
-0.20484489 0.057680469 1.0657501 1.3775324e-39
-0.20484489 0.060180467 1.0657501 1.44614e-42
-0.20234489 0.057680469 1.0657501 2.2040519e-39
-0.20234489 0.060180467 1.0657501 0
-0.20484489 0.060180467 1.0707501 1.460153e-42
-0.20484489 0.060180467 1.0732501 0
-0.20234489 0.060180467 1.0707501 0
-0.20234489 0.060180467 1.0732501 2.4795584e-39
-0.19984488 0.057680469 1.0632501 9.4683831e-39
-0.19984488 0.060180467 1.0632501 1.8367099e-39
-0.19734488 0.057680469 1.0632501 2.2375745e-38
-0.19984488 0.060180467 1.0707501 1.9344875e-38
-0.19984488 0.060180467 1.0732501 1.925232e-38
-0.19734488 0.060180467 1.0707501 2.0642463e-38
-0.19734488 0.060180467 1.0732501 2.0917255e-38
-0.22984488 0.077680469 1.0332501 3.3168917e-39
-0.22984488 0.080180466 1.0332501 2.7637179e-39
-0.22734489 0.077680469 1.0332501 3.2250478e-39
-0.22734489 0.080180466 1.03075 3.0392286e-39
-0.22734489 0.080180466 1.0332501 2.3963773e-39
-0.22484489 0.077680469 1.0332501 2.9484679e-39
-0.22484489 0.080180466 1.03075 2.4889289e-39
-0.22484489 0.080180466 1.0332501 2.6704531e-39
-0.22234489 0.077680469 1.0332501 2.7633676e-39
-0.22234489 0.080180466 1.03075 2.3963773e-39
-0.22234489 0.080180466 1.0332501 2.5782561e-39
-0.21984489 0.077680469 1.0332501 2.7630018e-39
-0.21984489 0.080180466 1.0332501 2.3938592e-39
-0.2173449 0.077680469 1.0332501 2.6708048e-39
-0.2173449 0.080180466 1.0332501 1.5669768e-39
-0.21484488 0.080180466 1.0332501 1.8435623e-39
-0.21234488 0.080180466 1.0332501 1.3829344e-39
-0.22984488 0.082680471 1.02075 2.7633522e-39
-0.22984488 0.085180469 1.02075 1.5669768e-39
-0.22984488 0.087680466 1.0182501 2.0257857e-39
-0.22984488 0.090180472 1.0182501 1.1985432e-39
-0.22984488 0.087680466 1.02075 1.2907388e-39
-0.22984488 0.090180472 1.02075 1.6566445e-39
-0.22734489 0.087680466 1.02075 1.8413945e-39
-0.22734489 0.090180472 1.02075 1.1056385e-39
-0.22984488 0.082680471 1.02575 2.6708048e-39
-0.22984488 0.082680471 1.0282501 2.3935089e-39
-0.22984488 0.085180469 1.02575 1.8410441e-39
-0.22984488 0.085180469 1.0282501 1.7481423e-39
-0.22734489 0.082680471 1.02575 2.3938592e-39
-0.22734489 0.082680471 1.0282501 2.3013132e-39
-0.22734489 0.085180469 1.02575 1.8410441e-39
-0.22734489 0.085180469 1.0282501 1.8403379e-39
-0.22984488 0.082680471 1.03075 2.5786092e-39
-0.22984488 0.082680471 1.0332501 2.7633522e-39
-0.22984488 0.085180469 1.03075 2.3016636e-39
-0.22734489 0.082680471 1.03075 1.9357579e-39
-0.22734489 0.085180469 1.03075 1.7481423e-39
-0.22984488 0.087680466 1.02575 1.6562941e-39
-0.22984488 0.087680466 1.0282501 1.7484898e-39
-0.22984488 0.090180472 1.02575 1.472263e-39
-0.22984488 0.090180472 1.0282501 1.6566445e-39
-0.22734489 0.087680466 1.02575 1.6562941e-39
-0.22734489 0.087680466 1.0282501 1.6562941e-39
-0.22734489 0.090180472 1.02575 1.472263e-39
-0.22734489 0.090180472 1.0282501 1.7484898e-39
-0.22734489 0.087680466 1.03075 1.6562941e-39
-0.22734489 0.090180472 1.03075 1.1056385e-39
-0.22484489 0.082680471 1.0282501 2.1176324e-39
-0.22484489 0.085180469 1.0282501 1.6562941e-39
-0.22484489 0.082680471 1.03075 1.7510079e-39
-0.22484489 0.082680471 1.0332501 1.8403379e-39
-0.22484489 0.085180469 1.03075 1.6559466e-39
-0.22484489 0.085180469 1.0332501 2.0257829e-39
-0.22234489 0.082680471 1.03075 2.0250865e-39
-0.22234489 0.082680471 1.0332501 1.8403379e-39
-0.22234489 0.085180469 1.03075 1.7481423e-39
-0.22234489 0.085180469 1.0332501 1.7481423e-39
-0.22484489 0.087680466 1.02575 1.2903885e-39
-0.22484489 0.087680466 1.0282501 1.6559466e-39
-0.22484489 0.090180472 1.02575 1.3829344e-39
-0.22484489 0.090180472 1.0282501 1.1971335e-39
-0.22484489 0.087680466 1.03075 1.6562941e-39
-0.22484489 0.087680466 1.0332501 1.6562941e-39
-0.22484489 0.090180472 1.03075 8.2941034e-40
-0.22484489 0.090180472 1.0332501 1.1063476e-39
-0.22234489 0.087680466 1.03075 1.6562941e-39
-0.22234489 0.087680466 1.0332501 1.472263e-39
-0.22234489 0.090180472 1.03075 1.6562941e-39
-0.22234489 0.090180472 1.0332501 1.2878704e-39
-0.22984488 0.092680469 1.02075 9.219563e-40
-0.22984488 0.095180467 1.02075 8.2759987e-40
-0.22734489 0.092680469 1.02075 1.2882179e-39
-0.22734489 0.095180467 1.02075 9.1845305e-41
-0.22984488 0.092680469 1.02575 7.3756504e-40
-0.22984488 0.092680469 1.0282501 1.2882179e-39
-0.22984488 0.095180467 1.02575 2.7623797e-40
-0.22984488 0.095180467 1.0282501 8.4077908e-45
-0.22734489 0.092680469 1.02575 4.6097815e-40
-0.22734489 0.092680469 1.0282501 6.4286249e-40
-0.22734489 0.095180467 1.02575 5.6051939e-45
-0.22734489 0.095180467 1.0282501 8.4077908e-45
-0.22984488 0.092680469 1.03075 5.5317378e-40
-0.22984488 0.095180467 1.03075 7.0064923e-45
-0.22984488 0.095180467 1.0332501 8.4077908e-45
-0.22734489 0.092680469 1.03075 1.8369341e-40
-0.22734489 0.092680469 1.0332501 1.8404094e-40
-0.22734489 0.095180467 1.0332501 5.6051939e-45
-0.22984488 0.097680464 1.03075 4.2038954e-45
-0.22984488 0.097680464 1.0332501 5.6051939e-45
-0.22484489 0.092680469 1.03075 8.4077908e-45
-0.22484489 0.092680469 1.0332501 5.6051939e-45
-0.22484489 0.095180467 1.0332501 5.6051939e-45
-0.22234489 0.092680469 1.0332501 5.6051939e-45
-0.21984489 0.082680471 1.03075 2.0254368e-39
-0.21984489 0.082680471 1.0332501 1.8410441e-39
-0.21984489 0.085180469 1.03075 1.7484898e-39
-0.21984489 0.085180469 1.0332501 1.6562941e-39
-0.2173449 0.082680471 1.0332501 1.6562941e-39
-0.2173449 0.085180469 1.0332501 1.1056385e-39
-0.21984489 0.087680466 1.03075 1.6566445e-39
-0.21984489 0.087680466 1.0332501 1.472263e-39
-0.21984489 0.090180472 1.0332501 7.3756504e-40
-0.2173449 0.087680466 1.0332501 6.4501908e-40
-0.2173449 0.090180472 1.0332501 6.4285968e-40
-0.21484488 0.082680471 1.0332501 1.7484898e-39
-0.21484488 0.085180469 1.0332501 1.6566445e-39
-0.21234488 0.082680471 1.0332501 1.7484898e-39
-0.21234488 0.085180469 1.0332501 1.4726133e-39
-0.21484488 0.087680466 1.0332501 1.1031204e-39
-0.21234488 0.087680466 1.0332501 8.2689361e-40
-0.21984489 0.092680469 1.0332501 6.4285968e-40
-0.22984488 0.065180466 1.0457501 0
-0.22734489 0.065180466 1.0457501 1.793662e-42
-0.22984488 0.062680468 1.0507501 1.5298714e-38
-0.22984488 0.065180466 1.0507501 0
-0.22984488 0.065180466 1.0532501 6.4284847e-40
-0.22734489 0.062680468 1.0507501 8.7675952e-39
-0.22734489 0.065180466 1.0507501 1.793662e-42
-0.22734489 0.065180466 1.0532501 2.1523944e-42
-0.22984488 0.067680471 1.0457501 1.5666265e-39
-0.22984488 0.070180468 1.0457501 2.0250865e-39
-0.22734489 0.067680471 1.0457501 8.2906002e-40
-0.22734489 0.070180468 1.0457501 7.3470639e-40
-0.22984488 0.067680471 1.0507501 0
-0.22984488 0.067680471 1.0532501 3.5873241e-43
-0.22984488 0.070180468 1.0507501 5.5677091e-40
-0.22984488 0.070180468 1.0532501 2.8018262e-40
-0.22734489 0.067680471 1.0507501 3.7202933e-40
-0.22734489 0.067680471 1.0532501 4.6422496e-40
-0.22734489 0.070180468 1.0507501 3.673602e-40
-0.22734489 0.070180468 1.0532501 2.7589044e-40
-0.22484489 0.065180466 1.0507501 2.5111268e-42
-0.22484489 0.067680471 1.0507501 1.2014341e-39
-0.22484489 0.070180468 1.0532501 5.6051939e-45
-0.22734489 0.075180471 1.0382501 3.8718241e-39
-0.22984488 0.075180471 1.0407501 3.3186503e-39
-0.22984488 0.075180471 1.0432501 2.5825314e-39
-0.22734489 0.075180471 1.0407501 3.8718031e-39
-0.22734489 0.075180471 1.0432501 3.3200965e-39
-0.22984488 0.080180466 1.0382501 2.7637179e-39
-0.22734489 0.077680469 1.0382501 3.0428061e-39
-0.22734489 0.080180466 1.0382501 2.8580701e-39
-0.22984488 0.077680469 1.0407501 2.5839958e-39
-0.22984488 0.080180466 1.0407501 2.9484623e-39
-0.22734489 0.077680469 1.0407501 2.5839958e-39
-0.22484489 0.075180471 1.0382501 4.0537014e-39
-0.22484489 0.075180471 1.0407501 3.5026955e-39
-0.22484489 0.075180471 1.0432501 3.8682508e-39
-0.22234489 0.075180471 1.0407501 3.5945408e-39
-0.22234489 0.075180471 1.0432501 3.6860329e-39
-0.22484489 0.077680469 1.0382501 3.8704172e-39
-0.22484489 0.080180466 1.0382501 2.9484623e-39
-0.22234489 0.077680469 1.0382501 3.3172448e-39
-0.22234489 0.080180466 1.0382501 2.8562667e-39
-0.22484489 0.077680469 1.0407501 3.408737e-39
-0.22484489 0.077680469 1.0432501 3.4094404e-39
-0.22234489 0.077680469 1.0407501 3.593487e-39
-0.22234489 0.077680469 1.0432501 3.408737e-39
-0.22234489 0.080180466 1.0407501 3.0392286e-39
-0.22984488 0.072680466 1.0457501 0
-0.22984488 0.075180471 1.0457501 3.0409914e-39
-0.22734489 0.072680466 1.0457501 0
-0.22734489 0.075180471 1.0457501 4.4203708e-39
-0.22984488 0.072680466 1.0507501 0
-0.22984488 0.075180471 1.0507501 1.8367099e-40
-0.22734489 0.072680466 1.0507501 9.1837038e-40
-0.22734489 0.072680466 1.0532501 1.0101989e-39
-0.22734489 0.075180471 1.0507501 1.0101905e-39
-0.22734489 0.075180471 1.0532501 2.1133164e-39
-0.22734489 0.077680469 1.0532501 4.5139705e-39
-0.22484489 0.075180471 1.0457501 4.1437839e-39
-0.22234489 0.075180471 1.0457501 3.5945408e-39
-0.22484489 0.072680466 1.0507501 1.102026e-39
-0.22484489 0.072680466 1.0532501 1.7484898e-39
-0.22484489 0.075180471 1.0507501 2.6704531e-39
-0.22484489 0.075180471 1.0532501 1.6566445e-39
-0.22234489 0.072680466 1.0532501 2.1183387e-39
-0.22234489 0.075180471 1.0507501 3.4097908e-39
-0.22234489 0.075180471 1.0532501 3.3165245e-39
-0.21984489 0.062680468 1.0532501 0
-0.21984489 0.065180466 1.0532501 1.3858211e-39
-0.21984489 0.070180468 1.0532501 1.836752e-40
-0.2173449 0.070180468 1.0532501 1.6530389e-39
-0.21484488 0.070180468 1.0532501 2.5728428e-39
-0.21234488 0.070180468 1.0532501 3.9582968e-39
-0.21984489 0.075180471 1.0432501 2.9481176e-39
-0.2173449 0.075180471 1.0432501 2.6736733e-39
-0.21984489 0.077680469 1.0382501 2.9484623e-39
-0.21984489 0.080180466 1.0382501 2.6718754e-39
-0.2173449 0.077680469 1.0382501 2.947033e-39
-0.2173449 0.080180466 1.0382501 2.5786092e-39
-0.21984489 0.077680469 1.0407501 2.7637179e-39
-0.21984489 0.077680469 1.0432501 2.7630018e-39
-0.21984489 0.080180466 1.0407501 2.6708048e-39
-0.2173449 0.077680469 1.0407501 2.947033e-39
-0.2173449 0.077680469 1.0432501 2.7630018e-39
-0.2173449 0.080180466 1.0407501 2.3945682e-39
-0.21484488 0.075180471 1.0432501 2.9484623e-39
-0.21234488 0.075180471 1.0432501 2.7630018e-39
-0.21484488 0.080180466 1.0382501 1.3825841e-39
-0.21234488 0.080180466 1.0382501 1.3825841e-39
-0.21484488 0.077680469 1.0407501 2.3938592e-39
-0.21484488 0.077680469 1.0432501 2.6711551e-39
-0.21484488 0.080180466 1.0407501 2.1176324e-39
-0.21234488 0.077680469 1.0432501 2.3020139e-39
-0.21234488 0.080180466 1.0407501 2.1176324e-39
-0.21234488 0.080180466 1.0432501 2.0254368e-39
-0.21984489 0.075180471 1.0457501 2.9484679e-39
-0.2173449 0.075180471 1.0457501 3.3172448e-39
-0.21984489 0.072680466 1.0532501 4.1455439e-39
-0.21984489 0.075180471 1.0507501 3.6863861e-39
-0.21984489 0.075180471 1.0532501 4.1470055e-39
-0.2173449 0.072680466 1.0507501 3.8682508e-39
-0.2173449 0.072680466 1.0532501 4.1455467e-39
-0.2173449 0.075180471 1.0507501 3.4097908e-39
-0.21484488 0.075180471 1.0457501 2.8562667e-39
-0.21234488 0.075180471 1.0457501 2.6708048e-39
-0.21484488 0.072680466 1.0507501 3.8682508e-39
-0.21484488 0.072680466 1.0532501 4.1455467e-39
-0.21484488 0.075180471 1.0507501 3.4097908e-39
-0.21234488 0.072680466 1.0507501 3.8697137e-39
-0.21234488 0.072680466 1.0532501 3.5945408e-39
-0.21234488 0.075180471 1.0507501 2.3970864e-39
-0.21234488 0.075180471 1.0532501 3.5913136e-39
-0.21484488 0.077680469 1.0457501 2.3020139e-39
-0.21234488 0.077680469 1.0457501 2.3020139e-39
-0.21234488 0.080180466 1.0457501 1.4747798e-39
-0.21234488 0.077680469 1.0507501 2.3020139e-39
-0.22984488 0.065180466 1.0557501 2.5111268e-42
-0.22734489 0.065180466 1.0557501 3.9502604e-42
-0.22984488 0.065180466 1.0607501 3.629363e-43
-0.22734489 0.065180466 1.0607501 2.1523944e-42
-0.22984488 0.067680471 1.0557501 3.7202933e-40
-0.22984488 0.070180468 1.0557501 7.0064923e-45
-0.22734489 0.067680471 1.0557501 1.20179e-39
-0.22734489 0.070180468 1.0557501 1.8368781e-40
-0.22984488 0.067680471 1.0607501 4.635187e-40
-0.22734489 0.067680471 1.0607501 1.1095944e-39
-0.22734489 0.070180468 1.0607501 4.3440252e-44
-0.22484489 0.065180466 1.0557501 5.746725e-42
-0.22234489 0.062680468 1.0557501 0
-0.22234489 0.065180466 1.0557501 2.5814776e-39
-0.22484489 0.065180466 1.0607501 2.8629509e-40
-0.22234489 0.065180466 1.0607501 2.1201492e-39
-0.22484489 0.067680471 1.0557501 1.7546106e-39
-0.22484489 0.070180468 1.0557501 1.821688e-44
-0.22234489 0.067680471 1.0557501 1.570218e-39
-0.22234489 0.070180468 1.0557501 0
-0.22484489 0.067680471 1.0607501 1.7549638e-39
-0.22484489 0.070180468 1.0607501 1.9618179e-44
-0.22484489 0.070180468 1.0632501 1.2611686e-44
-0.22234489 0.067680471 1.0607501 2.2126951e-39
-0.22234489 0.070180468 1.0607501 0
-0.22734489 0.072680466 1.0557501 1.3775465e-39
-0.22734489 0.072680466 1.0607501 5.6051939e-45
-0.22484489 0.072680466 1.0557501 1.4726133e-39
-0.22234489 0.072680466 1.0557501 4.1458718e-39
-0.22484489 0.072680466 1.0607501 0
-0.22234489 0.072680466 1.0607501 0
-0.21984489 0.062680468 1.0557501 0
-0.21984489 0.065180466 1.0557501 1.4751301e-39
-0.2173449 0.062680468 1.0557501 3.2285917e-42
-0.2173449 0.065180466 1.0557501 4.6422496e-40
-0.21984489 0.062680468 1.0607501 4.2038954e-45
-0.21984489 0.065180466 1.0607501 1.1981929e-39
-0.2173449 0.062680468 1.0607501 3.2285917e-42
-0.2173449 0.062680468 1.0632501 3.2285917e-42
-0.2173449 0.065180466 1.0607501 4.2038954e-44
-0.21984489 0.067680471 1.0557501 4.6387183e-40
-0.21984489 0.070180468 1.0557501 4.5918589e-40
-0.2173449 0.067680471 1.0557501 0
-0.2173449 0.070180468 1.0557501 2.0203851e-39
-0.21984489 0.067680471 1.0607501 4.6097815e-40
-0.21984489 0.070180468 1.0607501 0
-0.2173449 0.067680471 1.0607501 1.2611686e-44
-0.2173449 0.070180468 1.0607501 1.285732e-39
-0.21484488 0.062680468 1.0557501 2.5223372e-42
-0.21484488 0.065180466 1.0557501 3.9236357e-44
-0.21234488 0.062680468 1.0557501 7.2012728e-42
-0.21484488 0.062680468 1.0607501 3.6013371e-42
-0.21484488 0.062680468 1.0632501 4.6649226e-42
-0.21484488 0.065180466 1.0632501 2.3822074e-44
-0.21234488 0.062680468 1.0607501 7.9215402e-42
-0.21234488 0.062680468 1.0632501 7.3939513e-40
-0.21234488 0.065180466 1.0632501 0
-0.21484488 0.067680471 1.0557501 9.1849509e-41
-0.21484488 0.070180468 1.0557501 2.759755e-39
-0.21234488 0.070180468 1.0557501 3.4080209e-39
-0.21484488 0.067680471 1.0607501 7.0064923e-45
-0.21484488 0.067680471 1.0632501 7.0064923e-45
-0.21484488 0.070180468 1.0607501 1.6566445e-39
-0.21484488 0.070180468 1.0632501 2.3945654e-39
-0.21234488 0.067680471 1.0607501 0
-0.21234488 0.067680471 1.0632501 0
-0.21234488 0.070180468 1.0607501 2.6711551e-39
-0.21234488 0.070180468 1.0632501 3.5952386e-39
-0.2173449 0.062680468 1.0707501 5.0264576e-42
-0.2173449 0.065180466 1.0707501 2.5811245e-39
-0.21484488 0.062680468 1.0657501 8.2676609e-42
-0.21484488 0.065180466 1.0657501 1.4012985e-44
-0.21234488 0.062680468 1.0657501 5.5466056e-40
-0.21234488 0.065180466 1.0657501 5.5642059e-40
-0.21484488 0.065180466 1.0707501 2.5811245e-39
-0.21234488 0.065180466 1.0707501 7.3650846e-40
-0.21484488 0.067680471 1.0657501 0
-0.21484488 0.067680471 1.0707501 3.2229865e-44
-0.21234488 0.067680471 1.0707501 0
-0.21984489 0.072680466 1.0557501 4.5146543e-39
-0.21984489 0.072680466 1.0607501 4.5917748e-40
-0.21484488 0.072680466 1.0607501 3.0403132e-39
-0.22234489 0.090180472 1.0382501 1.3800674e-39
-0.22984488 0.095180467 1.0382501 0
-0.22734489 0.095180467 1.0382501 5.6051939e-45
-0.22984488 0.097680464 1.0382501 1.836766e-40
-0.22984488 0.10018047 1.0382501 9.18397e-41
-0.22734489 0.097680464 1.0382501 9.18397e-41
-0.22734489 0.10018047 1.0382501 5.6051939e-45
-0.22984488 0.097680464 1.0407501 1.4012985e-45
-0.22984488 0.10018047 1.0407501 9.185091e-41
-0.22734489 0.097680464 1.0407501 0
-0.22734489 0.10018047 1.0407501 3.673602e-40
-0.22484489 0.092680469 1.0382501 1.8439126e-40
-0.22484489 0.095180467 1.0382501 4.2038954e-45
-0.22234489 0.092680469 1.0382501 4.2038954e-45
-0.22234489 0.095180467 1.0382501 0
-0.22484489 0.095180467 1.0407501 4.2038954e-45
-0.22234489 0.092680469 1.0407501 2.7623797e-40
-0.22234489 0.095180467 1.0407501 0
-0.22234489 0.095180467 1.0432501 0
-0.22484489 0.097680464 1.0382501 1.4012985e-45
-0.22484489 0.10018047 1.0382501 5.6051939e-45
-0.22234489 0.097680464 1.0382501 0
-0.22234489 0.10018047 1.0382501 1.4012985e-45
-0.22484489 0.097680464 1.0407501 1.4012985e-45
-0.22484489 0.10018047 1.0407501 4.6026909e-40
-0.22234489 0.097680464 1.0407501 0
-0.22234489 0.097680464 1.0432501 0
-0.22234489 0.10018047 1.0407501 4.6026909e-40
-0.22234489 0.10018047 1.0432501 0
-0.22234489 0.095180467 1.0457501 0
-0.22234489 0.097680464 1.0457501 0
-0.22234489 0.10018047 1.0457501 0
-0.21984489 0.090180472 1.0382501 5.5317378e-40
-0.2173449 0.090180472 1.0382501 1.8404094e-40
-0.2173449 0.090180472 1.0407501 6.4285128e-40
-0.21484488 0.082680471 1.0382501 1.7484898e-39
-0.21484488 0.085180469 1.0382501 1.6562941e-39
-0.21234488 0.082680471 1.0382501 1.6562941e-39
-0.21234488 0.085180469 1.0382501 1.472263e-39
-0.21234488 0.082680471 1.0407501 1.6570004e-39
-0.21234488 0.082680471 1.0432501 1.1981929e-39
-0.21234488 0.085180469 1.0407501 1.472263e-39
-0.21234488 0.085180469 1.0432501 9.219563e-40
-0.21484488 0.087680466 1.0382501 4.6026909e-40
-0.21484488 0.090180472 1.0382501 7.0064923e-45
-0.21234488 0.087680466 1.0382501 7.3756504e-40
-0.21484488 0.090180472 1.0407501 5.6051939e-45
-0.21234488 0.087680466 1.0407501 1.1031204e-39
-0.21234488 0.087680466 1.0432501 7.3469798e-40
-0.21234488 0.082680471 1.0457501 1.8410441e-39
-0.21234488 0.085180469 1.0457501 1.472263e-39
-0.21484488 0.090180472 1.0457501 7.0064923e-45
-0.21234488 0.087680466 1.0457501 4.6026909e-40
-0.21234488 0.090180472 1.0457501 9.1845305e-41
-0.21484488 0.090180472 1.0507501 5.6051939e-45
-0.21234488 0.087680466 1.0507501 5.5282345e-40
-0.21234488 0.090180472 1.0507501 1.4012985e-45
-0.21234488 0.090180472 1.0532501 0
-0.21984489 0.092680469 1.0382501 7.0064923e-45
-0.2173449 0.092680469 1.0382501 1.836766e-40
-0.21984489 0.092680469 1.0407501 9.1845305e-41
-0.21984489 0.092680469 1.0432501 5.6051939e-45
-0.21984489 0.095180467 1.0407501 9.18397e-41
-0.21984489 0.095180467 1.0432501 0
-0.2173449 0.092680469 1.0407501 5.6051939e-45
-0.2173449 0.092680469 1.0432501 0
-0.2173449 0.095180467 1.0432501 1.4012985e-45
-0.21984489 0.097680464 1.0432501 0
-0.21984489 0.10018047 1.0432501 0
-0.21484488 0.092680469 1.0407501 0
-0.21484488 0.092680469 1.0432501 1.4012985e-45
-0.21984489 0.095180467 1.0457501 1.4012985e-45
-0.2173449 0.095180467 1.0457501 5.6051939e-45
-0.2173449 0.095180467 1.0507501 0
-0.2173449 0.095180467 1.0532501 0
-0.21984489 0.097680464 1.0457501 1.5414283e-44
-0.21984489 0.10018047 1.0457501 2.7623797e-40
-0.2173449 0.097680464 1.0457501 7.0064923e-45
-0.2173449 0.10018047 1.0457501 4.6026909e-40
-0.21984489 0.097680464 1.0507501 1.8439126e-40
-0.2173449 0.097680464 1.0507501 6.4286249e-40
-0.2173449 0.097680464 1.0532501 5.5317378e-40
-0.2173449 0.10018047 1.0507501 1.2882179e-39
-0.21484488 0.092680469 1.0457501 4.2038954e-45
-0.21484488 0.092680469 1.0507501 1.4012985e-45
-0.21484488 0.092680469 1.0532501 0
-0.21484488 0.095180467 1.0507501 0
-0.21484488 0.095180467 1.0532501 0
-0.21234488 0.092680469 1.0532501 4.2038954e-45
-0.21484488 0.097680464 1.0507501 8.2689641e-40
-0.21484488 0.097680464 1.0532501 5.6051939e-45
-0.21484488 0.10018047 1.0507501 1.4729693e-39
-0.21234488 0.097680464 1.0532501 1.1038294e-39
-0.21234488 0.10018047 1.0532501 1.3804135e-39
-0.21484488 0.092680469 1.0557501 1.4012985e-45
-0.21484488 0.095180467 1.0557501 0
-0.21234488 0.092680469 1.0557501 1.4012985e-45
-0.21234488 0.095180467 1.0557501 0
-0.21234488 0.095180467 1.0607501 0
-0.21484488 0.097680464 1.0557501 0
-0.21484488 0.10018047 1.0557501 1.6566445e-39
-0.21234488 0.097680464 1.0557501 0
-0.21234488 0.10018047 1.0557501 1.6566445e-39
-0.20984489 0.070180468 1.0532501 4.4210742e-39
-0.20734489 0.070180468 1.0507501 4.0548098e-39
-0.20734489 0.070180468 1.0532501 4.5132699e-39
-0.20484489 0.070180468 1.0507501 4.052642e-39
-0.20484489 0.070180468 1.0532501 3.9629645e-39
-0.20234489 0.070180468 1.0507501 3.8682508e-39
-0.20234489 0.070180468 1.0532501 3.4090873e-39
-0.20984489 0.075180471 1.0432501 1.9357579e-39
-0.20734489 0.075180471 1.0432501 2.1172821e-39
-0.20984489 0.077680469 1.0432501 1.8435623e-39
-0.20984489 0.080180466 1.0432501 1.7484898e-39
-0.20734489 0.077680469 1.0432501 2.0254368e-39
-0.20734489 0.080180466 1.0432501 2.1179828e-39
-0.20484489 0.072680466 1.0432501 2.9484679e-39
-0.20484489 0.075180471 1.0432501 2.0250809e-39
-0.20234489 0.072680466 1.0432501 2.7637179e-39
-0.20234489 0.075180471 1.0432501 2.0250809e-39
-0.20484489 0.077680469 1.0432501 1.3829344e-39
-0.20484489 0.080180466 1.0432501 2.0257829e-39
-0.20234489 0.077680469 1.0432501 1.8410441e-39
-0.20234489 0.080180466 1.0432501 1.7484898e-39
-0.20984489 0.072680466 1.0457501 3.041367e-39
-0.20984489 0.075180471 1.0457501 2.1204995e-39
-0.20734489 0.072680466 1.0457501 3.0410167e-39
-0.20734489 0.075180471 1.0457501 2.4867639e-39
-0.20984489 0.072680466 1.0507501 3.5938373e-39
-0.20984489 0.072680466 1.0532501 2.8594939e-39
-0.20984489 0.075180471 1.0507501 3.0424558e-39
-0.20734489 0.072680466 1.0507501 3.4090873e-39
-0.20734489 0.075180471 1.0507501 2.3938592e-39
-0.20984489 0.077680469 1.0457501 2.1179828e-39
-0.20984489 0.080180466 1.0457501 1.7510079e-39
-0.20734489 0.077680469 1.0457501 2.1179828e-39
-0.20734489 0.080180466 1.0457501 2.0257857e-39
-0.20984489 0.077680469 1.0507501 2.1176324e-39
-0.20484489 0.072680466 1.0457501 2.947033e-39
-0.20484489 0.075180471 1.0457501 2.1179828e-39
-0.20234489 0.072680466 1.0457501 2.9484623e-39
-0.20234489 0.075180471 1.0457501 1.9335901e-39
-0.20484489 0.072680466 1.0507501 3.4980389e-39
-0.20484489 0.072680466 1.0532501 3.0410167e-39
-0.20484489 0.075180471 1.0507501 2.0250809e-39
-0.20234489 0.072680466 1.0507501 2.6708048e-39
