# .PCD v0.7 - Point Cloud Data file format
VERSION 0.7
FIELDS x y z rgb
SIZE 4 4 4 4
TYPE F F F F
COUNT 1 1 1 1
WIDTH 1036
HEIGHT 1
VIEWPOINT 0 0 0 1 0 0 0
POINTS 1036
DATA ascii
-0.15883879 0.16865703 0.84225005 5.6051939e-45
-0.1563388 0.16865703 0.84225005 0
-0.15883879 0.16615704 0.84475011 9.8090893e-45
-0.15883879 0.16615704 0.8472501 9.8090893e-45
-0.15883879 0.16865703 0.84475011 5.6051939e-45
-0.15883879 0.16865703 0.8472501 1.2611686e-44
-0.1563388 0.16615704 0.84475011 1.4012985e-45
-0.1563388 0.16615704 0.8472501 1.4012985e-45
-0.1563388 0.16865703 0.84475011 5.6051939e-45
-0.1563388 0.16865703 0.8472501 5.6051939e-45
-0.1538388 0.16615704 0.83975005 1.1063476e-39
-0.1538388 0.16865703 0.83975005 9.2160738e-40
-0.1538388 0.16865703 0.84225005 3.671402e-43
-0.1513388 0.16615704 0.83975005 1.1981929e-39
-0.1513388 0.16865703 0.83975005 1.5666293e-39
-0.1513388 0.16865703 0.84225005 1.105291e-39
-0.1538388 0.16615704 0.84475011 1.8439126e-40
-0.1538388 0.16865703 0.84475011 1.098618e-42
-0.1538388 0.16865703 0.8472501 1.1063476e-39
-0.1513388 0.16865703 0.84475011 1.8435623e-39
-0.15883879 0.17365703 0.83225006 1.2014397e-39
-0.15883879 0.17615703 0.83225006 1.5531992e-41
-0.15883879 0.17865704 0.83225006 6.5466324e-39
-0.15883879 0.17615703 0.83475006 3.643376e-44
-0.15883879 0.17615703 0.83725005 3.5032462e-44
-0.15883879 0.17865704 0.83475006 9.8090893e-45
-0.15883879 0.17865704 0.83725005 6.5861028e-44
-0.1563388 0.17865704 0.83475006 0
-0.1563388 0.17865704 0.83725005 1.1963908e-39
-0.1513388 0.17115703 0.83725005 2.026897e-39
-0.1513388 0.17365703 0.83725005 2.7556114e-40
-0.1538388 0.17865704 0.83475006 9.18397e-41
-0.1538388 0.17865704 0.83725005 6.4285968e-40
-0.1513388 0.17615703 0.83725005 1.6674853e-38
-0.1513388 0.17865704 0.83475006 1.0673107e-38
-0.1513388 0.17865704 0.83725005 1.7220798e-38
-0.15883879 0.17115703 0.83975005 9.8090893e-45
-0.15883879 0.17115703 0.84225005 0
-0.15883879 0.17365703 0.83975005 1.4012985e-44
-0.15883879 0.17365703 0.84225005 0
-0.1563388 0.17115703 0.84225005 0
-0.1563388 0.17365703 0.84225005 8.4077908e-45
-0.15883879 0.17115703 0.84475011 8.4077908e-45
-0.15883879 0.17115703 0.8472501 1.4012985e-45
-0.15883879 0.17365703 0.84475011 0
-0.15883879 0.17365703 0.8472501 0
-0.1563388 0.17115703 0.84475011 1.4012985e-45
-0.1563388 0.17115703 0.8472501 1.44614e-42
-0.1563388 0.17365703 0.84475011 3.657389e-43
-0.1563388 0.17365703 0.8472501 4.5992157e-40
-0.15883879 0.17615703 0.83975005 0
-0.15883879 0.17615703 0.84225005 0
-0.15883879 0.17865704 0.83975005 0
-0.15883879 0.17865704 0.84225005 0
-0.1563388 0.17615703 0.84225005 5.6051939e-45
-0.1563388 0.17865704 0.83975005 9.18397e-41
-0.1563388 0.17865704 0.84225005 1.4012985e-45
-0.15883879 0.17615703 0.84475011 9.8090893e-45
-0.15883879 0.17615703 0.8472501 0
-0.15883879 0.17865704 0.84475011 1.084605e-42
-0.15883879 0.17865704 0.8472501 1.4349296e-42
-0.1563388 0.17615703 0.84475011 9.18397e-41
-0.1563388 0.17615703 0.8472501 5.6051939e-45
-0.1563388 0.17865704 0.84475011 1.4012985e-45
-0.1563388 0.17865704 0.8472501 5.6051939e-45
-0.1538388 0.17115703 0.83975005 1.2907388e-39
-0.1538388 0.17115703 0.84225005 1.2903885e-39
-0.1538388 0.17365703 0.83975005 4.3440252e-44
-0.1538388 0.17365703 0.84225005 1.821688e-44
-0.1513388 0.17115703 0.83975005 1.7542575e-39
-0.1513388 0.17115703 0.84225005 1.4776692e-39
-0.1513388 0.17365703 0.83975005 4.7644148e-44
-0.1513388 0.17365703 0.84225005 0
-0.1538388 0.17115703 0.84475011 2.7623797e-40
-0.1538388 0.17115703 0.8472501 1.1056385e-39
-0.1538388 0.17365703 0.84475011 1.9618179e-44
-0.1538388 0.17365703 0.8472501 4.5918589e-40
-0.1513388 0.17115703 0.8472501 1.0173987e-39
-0.1513388 0.17365703 0.8472501 1.821688e-44
-0.1538388 0.17615703 0.83975005 6.3557433e-39
-0.1538388 0.17615703 0.84225005 8.4077908e-45
-0.1538388 0.17865704 0.83975005 1.836766e-40
-0.1538388 0.17865704 0.84225005 0
-0.1513388 0.17615703 0.83975005 7.8240715e-39
-0.1513388 0.17615703 0.84225005 2.6624671e-44
-0.1513388 0.17865704 0.83975005 9.84876e-39
-0.1538388 0.17615703 0.84475011 7.3470919e-40
-0.1688388 0.16115704 0.8497501 2.155197e-42
-0.1688388 0.16365704 0.8497501 1.3818835e-39
-0.1663388 0.16365704 0.8497501 2.4885786e-39
-0.1688388 0.16115704 0.8547501 2.7622956e-39
-0.1688388 0.16115704 0.85725009 2.3956739e-39
-0.1688388 0.16365704 0.8547501 2.947033e-39
-0.1663388 0.16115704 0.8547501 2.5807742e-39
-0.1663388 0.16115704 0.85725009 2.3956739e-39
-0.1663388 0.16365704 0.8547501 2.2116427e-39
-0.1663388 0.16365704 0.85725009 2.5786092e-39
-0.1688388 0.16615704 0.8497501 2.2116427e-39
-0.1688388 0.16865703 0.8497501 1.5666265e-39
-0.1663388 0.16615704 0.8497501 2.4882282e-39
-0.1663388 0.16865703 0.8497501 2.0276032e-39
-0.1638388 0.16365704 0.8497501 1.6627667e-39
-0.16133881 0.16365704 0.8497501 4.6026909e-40
-0.1638388 0.16115704 0.8547501 1.1095944e-39
-0.1638388 0.16115704 0.85725009 1.1092412e-39
-0.1638388 0.16365704 0.8547501 2.2119931e-39
-0.1638388 0.16365704 0.85725009 1.108535e-39
-0.16133881 0.16115704 0.8547501 1.5669768e-39
-0.16133881 0.16115704 0.85725009 0
-0.16133881 0.16365704 0.8547501 9.5082305e-41
-0.16133881 0.16365704 0.85725009 0
-0.1638388 0.16615704 0.8497501 1.9357579e-39
-0.1638388 0.16865703 0.8497501 1.5702124e-39
-0.16133881 0.16615704 0.8497501 4.6026909e-40
-0.16133881 0.16865703 0.8497501 1.8439126e-40
-0.1638388 0.16615704 0.8547501 2.5814776e-39
-0.16133881 0.16615704 0.8547501 7.258726e-43
-0.1688388 0.16115704 0.85975009 2.3020545e-39
-0.1663388 0.16115704 0.85975009 2.1197988e-39
-0.1638388 0.16115704 0.85975009 1.8428532e-39
-0.16133881 0.16115704 0.85975009 5.6051939e-45
-0.16133881 0.16115704 0.86225009 0
-0.16133881 0.16365704 0.85975009 0
-0.16133881 0.16115704 0.86725008 9.8090893e-45
-0.16133881 0.17865704 0.8497501 0
-0.15883879 0.16365704 0.8497501 7.0064923e-45
-0.1563388 0.16365704 0.8497501 0
-0.15883879 0.16115704 0.85725009 0
-0.15883879 0.16365704 0.8547501 4.2038954e-45
-0.15883879 0.16365704 0.85725009 0
-0.15883879 0.16615704 0.8497501 1.4012985e-45
-0.15883879 0.16865703 0.8497501 5.6051939e-45
-0.1563388 0.16615704 0.8497501 1.4012985e-45
-0.1563388 0.16865703 0.8497501 0
-0.15883879 0.16615704 0.8547501 0
-0.15883879 0.16615704 0.85725009 0
-0.15883879 0.16865703 0.8547501 1.4012985e-45
-0.15883879 0.16865703 0.85725009 0
-0.1563388 0.16615704 0.8547501 7.0064923e-45
-0.1563388 0.16615704 0.85725009 0
-0.1563388 0.16865703 0.8547501 7.0064923e-45
-0.1563388 0.16865703 0.85725009 9.4363439e-41
-0.1538388 0.16865703 0.8497501 4.5992157e-40
-0.1513388 0.16865703 0.8497501 1.2896822e-39
-0.1538388 0.16865703 0.8547501 1.2903885e-39
-0.1513388 0.16865703 0.85725009 1.8435623e-39
-0.15883879 0.16115704 0.85975009 8.4077908e-45
-0.15883879 0.16115704 0.86225009 9.8090893e-45
-0.15883879 0.16365704 0.85975009 5.6051939e-45
-0.15883879 0.16365704 0.86225009 0
-0.1563388 0.16115704 0.85975009 9.8090893e-45
-0.1563388 0.16365704 0.85975009 0
-0.15883879 0.16115704 0.86475009 0
-0.15883879 0.16115704 0.86725008 1.2611686e-44
-0.15883879 0.16365704 0.86475009 0
-0.15883879 0.16365704 0.86725008 1.4012985e-45
-0.1563388 0.16365704 0.86725008 1.5414283e-44
-0.15883879 0.16615704 0.85975009 0
-0.15883879 0.16615704 0.86225009 0
-0.1563388 0.16615704 0.85975009 0
-0.1563388 0.16865703 0.85975009 2.7623797e-40
-0.1563388 0.16865703 0.86225009 4.6097815e-40
-0.15883879 0.16615704 0.86475009 0
-0.15883879 0.16615704 0.86725008 0
-0.15883879 0.16865703 0.86725008 0
-0.1563388 0.16615704 0.86475009 1.44614e-42
-0.1563388 0.16615704 0.86725008 6.4286249e-40
-0.1563388 0.16865703 0.86475009 9.2160738e-40
-0.1563388 0.16865703 0.86725008 1.105291e-39
-0.1513388 0.16115704 0.86225009 1.1092384e-39
-0.1513388 0.16365704 0.86225009 1.4776664e-39
-0.1513388 0.16115704 0.86475009 1.7506576e-39
-0.1513388 0.16365704 0.86475009 1.8435623e-39
-0.1538388 0.16865703 0.85975009 1.4747798e-39
-0.1513388 0.16615704 0.86225009 2.3970864e-39
-0.1513388 0.16865703 0.86225009 1.9357579e-39
-0.1538388 0.16615704 0.86475009 1.1981929e-39
-0.1538388 0.16615704 0.86725008 2.2123448e-39
-0.1538388 0.16865703 0.86475009 1.2896822e-39
-0.1538388 0.16865703 0.86725008 1.7510079e-39
-0.1513388 0.16615704 0.86475009 1.8468063e-39
-0.1513388 0.16615704 0.86725008 2.3963773e-39
-0.1513388 0.16865703 0.86475009 2.0272473e-39
-0.1513388 0.16865703 0.86725008 2.2119931e-39
-0.15883879 0.17115703 0.8497501 0
-0.15883879 0.17365703 0.8497501 4.2038954e-45
-0.1563388 0.17115703 0.8497501 1.8441368e-40
-0.1563388 0.17365703 0.8497501 6.4431283e-40
-0.15883879 0.17115703 0.8547501 7.0064923e-45
-0.15883879 0.17115703 0.85725009 0
-0.1563388 0.17115703 0.8547501 6.4501908e-40
-0.1563388 0.17115703 0.85725009 9.2160738e-40
-0.1563388 0.17365703 0.8547501 1.1981929e-39
-0.15883879 0.17615703 0.8497501 1.4012985e-45
-0.15883879 0.17865704 0.8497501 2.8025969e-45
-0.1563388 0.17615703 0.8497501 1.821688e-44
-0.1563388 0.17865704 0.8497501 1.4012985e-45
-0.1538388 0.17115703 0.8497501 1.1974866e-39
-0.1538388 0.17365703 0.8497501 3.7132307e-40
-0.1513388 0.17365703 0.8497501 1.9350516e-39
-0.1538388 0.17115703 0.8547501 5.5282345e-40
-0.1538388 0.17365703 0.8547501 1.5669768e-39
-0.1513388 0.17115703 0.85725009 1.9357579e-39
-0.1538388 0.17615703 0.8497501 1.9618179e-44
-0.15883879 0.17115703 0.86725008 1.44614e-42
-0.1563388 0.17115703 0.86475009 1.1981929e-39
-0.1563388 0.17115703 0.86725008 7.4045171e-40
-0.1563388 0.17365703 0.86725008 1.2903885e-39
-0.1538388 0.17115703 0.85975009 1.8435623e-39
-0.1538388 0.17115703 0.86225009 7.4045171e-40
-0.1538388 0.17365703 0.85975009 1.4747798e-39
-0.1538388 0.17115703 0.86475009 1.5666265e-39
-0.1538388 0.17115703 0.86725008 1.5666265e-39
-0.1538388 0.17365703 0.86725008 2.3938592e-39
-0.1513388 0.17115703 0.86475009 2.2119959e-39
-0.1513388 0.17115703 0.86725008 1.4776664e-39
-0.14633881 0.15365703 0.86725008 2.0308374e-39
-0.1488388 0.15865703 0.86225009 2.3938592e-39
-0.14633881 0.15865703 0.85975009 1.8428588e-39
-0.14633881 0.15865703 0.86225009 1.9350545e-39
-0.1488388 0.15865703 0.86475009 2.0276032e-39
-0.1488388 0.15865703 0.86725008 2.2123448e-39
-0.14633881 0.15615703 0.86475009 2.1197988e-39
-0.14633881 0.15615703 0.86725008 2.7622984e-39
-0.14633881 0.15865703 0.86475009 2.1194457e-39
-0.14633881 0.15865703 0.86725008 2.1194457e-39
-0.14383879 0.15365703 0.86725008 2.0308374e-39
-0.14383879 0.15615703 0.86225009 2.3963829e-39
-0.14383879 0.15865703 0.85975009 1.9350545e-39
-0.14383879 0.15865703 0.86225009 2.2119959e-39
-0.1413388 0.15615703 0.86225009 2.3963829e-39
-0.1413388 0.15865703 0.85975009 2.3946103e-39
-0.1413388 0.15865703 0.86225009 2.2116427e-39
-0.14383879 0.15615703 0.86475009 2.3963773e-39
-0.14383879 0.15615703 0.86725008 2.2116427e-39
-0.14383879 0.15865703 0.86475009 1.6620647e-39
-0.14383879 0.15865703 0.86725008 2.3963829e-39
-0.1413388 0.15615703 0.86475009 1.8432091e-39
-0.1413388 0.15615703 0.86725008 8.3229422e-40
-0.1413388 0.15865703 0.86475009 2.5335476e-42
-0.1413388 0.15865703 0.86725008 2.183223e-42
-0.1338388 0.15865703 0.85725009 4.3292485e-39
-0.1313388 0.15865703 0.8547501 8.2651947e-40
-0.1388388 0.15615703 0.86225009 1.5669824e-39
-0.1388388 0.15865703 0.85975009 1.0113171e-39
-0.1388388 0.15865703 0.86225009 2.8483759e-39
-0.1363388 0.15865703 0.85975009 9.9470709e-39
-0.1363388 0.15865703 0.86225009 9.9503079e-39
-0.1388388 0.15615703 0.86475009 1.7481423e-39
-0.1388388 0.15615703 0.86725008 2.3902747e-39
-0.1388388 0.15865703 0.86475009 1.7481423e-39
-0.1388388 0.15865703 0.86725008 1.472263e-39
-0.1363388 0.15615703 0.86475009 5.2515762e-39
-0.1363388 0.15615703 0.86725008 9.1201619e-39
-0.1363388 0.15865703 0.86475009 8.2036342e-39
-0.1363388 0.15865703 0.86725008 8.296197e-39
-0.1338388 0.15865703 0.85975009 4.9746208e-39
-0.1338388 0.15865703 0.86225009 6.2700441e-39
-0.1313388 0.15615703 0.85975009 6.8148984e-39
-0.1313388 0.15865703 0.86225009 2.6768612e-39
-0.1338388 0.15615703 0.86725008 7.2762241e-39
-0.1338388 0.15865703 0.86475009 4.2374032e-39
-0.1338388 0.15865703 0.86725008 3.8703639e-39
-0.1313388 0.15615703 0.86725008 2.0210984e-39
-0.1313388 0.15865703 0.86475009 1.020235e-39
-0.14633881 0.16365704 0.83475006 2.1197988e-39
-0.14633881 0.16365704 0.83725005 2.2123448e-39
-0.1488388 0.16615704 0.83475006 2.2123448e-39
-0.1488388 0.16615704 0.83725005 1.8435623e-39
-0.1488388 0.16865703 0.83475006 2.0276032e-39
-0.1488388 0.16865703 0.83725005 2.4868059e-39
-0.14633881 0.16615704 0.83475006 1.7546106e-39
-0.14633881 0.16615704 0.83725005 2.0276032e-39
-0.14633881 0.16865703 0.83475006 2.0276032e-39
-0.14633881 0.16865703 0.83725005 1.9350545e-39
-0.14383879 0.16365704 0.83225006 1.5698621e-39
-0.1413388 0.16365704 0.83225006 1.3854708e-39
-0.14383879 0.16365704 0.83475006 2.0276032e-39
-0.14383879 0.16365704 0.83725005 1.570218e-39
-0.14383879 0.16615704 0.83225006 1.9354076e-39
-0.1413388 0.16615704 0.83225006 1.9357579e-39
-0.14383879 0.16615704 0.83475006 1.4776664e-39
-0.14383879 0.16615704 0.83725005 1.3854708e-39
-0.14383879 0.16865703 0.83475006 1.570218e-39
-0.14383879 0.16865703 0.83725005 1.9350545e-39
-0.1413388 0.16615704 0.83725005 1.5698621e-39
-0.1413388 0.16865703 0.83475006 1.7546106e-39
-0.1413388 0.16865703 0.83725005 1.5695089e-39
-0.1488388 0.16365704 0.83975005 2.9470358e-39
-0.14633881 0.16365704 0.83975005 2.1201492e-39
-0.14633881 0.16365704 0.84225005 2.5786092e-39
-0.14633881 0.16365704 0.8472501 2.1201492e-39
-0.1488388 0.16615704 0.83975005 2.2126951e-39
-0.1488388 0.16615704 0.84225005 1.3858239e-39
-0.1488388 0.16865703 0.83975005 2.0276032e-39
-0.1488388 0.16865703 0.84225005 2.1204995e-39
-0.14633881 0.16615704 0.83975005 2.0276032e-39
-0.14633881 0.16615704 0.84225005 2.3938648e-39
-0.14633881 0.16865703 0.83975005 2.0276032e-39
-0.1488388 0.16615704 0.84475011 1.9357579e-39
-0.14633881 0.16615704 0.84475011 9.2449265e-40
-0.14633881 0.16615704 0.8472501 1.9350545e-39
-0.14383879 0.16365704 0.83975005 1.3851205e-39
-0.14383879 0.16365704 0.84225005 1.3858211e-39
-0.1413388 0.16365704 0.83975005 1.4773161e-39
-0.14383879 0.16365704 0.8472501 1.9350545e-39
-0.1413388 0.16365704 0.8472501 1.8425029e-39
-0.14383879 0.16615704 0.83975005 1.9350545e-39
-0.14383879 0.16615704 0.84225005 1.9354076e-39
-0.14383879 0.16865703 0.83975005 1.2010865e-39
-0.14383879 0.16865703 0.84225005 1.4776664e-39
-0.1413388 0.16615704 0.83975005 1.3851205e-39
-0.1413388 0.16615704 0.84225005 1.4776664e-39
-0.1413388 0.16865703 0.83975005 1.5695089e-39
-0.1413388 0.16865703 0.84225005 1.3851205e-39
-0.14383879 0.16615704 0.84475011 1.2014369e-39
-0.14383879 0.16615704 0.8472501 2.1197988e-39
-0.1413388 0.16615704 0.84475011 2.1197988e-39
-0.1413388 0.16615704 0.8472501 8.3229422e-40
-0.1488388 0.17365703 0.83225006 1.3361887e-38
-0.14633881 0.17365703 0.83225006 1.2902352e-38
-0.1488388 0.17115703 0.83475006 1.7549638e-39
-0.1488388 0.17115703 0.83725005 1.8425029e-39
-0.1488388 0.17365703 0.83475006 1.8202867e-42
-0.1488388 0.17365703 0.83725005 1.44614e-42
-0.14633881 0.17115703 0.83475006 4.2038954e-45
-0.14633881 0.17115703 0.83725005 2.2119931e-39
-0.14633881 0.17365703 0.83475006 0
-0.14633881 0.17365703 0.83725005 1.5414283e-44
-0.1488388 0.17615703 0.83225006 1.5851515e-38
-0.1488388 0.17865704 0.83225006 1.5754946e-38
-0.14633881 0.17615703 0.83225006 1.5571706e-38
-0.14633881 0.17865704 0.83225006 1.5569848e-38
-0.1488388 0.17615703 0.83475006 1.5851534e-38
-0.1488388 0.17615703 0.83725005 1.317894e-38
-0.1488388 0.17865704 0.83475006 1.575424e-38
-0.14633881 0.17615703 0.83475006 1.2809798e-38
-0.14633881 0.17865704 0.83475006 1.5937597e-38
-0.14383879 0.17365703 0.83225006 1.2902352e-38
-0.1413388 0.17365703 0.82975006 1.3269338e-38
-0.1413388 0.17365703 0.83225006 1.3268611e-38
-0.14383879 0.17115703 0.83475006 4.2038954e-45
-0.14383879 0.17115703 0.83725005 2.2119931e-39
-0.14383879 0.17365703 0.83475006 0
-0.14383879 0.17365703 0.83725005 1.5414283e-44
-0.1413388 0.17115703 0.83475006 7.0064923e-45
-0.1413388 0.17115703 0.83725005 2.1194457e-39
-0.1413388 0.17365703 0.83475006 0
-0.1413388 0.17365703 0.83725005 3.0828566e-44
-0.14383879 0.17615703 0.82975006 8.6581103e-39
-0.14383879 0.17615703 0.83225006 1.5386956e-38
-0.14383879 0.17865704 0.82975006 9.7673642e-39
-0.14383879 0.17865704 0.83225006 9.8620639e-39
-0.1413388 0.17615703 0.82975006 9.6712281e-39
-0.1413388 0.17615703 0.83225006 1.5479511e-38
-0.1413388 0.17865704 0.82975006 9.0344529e-39
-0.1413388 0.17865704 0.83225006 6.7443108e-39
-0.14383879 0.17615703 0.83475006 1.3267186e-38
-0.1488388 0.17115703 0.83975005 2.1197988e-39
-0.1488388 0.17365703 0.83975005 7.0064923e-45
-0.1488388 0.17615703 0.83975005 1.2902716e-38
-0.1413388 0.17115703 0.83975005 2.2119931e-39
-0.1388388 0.16865703 0.83725005 2.1019477e-44
-0.1363388 0.16865703 0.83725005 3.9507578e-39
-0.1338388 0.16865703 0.83475006 9.6772985e-39
-0.1338388 0.16865703 0.83725005 0
-0.1388388 0.16365704 0.8472501 1.2896822e-39
-0.1388388 0.16615704 0.83975005 2.1860256e-42
-0.1388388 0.16615704 0.84225005 2.7912324e-40
-0.1388388 0.16865703 0.83975005 1.4629556e-42
-0.1388388 0.16865703 0.84225005 2.1143856e-39
-0.1363388 0.16865703 0.83975005 1.1147412e-38
-0.1363388 0.16865703 0.84225005 1.0412033e-38
-0.1388388 0.16615704 0.84475011 1.1974838e-39
-0.1388388 0.16615704 0.8472501 1.2878704e-39
-0.1388388 0.16865703 0.84475011 2.479571e-39
-0.1363388 0.16615704 0.84475011 7.6490101e-39
-0.1363388 0.16615704 0.8472501 7.2831044e-39
-0.1363388 0.16865703 0.84475011 9.2123925e-39
-0.1363388 0.16865703 0.8472501 8.9386825e-39
-0.1338388 0.16365704 0.8472501 7.6449898e-39
-0.1313388 0.16365704 0.8472501 2.3898753e-39
-0.1338388 0.16865703 0.83975005 9.8616828e-39
-0.1338388 0.16615704 0.8472501 6.0798515e-39
-0.1313388 0.16615704 0.8472501 2.2998335e-39
-0.1388388 0.17365703 0.82975006 1.2809409e-38
-0.1388388 0.17365703 0.83225006 1.0410904e-38
-0.1363388 0.17365703 0.83225006 7.8290503e-39
-0.1388388 0.17115703 0.83475006 1.9618179e-44
-0.1388388 0.17115703 0.83725005 4.5992437e-40
-0.1388388 0.17365703 0.83475006 4.9045446e-44
-0.1388388 0.17365703 0.83725005 4.3440252e-44
-0.1363388 0.17115703 0.83475006 3.3122506e-39
-0.1363388 0.17115703 0.83725005 1.1148837e-38
-0.1363388 0.17365703 0.83475006 9.6672442e-39
-0.1363388 0.17365703 0.83725005 1.0687541e-38
-0.1388388 0.17615703 0.82975006 1.3084179e-38
-0.1388388 0.17865704 0.82975006 1.1792742e-38
-0.1363388 0.17615703 0.82975006 9.9564302e-39
-0.1363388 0.17615703 0.83225006 3.0457152e-39
-0.1363388 0.17865704 0.82975006 1.2535346e-38
-0.1363388 0.17865704 0.83225006 3.3125561e-39
-0.1388388 0.17615703 0.83475006 1.0042844e-38
-0.1363388 0.17615703 0.83475006 1.0685316e-38
-0.1338388 0.17365703 0.82975006 4.6987149e-39
-0.1338388 0.17365703 0.83225006 4.6029474e-39
-0.1338388 0.17115703 0.83475006 8.3889994e-39
-0.1338388 0.17115703 0.83725005 9.4929073e-39
-0.1338388 0.17365703 0.83475006 6.9081506e-39
-0.1338388 0.17365703 0.83725005 8.4811978e-39
-0.1313388 0.17115703 0.83475006 0
-0.1313388 0.17365703 0.83475006 1.6541151e-39
-0.1338388 0.17615703 0.82975006 1.1048958e-39
-0.1338388 0.17615703 0.83225006 2.0271968e-39
-0.1338388 0.17865704 0.82975006 0
-0.1338388 0.17865704 0.83225006 9.2301848e-40
-0.1313388 0.17615703 0.82975006 4.6104667e-39
-0.1313388 0.17615703 0.83225006 4.6061507e-39
-0.1313388 0.17865704 0.83225006 4.8873997e-39
-0.1338388 0.17615703 0.83475006 2.9473455e-39
-0.1338388 0.17865704 0.83475006 9.2194229e-40
-0.1313388 0.17615703 0.83475006 4.3302631e-39
-0.1313388 0.17865704 0.83475006 4.3335127e-39
-0.1388388 0.17115703 0.83975005 4.5992437e-40
-0.1388388 0.17365703 0.83975005 8.4077908e-45
-0.1363388 0.17115703 0.83975005 1.0963018e-38
-0.1363388 0.17115703 0.84225005 1.0137576e-38
-0.1363388 0.17365703 0.83975005 1.1053459e-38
-0.1363388 0.17115703 0.84475011 9.6773041e-39
-0.1363388 0.17115703 0.8472501 1.0869766e-38
-0.1338388 0.17115703 0.83975005 0
-0.1338388 0.17115703 0.84225005 0
-0.1338388 0.17365703 0.83975005 8.5733948e-39
-0.1313388 0.17115703 0.84225005 0
-0.1338388 0.17115703 0.84475011 0
-0.1338388 0.17115703 0.8472501 1.8367099e-40
-0.14633881 0.16115704 0.8497501 2.3963829e-39
-0.14633881 0.16365704 0.8497501 1.7546106e-39
-0.1488388 0.16115704 0.85725009 2.2126951e-39
-0.1488388 0.16365704 0.8547501 2.3963773e-39
-0.1488388 0.16365704 0.85725009 2.3963773e-39
-0.14633881 0.16115704 0.85725009 2.2119931e-39
-0.14633881 0.16365704 0.8547501 2.3963829e-39
-0.14633881 0.16365704 0.85725009 2.2119931e-39
-0.1488388 0.16615704 0.8497501 2.3956739e-39
-0.14633881 0.16615704 0.8497501 1.3854708e-39
-0.14633881 0.16865703 0.8497501 2.3963773e-39
-0.1488388 0.16615704 0.8547501 1.6620647e-39
-0.1488388 0.16615704 0.85725009 2.1194457e-39
-0.1488388 0.16865703 0.85725009 1.662415e-39
-0.14633881 0.16615704 0.8547501 1.570218e-39
-0.14633881 0.16615704 0.85725009 2.1197988e-39
-0.14383879 0.16115704 0.8497501 2.1201492e-39
-0.14383879 0.16365704 0.8497501 1.385468e-39
-0.1413388 0.16115704 0.8497501 1.7546106e-39
-0.1413388 0.16365704 0.8497501 1.7542603e-39
-0.14383879 0.16115704 0.8547501 2.1194457e-39
-0.14383879 0.16115704 0.85725009 2.0276032e-39
-0.14383879 0.16365704 0.8547501 2.1194457e-39
-0.14383879 0.16365704 0.85725009 2.1197988e-39
-0.1413388 0.16115704 0.8547501 2.1194457e-39
-0.1413388 0.16115704 0.85725009 2.1197988e-39
-0.1413388 0.16365704 0.8547501 2.3956739e-39
-0.1413388 0.16365704 0.85725009 1.5695089e-39
-0.14383879 0.16615704 0.8497501 1.3854708e-39
-0.14383879 0.16865703 0.8497501 2.4889317e-39
-0.1413388 0.16615704 0.8497501 7.4010139e-40
-0.14383879 0.16615704 0.8547501 1.385468e-39
-0.1413388 0.16615704 0.8547501 1.1981929e-39
-0.1488388 0.16115704 0.85975009 2.3963773e-39
-0.1488388 0.16115704 0.86225009 2.4889317e-39
-0.1488388 0.16365704 0.85975009 2.2123448e-39
-0.1488388 0.16365704 0.86225009 2.4889317e-39
-0.14633881 0.16115704 0.85975009 1.2014369e-39
-0.14633881 0.16115704 0.86225009 1.9357579e-39
-0.14633881 0.16365704 0.85975009 2.2119931e-39
-0.14633881 0.16365704 0.86225009 2.6704531e-39
-0.1488388 0.16115704 0.86475009 2.4857045e-39
-0.1488388 0.16115704 0.86725008 2.1201492e-39
-0.1488388 0.16365704 0.86475009 2.1197988e-39
-0.1488388 0.16365704 0.86725008 2.1197988e-39
-0.14633881 0.16115704 0.86725008 2.5782561e-39
-0.1488388 0.16615704 0.85975009 2.2123448e-39
-0.1488388 0.16615704 0.86225009 2.3970864e-39
-0.1488388 0.16865703 0.85975009 1.9357579e-39
-0.14633881 0.16615704 0.85975009 2.2123448e-39
-0.1488388 0.16615704 0.86475009 5.5930726e-40
-0.1488388 0.16615704 0.86725008 2.3020545e-39
-0.1488388 0.16865703 0.86725008 2.3970864e-39
-0.14383879 0.16115704 0.85975009 1.570218e-39
-0.1413388 0.16115704 0.85975009 2.2116427e-39
-0.1413388 0.16115704 0.86225009 2.3963829e-39
-0.1388388 0.16115704 0.8497501 1.8132802e-42
-0.1388388 0.16365704 0.8497501 2.5804211e-39
-0.1363388 0.16115704 0.8497501 3.6820799e-39
-0.1363388 0.16365704 0.8497501 8.3772271e-39
-0.1388388 0.16115704 0.8547501 2.1019477e-44
-0.1388388 0.16115704 0.85725009 3.7667267e-39
-0.1388388 0.16365704 0.8547501 1.1971335e-39
-0.1388388 0.16365704 0.85725009 3.2207528e-39
-0.1363388 0.16115704 0.8547501 1.1424345e-38
-0.1363388 0.16115704 0.85725009 1.2063973e-38
-0.1363388 0.16365704 0.8547501 6.0691344e-39
-0.1363388 0.16365704 0.85725009 1.0964833e-38
-0.1388388 0.16615704 0.8497501 5.3444795e-39
-0.1388388 0.16865703 0.8497501 7.5568145e-39
-0.1363388 0.16615704 0.8497501 8.2921991e-39
-0.1363388 0.16865703 0.8497501 7.5579117e-39
-0.1388388 0.16615704 0.8547501 2.5811273e-39
-0.1363388 0.16615704 0.8547501 1.0127868e-38
-0.1363388 0.16865703 0.8547501 5.6221566e-39
-0.1338388 0.16115704 0.8497501 1.0136112e-38
-0.1338388 0.16365704 0.8497501 7.3676798e-39
-0.1313388 0.16115704 0.8497501 0
-0.1313388 0.16365704 0.8497501 2.1194457e-39
-0.1338388 0.16115704 0.8547501 1.0780077e-38
-0.1338388 0.16115704 0.85725009 2.5721618e-39
-0.1338388 0.16365704 0.8547501 9.6780076e-39
-0.1338388 0.16365704 0.85725009 9.8616884e-39
-0.1313388 0.16115704 0.8547501 0
-0.1313388 0.16365704 0.8547501 0
-0.1338388 0.16615704 0.8497501 6.0794984e-39
-0.1338388 0.16865703 0.8497501 3.7236424e-40
-0.1313388 0.16615704 0.8497501 3.7753517e-39
-0.1313388 0.16865703 0.8497501 1.7552777e-39
-0.1338388 0.16865703 0.8547501 2.492114e-39
-0.1313388 0.16865703 0.8547501 6.0694454e-39
-0.1388388 0.16115704 0.85975009 1.3793611e-39
-0.1388388 0.16115704 0.86225009 1.6562941e-39
-0.1388388 0.16365704 0.86225009 3.3107834e-39
-0.1363388 0.16115704 0.85975009 9.2192127e-39
-0.1363388 0.16115704 0.86225009 1.031837e-38
-0.1363388 0.16365704 0.86225009 1.1423997e-38
-0.1388388 0.16115704 0.86475009 6.4501908e-40
-0.1388388 0.16115704 0.86725008 2.5728456e-39
-0.1363388 0.16115704 0.86475009 1.0874438e-38
-0.1363388 0.16115704 0.86725008 9.307835e-39
-0.1363388 0.16365704 0.86725008 1.0965169e-38
-0.1338388 0.16115704 0.85975009 9.1838859e-40
-0.1338388 0.16115704 0.86225009 1.4694002e-39
-0.1338388 0.16365704 0.85975009 0
-0.1338388 0.16115704 0.86475009 7.3471059e-40
-0.1338388 0.16115704 0.86725008 4.4214652e-39
-0.1338388 0.16365704 0.86725008 0
-0.1388388 0.17115703 0.8497501 9.4925752e-39
-0.1363388 0.17115703 0.8497501 9.9532044e-39
-0.1338388 0.17115703 0.8497501 0
-0.1313388 0.17115703 0.8497501 2.852301e-39
-0.1338388 0.17115703 0.8547501 1.295024e-39
-0.1313388 0.17115703 0.8547501 9.022944e-39
-0.1688388 0.14615704 0.87725008 4.5918589e-40
-0.1688388 0.14865704 0.87475008 1.1056385e-39
-0.1688388 0.14865704 0.87725008 1.1031204e-39
-0.1663388 0.14865704 0.87725008 3.1314242e-39
-0.1688388 0.14365703 0.88725007 5.3264588e-39
-0.1663388 0.14365703 0.88725007 2.3963773e-39
-0.1688388 0.14615704 0.87975007 1.821688e-44
-0.1688388 0.14615704 0.88225007 2.4010338e-39
-0.1688388 0.14865704 0.87975007 1.1027728e-39
-0.1688388 0.14865704 0.88225007 3.4083712e-39
-0.1663388 0.14615704 0.87975007 2.8580869e-39
-0.1663388 0.14865704 0.87975007 2.7651654e-39
-0.1663388 0.14865704 0.88225007 2.7651654e-39
-0.1688388 0.14615704 0.88475007 2.4889163e-39
-0.1688388 0.14615704 0.88725007 2.8573387e-39
-0.1688388 0.14865704 0.88475007 3.4083712e-39
-0.1688388 0.14865704 0.88725007 3.5924024e-39
-0.1663388 0.14615704 0.88475007 3.2243457e-39
-0.1663388 0.14615704 0.88725007 3.2243457e-39
-0.1663388 0.14865704 0.88475007 2.9481176e-39
-0.1663388 0.14865704 0.88725007 2.6747425e-39
-0.16133881 0.14365703 0.88725007 3.3168917e-39
-0.1638388 0.14615704 0.87975007 2.6729698e-39
-0.1638388 0.14865704 0.87975007 2.7651654e-39
-0.1638388 0.14865704 0.88225007 2.1197988e-39
-0.16133881 0.14865704 0.87975007 1.7510135e-39
-0.16133881 0.14865704 0.88225007 1.7506576e-39
-0.1638388 0.14615704 0.88475007 2.4882282e-39
-0.1638388 0.14615704 0.88725007 2.5832923e-39
-0.1638388 0.14865704 0.88475007 2.0308374e-39
-0.1638388 0.14865704 0.88725007 2.4914456e-39
-0.16133881 0.14615704 0.88475007 1.105291e-39
-0.16133881 0.14615704 0.88725007 1.9357579e-39
-0.16133881 0.14865704 0.88475007 2.3020139e-39
-0.16133881 0.14865704 0.88725007 1.8460762e-39
-0.1688388 0.15115704 0.86975008 1.3782681e-39
-0.1688388 0.15115704 0.87225008 2.0243536e-39
-0.1688388 0.15365703 0.86975008 2.8580841e-39
-0.1688388 0.15365703 0.87225008 3.0385251e-39
-0.1663388 0.15115704 0.86975008 2.5789595e-39
-0.1663388 0.15365703 0.86975008 2.4885786e-39
-0.1663388 0.15365703 0.87225008 2.9463295e-39
-0.1688388 0.15115704 0.87475008 5.1427878e-39
-0.1688388 0.15115704 0.87725008 1.9354076e-39
-0.1688388 0.15365703 0.87475008 2.3956739e-39
-0.1663388 0.15115704 0.87475008 2.5811273e-39
-0.1663388 0.15115704 0.87725008 2.4885786e-39
-0.1663388 0.15365703 0.87475008 2.7648151e-39
-0.1663388 0.15365703 0.87725008 2.6733201e-39
-0.1688388 0.15615703 0.86975008 3.0417467e-39
-0.1663388 0.15615703 0.86975008 2.4882282e-39
-0.1663388 0.15615703 0.87225008 3.0402852e-39
-0.1638388 0.15365703 0.86975008 2.3963829e-39
-0.1638388 0.15365703 0.87225008 1.662415e-39
-0.16133881 0.15365703 0.86975008 1.9354048e-39
-0.16133881 0.15365703 0.87225008 1.9361082e-39
-0.1638388 0.15115704 0.87725008 2.6729698e-39
-0.1638388 0.15365703 0.87475008 2.5807742e-39
-0.1638388 0.15365703 0.87725008 2.3967332e-39
-0.16133881 0.15115704 0.87725008 1.8439686e-40
-0.16133881 0.15365703 0.87475008 1.751717e-39
-0.16133881 0.15365703 0.87725008 0
-0.1638388 0.15615703 0.86975008 1.8471594e-39
-0.1638388 0.15615703 0.87225008 1.4780168e-39
-0.16133881 0.15615703 0.86975008 1.0173987e-39
-0.16133881 0.15615703 0.87225008 4.6457528e-40
-0.16133881 0.15865703 0.86975008 1.9618179e-44
-0.16133881 0.15865703 0.87225008 7.4150829e-40
-0.1638388 0.15615703 0.87475008 1.385468e-39
-0.16133881 0.15615703 0.87475008 0
-0.16133881 0.15865703 0.87475008 0
-0.1688388 0.15115704 0.87975007 1.1949685e-39
-0.1663388 0.15115704 0.87975007 2.6729698e-39
-0.1638388 0.15115704 0.87975007 2.3963773e-39
-0.1638388 0.15115704 0.88225007 2.3963773e-39
-0.1638388 0.15365703 0.87975007 2.3953291e-39
-0.16133881 0.15115704 0.87975007 1.1056385e-39
-0.16133881 0.15115704 0.88225007 1.1981929e-39
-0.16133881 0.15365703 0.87975007 0
-0.16133881 0.15115704 0.88475007 1.8370602e-40
-0.15883879 0.14365703 0.88725007 1.1027728e-39
-0.1563388 0.14365703 0.88725007 1.1027728e-39
-0.15883879 0.14865704 0.88225007 1.836766e-40
-0.1563388 0.14865704 0.88225007 1.8367099e-40
-0.15883879 0.14615704 0.88475007 1.821688e-44
-0.15883879 0.14615704 0.88725007 4.591971e-40
-0.15883879 0.14865704 0.88475007 1.8367099e-40
-0.15883879 0.14865704 0.88725007 1.8368781e-40
-0.1563388 0.14615704 0.88475007 3.6734198e-40
-0.1563388 0.14615704 0.88725007 1.0105772e-39
-0.1563388 0.14865704 0.88475007 3.6734899e-40
-0.1538388 0.14615704 0.88725007 1.1027728e-39
-0.15883879 0.15115704 0.87725008 1.4012985e-45
-0.15883879 0.15365703 0.87475008 0
-0.15883879 0.15365703 0.87725008 0
-0.15883879 0.15615703 0.86975008 0
-0.15883879 0.15615703 0.87225008 0
-0.15883879 0.15865703 0.86975008 1.4012985e-45
-0.15883879 0.15865703 0.87225008 0
-0.1563388 0.15865703 0.87225008 1.6815582e-44
-0.15883879 0.15615703 0.87475008 0
-0.15883879 0.15615703 0.87725008 0
-0.15883879 0.15865703 0.87475008 7.0064923e-45
-0.15883879 0.15865703 0.87725008 1.5414283e-44
-0.1563388 0.15615703 0.87475008 7.0064923e-45
-0.1563388 0.15615703 0.87725008 8.4077908e-45
-0.1563388 0.15865703 0.87475008 0
-0.1563388 0.15865703 0.87725008 2.9427268e-44
-0.1513388 0.15615703 0.87225008 2.2123448e-39
-0.1513388 0.15865703 0.86975008 1.3858211e-39
-0.1513388 0.15865703 0.87225008 1.9357579e-39
-0.1538388 0.15865703 0.87725008 1.7481423e-39
-0.1513388 0.15615703 0.87475008 1.9357579e-39
-0.1513388 0.15615703 0.87725008 2.5814776e-39
-0.1513388 0.15865703 0.87475008 2.2126951e-39
-0.1513388 0.15865703 0.87725008 2.3963773e-39
-0.15883879 0.15115704 0.87975007 3.673602e-40
-0.15883879 0.15115704 0.88225007 1.8368781e-40
-0.15883879 0.15365703 0.87975007 2.2420775e-44
-0.15883879 0.15365703 0.88225007 2.7553451e-40
-0.1563388 0.15115704 0.87975007 0
-0.1563388 0.15115704 0.88225007 5.6051939e-45
-0.1563388 0.15365703 0.87975007 9.1845305e-41
-0.1563388 0.15365703 0.88225007 7.0064923e-45
-0.15883879 0.15115704 0.88475007 1.1210388e-44
-0.15883879 0.15115704 0.88725007 0
-0.15883879 0.15365703 0.88475007 1.821688e-44
-0.15883879 0.15365703 0.88725007 1.6815582e-44
-0.1563388 0.15115704 0.88475007 0
-0.1563388 0.15115704 0.88725007 2.7623797e-40
-0.1563388 0.15365703 0.88475007 3.6734899e-40
-0.1563388 0.15365703 0.88725007 8.2689361e-40
-0.15883879 0.15615703 0.87975007 9.1841101e-41
-0.15883879 0.15615703 0.88225007 1.8368781e-40
-0.15883879 0.15865703 0.87975007 0
-0.1563388 0.15615703 0.87975007 9.1845305e-41
-0.1563388 0.15615703 0.88225007 7.3721471e-40
-0.1563388 0.15865703 0.87975007 2.7623797e-40
-0.1563388 0.15865703 0.88225007 4.6026909e-40
-0.1563388 0.15615703 0.88475007 8.2941034e-40
-0.1563388 0.15615703 0.88725007 9.2197872e-40
-0.1563388 0.15865703 0.88475007 1.1981929e-39
-0.1538388 0.15115704 0.87975007 4.6097815e-40
-0.1513388 0.15365703 0.88225007 2.3963773e-39
-0.1538388 0.15115704 0.88725007 6.4501908e-40
-0.1538388 0.15365703 0.88475007 1.5669768e-39
-0.1538388 0.15365703 0.88725007 1.1981929e-39
-0.1513388 0.15365703 0.88475007 2.2123448e-39
-0.1513388 0.15365703 0.88725007 2.3963773e-39
-0.1538388 0.15615703 0.87975007 1.1056385e-39
-0.1538388 0.15615703 0.88225007 1.3825841e-39
-0.1538388 0.15865703 0.87975007 1.9357579e-39
-0.1538388 0.15865703 0.88225007 1.3825841e-39
-0.1513388 0.15615703 0.87975007 2.3963829e-39
-0.1513388 0.15615703 0.88225007 2.4889289e-39
-0.1513388 0.15865703 0.87975007 2.2119987e-39
-0.1513388 0.15865703 0.88225007 2.1201492e-39
-0.1538388 0.15615703 0.88475007 2.2119987e-39
-0.1538388 0.15615703 0.88725007 1.4747798e-39
-0.1538388 0.15865703 0.88475007 1.9357579e-39
-0.1538388 0.15865703 0.88725007 1.9357579e-39
-0.1513388 0.15615703 0.88475007 2.2123448e-39
-0.1513388 0.15615703 0.88725007 2.7630018e-39
-0.1513388 0.15865703 0.88475007 2.947033e-39
-0.1513388 0.15865703 0.88725007 1.8471594e-39
-0.1688388 0.14365703 0.88975006 5.5101298e-39
-0.1663388 0.14365703 0.88975006 3.0417523e-39
-0.1688388 0.14115703 0.89475006 8.2689361e-40
-0.1688388 0.14115703 0.89725006 3.7767936e-39
-0.1688388 0.14365703 0.89475006 1.8403379e-39
-0.1688388 0.14365703 0.89725006 3.5920549e-39
-0.1663388 0.14115703 0.89475006 3.3165414e-39
-0.1663388 0.14365703 0.89475006 3.0417523e-39
-0.1663388 0.14365703 0.89725006 3.0417523e-39
-0.1688388 0.14615704 0.88975006 2.8530227e-39
-0.1663388 0.14615704 0.88975006 2.8573625e-39
-0.1688388 0.14615704 0.89475006 2.852322e-39
-0.1663388 0.14615704 0.89475006 3.2243457e-39
-0.1638388 0.14365703 0.88975006 2.4910967e-39
-0.16133881 0.14365703 0.88975006 3.1346514e-39
-0.1638388 0.14115703 0.89475006 2.8580645e-39
-0.1638388 0.14115703 0.89725006 3.1342983e-39
-0.1638388 0.14365703 0.89475006 2.8580645e-39
-0.1638388 0.14365703 0.89725006 3.0421027e-39
-0.16133881 0.14115703 0.89475006 1.751717e-39
-0.16133881 0.14115703 0.89725006 1.8435595e-39
-0.16133881 0.14365703 0.89475006 5.5317378e-40
-0.16133881 0.14365703 0.89725006 1.5673313e-39
-0.1638388 0.14615704 0.88975006 2.1223142e-39
-0.1638388 0.14865704 0.88975006 2.2127007e-39
-0.16133881 0.14615704 0.88975006 2.6736733e-39
-0.1638388 0.14615704 0.89475006 2.9481176e-39
-0.16133881 0.14615704 0.89475006 1.1963908e-39
-0.1688388 0.14115703 0.89975005 3.0421279e-39
-0.1688388 0.14115703 0.90225005 3.1346514e-39
-0.1688388 0.14365703 0.89975005 3.4083712e-39
-0.1688388 0.14365703 0.90225005 3.5924024e-39
-0.1663388 0.14115703 0.89975005 3.4083839e-39
-0.1663388 0.14115703 0.90225005 3.3161882e-39
-0.1663388 0.14365703 0.89975005 3.0417523e-39
-0.1663388 0.14365703 0.90225005 3.3165414e-39
-0.1688388 0.14115703 0.90475005 3.133948e-39
-0.1663388 0.14115703 0.90475005 3.133948e-39
-0.1638388 0.14115703 0.89975005 3.0417523e-39
-0.1638388 0.14115703 0.90225005 3.0421027e-39
-0.1638388 0.14365703 0.89975005 3.0417523e-39
-0.16133881 0.14115703 0.89975005 4.4999393e-39
-0.16133881 0.14115703 0.90225005 4.4999393e-39
-0.16133881 0.14365703 0.89975005 8.2651947e-40
-0.16133881 0.14365703 0.90225005 1.0109247e-39
-0.15883879 0.14365703 0.88975006 6.4536941e-40
-0.1563388 0.14365703 0.88975006 2.1143856e-39
-0.15883879 0.14115703 0.89475006 7.3576017e-40
-0.15883879 0.14115703 0.89725006 4.6843432e-39
-0.15883879 0.14365703 0.89475006 8.2654609e-40
-0.15883879 0.14365703 0.89725006 1.836794e-40
-0.1563388 0.14115703 0.89475006 0
-0.1563388 0.14115703 0.89725006 9.7481944e-39
-0.1563388 0.14365703 0.89475006 6.4286249e-40
-0.1563388 0.14365703 0.89725006 0
-0.15883879 0.14615704 0.88975006 7.3470919e-40
-0.15883879 0.14865704 0.88975006 0
-0.1563388 0.14615704 0.88975006 1.2871641e-39
-0.1563388 0.14865704 0.88975006 2.7551209e-40
-0.15883879 0.14615704 0.89475006 1.1027728e-39
-0.15883879 0.14615704 0.89725006 1.2878704e-39
-0.15883879 0.14865704 0.89475006 9.1835496e-41
-0.15883879 0.14865704 0.89725006 5.5317378e-40
-0.1563388 0.14615704 0.89475006 1.841742e-39
-0.1563388 0.14615704 0.89725006 2.2065813e-39
-0.1563388 0.14865704 0.89475006 1.1031232e-39
-0.1538388 0.14115703 0.89725006 1.0395795e-38
-0.1513388 0.14115703 0.89475006 9.9344144e-39
-0.1513388 0.14115703 0.89725006 9.9355074e-39
-0.1513388 0.14365703 0.89725006 2.8025969e-44
-0.1513388 0.14615704 0.89725006 2.9484679e-39
-0.1513388 0.14865704 0.89725006 2.7655158e-39
-0.15883879 0.14115703 0.89975005 7.4494806e-39
-0.15883879 0.14115703 0.90225005 6.9892129e-39
-0.15883879 0.14365703 0.89975005 1.8367099e-40
-0.15883879 0.14365703 0.90225005 1.2611686e-44
-0.1563388 0.14115703 0.89975005 1.0668384e-38
-0.1563388 0.14115703 0.90225005 1.9340206e-38
-0.1563388 0.14365703 0.89975005 1.469424e-39
-0.1563388 0.14365703 0.90225005 0
-0.15883879 0.14115703 0.90475005 9.7464442e-39
-0.15883879 0.14365703 0.90475005 0
-0.15883879 0.14365703 0.90725011 9.837942e-39
-0.1563388 0.14115703 0.90475005 1.0576564e-38
-0.1563388 0.14365703 0.90475005 0
-0.1563388 0.14365703 0.90725011 0
-0.15883879 0.14615704 0.89975005 1.0109247e-39
-0.15883879 0.14865704 0.89975005 1.0105772e-39
-0.15883879 0.14865704 0.90225005 5.51034e-40
-0.1563388 0.14615704 0.89975005 2.3909725e-39
-0.1563388 0.14865704 0.90225005 8.2976067e-40
-0.15883879 0.14615704 0.90475005 1.3800674e-39
-0.15883879 0.14615704 0.90725011 1.7491988e-39
-0.15883879 0.14865704 0.90475005 1.3800674e-39
-0.15883879 0.14865704 0.90725011 1.1949685e-39
-0.1563388 0.14615704 0.90475005 2.5786092e-39
-0.1563388 0.14615704 0.90725011 3.2250478e-39
-0.1563388 0.14865704 0.90475005 2.1176324e-39
-0.1563388 0.14865704 0.90725011 2.7630018e-39
-0.1538388 0.14115703 0.89975005 9.0135511e-39
-0.1538388 0.14115703 0.90225005 8.7358908e-39
-0.1538388 0.14365703 0.90225005 2.5789567e-39
-0.1513388 0.14115703 0.89975005 7.4509898e-39
-0.1513388 0.14115703 0.90225005 7.7282857e-39
-0.1513388 0.14365703 0.89975005 2.489282e-39
-0.1513388 0.14365703 0.90225005 2.947033e-39
-0.1538388 0.14115703 0.90475005 1.048905e-38
-0.1538388 0.14365703 0.90475005 0
-0.1538388 0.14365703 0.90725011 0
-0.1513388 0.14115703 0.90475005 7.4509898e-39
-0.1513388 0.14365703 0.90475005 4.5922512e-40
-0.1513388 0.14365703 0.90725011 2.3822074e-44
-0.1538388 0.14865704 0.90225005 2.6733229e-39
-0.1513388 0.14615704 0.89975005 3.3168917e-39
-0.1513388 0.14615704 0.90225005 3.1342983e-39
-0.1513388 0.14865704 0.89975005 2.7655158e-39
-0.1513388 0.14865704 0.90225005 2.9484679e-39
-0.1538388 0.14615704 0.90475005 2.9484623e-39
-0.1538388 0.14615704 0.90725011 3.2246947e-39
-0.1538388 0.14865704 0.90475005 3.0392286e-39
-0.1538388 0.14865704 0.90725011 3.0392286e-39
-0.1513388 0.14615704 0.90475005 3.3172448e-39
-0.1513388 0.14615704 0.90725011 3.2246947e-39
-0.1513388 0.14865704 0.90475005 3.2246947e-39
-0.1513388 0.14865704 0.90725011 2.9481176e-39
-0.15883879 0.15115704 0.88975006 9.8090893e-45
-0.15883879 0.15365703 0.88975006 4.2038954e-45
-0.1563388 0.15115704 0.88975006 8.2689361e-40
-0.1563388 0.15365703 0.88975006 9.2160738e-40
-0.15883879 0.15115704 0.89475006 1.8762826e-40
-0.15883879 0.15365703 0.89725006 4.6026909e-40
-0.1563388 0.15115704 0.89475006 1.1056385e-39
-0.1563388 0.15365703 0.89475006 1.8441088e-40
-0.1563388 0.15365703 0.89725006 9.2125985e-40
-0.1563388 0.15615703 0.88975006 1.2903885e-39
-0.1538388 0.15365703 0.88975006 2.1201492e-39
-0.1513388 0.15365703 0.88975006 1.7549638e-39
-0.1538388 0.15365703 0.89475006 2.2123448e-39
-0.1538388 0.15365703 0.89725006 1.9357579e-39
-0.1513388 0.15115704 0.89725006 2.6733201e-39
-0.1513388 0.15365703 0.89475006 2.4889317e-39
-0.1513388 0.15365703 0.89725006 2.4889317e-39
-0.1538388 0.15615703 0.88975006 2.3963773e-39
-0.1513388 0.15615703 0.88975006 2.7630018e-39
-0.1538388 0.15615703 0.89475006 2.5814776e-39
-0.1538388 0.15615703 0.89725006 2.0283039e-39
-0.1538388 0.15865703 0.89475006 2.3963773e-39
-0.1513388 0.15615703 0.89725006 2.5814776e-39
-0.15883879 0.15115704 0.89975005 8.279628e-40
-0.15883879 0.15115704 0.90225005 8.2654609e-40
-0.15883879 0.15365703 0.89975005 2.7660651e-40
-0.15883879 0.15365703 0.90225005 7.3541685e-40
-0.1563388 0.15115704 0.89975005 1.6562941e-39
-0.1563388 0.15115704 0.90225005 1.2903885e-39
-0.1563388 0.15365703 0.89975005 1.5673481e-39
-0.1563388 0.15365703 0.90225005 2.0254368e-39
-0.15883879 0.15115704 0.90475005 6.4501908e-40
-0.15883879 0.15115704 0.90725011 1.1031204e-39
-0.15883879 0.15365703 0.90475005 1.6562941e-39
-0.15883879 0.15365703 0.90725011 9.2125985e-40
-0.1563388 0.15115704 0.90475005 2.0254368e-39
-0.1563388 0.15115704 0.90725011 2.3938592e-39
-0.1563388 0.15365703 0.90475005 1.9357579e-39
-0.15883879 0.15615703 0.89975005 9.4734783e-41
-0.15883879 0.15615703 0.90225005 6.4536941e-40
-0.1563388 0.15615703 0.89975005 1.1056385e-39
-0.1563388 0.15615703 0.90225005 2.1201492e-39
-0.1563388 0.15865703 0.89975005 1.6627667e-39
-0.1563388 0.15865703 0.90225005 2.2123448e-39
-0.15883879 0.15615703 0.90725011 6.4431283e-40
-0.1563388 0.15615703 0.90475005 1.8435623e-39
-0.1538388 0.15115704 0.89975005 2.9473833e-39
-0.1538388 0.15115704 0.90225005 2.947033e-39
-0.1538388 0.15365703 0.89975005 2.6708048e-39
-0.1538388 0.15365703 0.90225005 3.2239786e-39
-0.1513388 0.15115704 0.89975005 3.0406635e-39
-0.1513388 0.15115704 0.90225005 3.0406635e-39
-0.1513388 0.15365703 0.89975005 2.8580701e-39
-0.1513388 0.15365703 0.90225005 3.0406635e-39
-0.1538388 0.15115704 0.90475005 2.6708048e-39
-0.1538388 0.15115704 0.90725011 2.947033e-39
-0.1538388 0.15365703 0.90475005 3.0392286e-39
-0.1513388 0.15115704 0.90475005 2.9484679e-39
-0.1513388 0.15115704 0.90725011 2.9484679e-39
-0.1513388 0.15365703 0.90475005 3.0392342e-39
-0.1538388 0.15615703 0.89975005 2.1201492e-39
-0.1538388 0.15615703 0.90225005 3.4083712e-39
-0.1538388 0.15865703 0.89975005 2.6708048e-39
-0.1538388 0.15865703 0.90225005 2.947033e-39
-0.1513388 0.15615703 0.89975005 2.3963773e-39
-0.1513388 0.15615703 0.90225005 3.6820799e-39
-0.1538388 0.15615703 0.90475005 2.580777e-39
-0.1513388 0.15615703 0.90475005 2.5807742e-39
-0.16133881 0.16115704 0.86975008 9.8090893e-45
-0.15883879 0.16115704 0.86975008 1.2611686e-44
-0.15883879 0.16115704 0.87225008 9.8090893e-45
-0.15883879 0.16365704 0.86975008 1.5414283e-44
-0.15883879 0.16365704 0.87225008 9.8090893e-45
-0.1563388 0.16115704 0.87225008 1.8404094e-40
-0.1563388 0.16365704 0.86975008 1.8441368e-40
-0.1563388 0.16365704 0.87225008 7.3722733e-40
-0.15883879 0.16115704 0.87475008 1.4012985e-45
-0.15883879 0.16115704 0.87725008 8.4077908e-45
-0.15883879 0.16365704 0.87475008 5.6051939e-45
-0.1563388 0.16115704 0.87475008 9.1867726e-41
-0.1563388 0.16115704 0.87725008 1.821688e-44
-0.1563388 0.16365704 0.87475008 2.7589044e-40
-0.1563388 0.16365704 0.87725008 2.7554292e-40
-0.15883879 0.16615704 0.86975008 8.4077908e-45
-0.15883879 0.16865703 0.86975008 2.7623797e-40
-0.1563388 0.16615704 0.86975008 8.2689641e-40
-0.1563388 0.16615704 0.87225008 9.2125985e-40
-0.1563388 0.16865703 0.86975008 9.2160738e-40
-0.1563388 0.16865703 0.87225008 1.2903885e-39
-0.1563388 0.16615704 0.87475008 9.2160738e-40
-0.1538388 0.16365704 0.86975008 1.5666293e-39
-0.1538388 0.16365704 0.87225008 1.4751525e-39
-0.1513388 0.16115704 0.86975008 2.2123448e-39
-0.1513388 0.16115704 0.87225008 1.7506576e-39
-0.1513388 0.16365704 0.86975008 2.1201492e-39
-0.1513388 0.16365704 0.87225008 1.7506576e-39
-0.1538388 0.16115704 0.87475008 1.1045847e-39
-0.1538388 0.16115704 0.87725008 1.5666265e-39
-0.1538388 0.16365704 0.87475008 1.9357579e-39
-0.1538388 0.16365704 0.87725008 1.2903885e-39
-0.1513388 0.16115704 0.87475008 2.9466826e-39
-0.1513388 0.16115704 0.87725008 1.6631171e-39
-0.1538388 0.16615704 0.86975008 2.2116483e-39
-0.1538388 0.16615704 0.87225008 1.9350516e-39
-0.1538388 0.16865703 0.86975008 1.9357579e-39
-0.1538388 0.16865703 0.87225008 2.1201492e-39
-0.1513388 0.16615704 0.86975008 2.2123448e-39
-0.1513388 0.16615704 0.87225008 1.9357579e-39
-0.1513388 0.16865703 0.86975008 2.1201492e-39
-0.1513388 0.16865703 0.87225008 1.6627667e-39
-0.1538388 0.16615704 0.87475008 1.9350516e-39
-0.15883879 0.16115704 0.87975007 4.6097815e-40
-0.1563388 0.16115704 0.87975007 5.521172e-40
-0.1563388 0.16115704 0.88225007 1.1056385e-39
-0.1538388 0.16115704 0.87975007 1.7506576e-39
-0.1538388 0.16115704 0.88225007 1.9357579e-39
-0.1513388 0.16115704 0.87975007 2.396027e-39
-0.1513388 0.16115704 0.88225007 2.2123448e-39
-0.15883879 0.17115703 0.86975008 9.5082305e-41
-0.15883879 0.17115703 0.87225008 6.4536941e-40
-0.1563388 0.17115703 0.86975008 1.4744322e-39
-0.1563388 0.17115703 0.87225008 1.5669768e-39
-0.1538388 0.17115703 0.86975008 2.2123448e-39
-0.1538388 0.17115703 0.87225008 2.0279535e-39
-0.1513388 0.17115703 0.87225008 2.1194457e-39
-0.14383879 0.14865704 0.87475008 2.6729698e-39
-0.1413388 0.14865704 0.87475008 2.6729698e-39
-0.1413388 0.14865704 0.87725008 2.6729698e-39
-0.14633881 0.14615704 0.88725007 2.8580701e-39
-0.14633881 0.14865704 0.88725007 3.2243457e-39
-0.14383879 0.14865704 0.87975007 2.6729698e-39
-0.14383879 0.14865704 0.88225007 3.2243457e-39
-0.1413388 0.14865704 0.87975007 2.5807742e-39
-0.1413388 0.14865704 0.88225007 2.9484679e-39
-0.14383879 0.14615704 0.88725007 3.0403132e-39
-0.14383879 0.14865704 0.88475007 2.6729698e-39
-0.14383879 0.14865704 0.88725007 2.9481176e-39
-0.1413388 0.14615704 0.88475007 2.7633676e-39
-0.1413388 0.14615704 0.88725007 3.129632e-39
-0.1413388 0.14865704 0.88475007 2.3027482e-39
-0.1413388 0.14865704 0.88725007 1.9357551e-39
-0.1488388 0.15365703 0.87225008 2.4889317e-39
-0.14633881 0.15115704 0.87225008 2.5811245e-39
-0.14633881 0.15365703 0.86975008 2.2116427e-39
-0.14633881 0.15365703 0.87225008 2.947033e-39
-0.1488388 0.15365703 0.87475008 2.4889317e-39
-0.1488388 0.15365703 0.87725008 2.947033e-39
-0.14633881 0.15115704 0.87725008 3.5898842e-39
-0.14633881 0.15365703 0.87475008 2.4885786e-39
-0.14633881 0.15365703 0.87725008 2.5807742e-39
-0.1488388 0.15615703 0.86975008 2.3963829e-39
-0.1488388 0.15615703 0.87225008 2.4889289e-39
-0.1488388 0.15865703 0.86975008 2.9463295e-39
-0.1488388 0.15865703 0.87225008 2.947033e-39
-0.14633881 0.15615703 0.86975008 1.7546106e-39
-0.14633881 0.15615703 0.87225008 1.660641e-39
-0.14633881 0.15865703 0.86975008 2.119796e-39
-0.1488388 0.15615703 0.87475008 2.2119931e-39
-0.1488388 0.15615703 0.87725008 2.6708048e-39
-0.1488388 0.15865703 0.87475008 2.5811245e-39
-0.14633881 0.15615703 0.87475008 2.3963829e-39
-0.14383879 0.15115704 0.87225008 2.5804239e-39
-0.14383879 0.15365703 0.86975008 2.2116427e-39
-0.14383879 0.15365703 0.87225008 2.5804239e-39
-0.1413388 0.15115704 0.87225008 2.5804239e-39
-0.1413388 0.15365703 0.86975008 2.3963829e-39
-0.1413388 0.15365703 0.87225008 2.5804239e-39
-0.14383879 0.15115704 0.87475008 2.6729698e-39
-0.14383879 0.15115704 0.87725008 2.6726195e-39
-0.14383879 0.15365703 0.87475008 2.765171e-39
-0.14383879 0.15365703 0.87725008 2.4885786e-39
-0.1413388 0.15115704 0.87475008 2.5807742e-39
-0.1413388 0.15115704 0.87725008 2.4885786e-39
-0.1413388 0.15365703 0.87475008 2.3956739e-39
-0.1413388 0.15365703 0.87725008 2.3963829e-39
-0.14383879 0.15615703 0.86975008 1.7546106e-39
-0.14383879 0.15615703 0.87225008 2.2119931e-39
-0.14383879 0.15865703 0.86975008 1.7546106e-39
-0.1413388 0.15615703 0.86975008 2.2119931e-39
-0.1413388 0.15615703 0.87225008 2.5807742e-39
-0.1413388 0.15865703 0.86975008 1.7510135e-39
-0.14383879 0.15615703 0.87475008 2.4889289e-39
-0.1413388 0.15615703 0.87475008 2.1158514e-39
-0.1488388 0.15365703 0.88225007 2.3963829e-39
-0.14633881 0.15115704 0.87975007 3.0392342e-39
-0.14633881 0.15115704 0.88225007 2.0308374e-39
-0.14633881 0.15365703 0.87975007 2.4885786e-39
-0.14633881 0.15365703 0.88225007 2.4885786e-39
-0.1488388 0.15115704 0.88725007 3.0392286e-39
-0.1488388 0.15365703 0.88475007 2.3963773e-39
-0.1488388 0.15365703 0.88725007 2.9484679e-39
-0.14633881 0.15115704 0.88475007 3.0392286e-39
-0.14633881 0.15115704 0.88725007 2.5811245e-39
-0.14633881 0.15365703 0.88475007 2.4882282e-39
-0.14633881 0.15365703 0.88725007 2.4882282e-39
-0.1488388 0.15615703 0.87975007 2.4889317e-39
