# .PCD v0.7 - Point Cloud Data file format
VERSION 0.7
FIELDS x y z rgb
SIZE 4 4 4 4
TYPE F F F F
COUNT 1 1 1 1
WIDTH 1113
HEIGHT 1
VIEWPOINT 0 0 0 1 0 0 0
POINTS 1113
DATA ascii
0.13612348 0.14947709 0.87125009 1.44614e-42
0.13862348 0.1469771 0.87125009 1.8202867e-42
0.13862348 0.14947709 0.8687501 1.098618e-42
0.13862348 0.14947709 0.87125009 4.6026909e-40
0.13612348 0.15197709 0.8637501 1.44614e-42
0.13612348 0.15197709 0.8662501 1.8202867e-42
0.13612348 0.15447709 0.8637501 9.1845305e-41
0.13612348 0.15447709 0.8662501 1.460153e-42
0.13862348 0.15197709 0.8637501 1.44614e-42
0.13862348 0.15197709 0.8662501 7.3848429e-43
0.13862348 0.15447709 0.8637501 9.1845305e-41
0.13862348 0.15447709 0.8662501 1.8404094e-40
0.13612348 0.15197709 0.8687501 1.8202867e-42
0.13612348 0.15197709 0.87125009 3.9376487e-43
0.13862348 0.15197709 0.8687501 1.460153e-42
0.13862348 0.15197709 0.87125009 2.5265411e-42
0.13112348 0.14947709 0.87375009 1.3543403e-38
0.13362348 0.1469771 0.87375009 1.8388623e-39
0.13362348 0.14947709 0.87375009 3.6734198e-40
0.13112348 0.14947709 0.87875009 1.3725993e-38
0.13362348 0.1469771 0.87875009 8.6555922e-39
0.13362348 0.14947709 0.87875009 1.2163259e-38
0.13112348 0.15197709 0.87375009 5.1542854e-39
0.13112348 0.15447709 0.87375009 1.9285454e-39
0.13362348 0.15197709 0.87375009 1.2856969e-39
0.13362348 0.15447709 0.87375009 0
0.13112348 0.15197709 0.87875009 5.2464615e-39
0.13112348 0.15197709 0.88125008 1.5940115e-38
0.13112348 0.15447709 0.87875009 1.5111391e-38
0.13362348 0.15197709 0.87875009 9.1129298e-39
0.13612348 0.1469771 0.87375009 1.7448744e-39
0.13612348 0.14947709 0.87375009 1.4012985e-44
0.13862348 0.1469771 0.87375009 1.8370602e-40
0.13862348 0.14947709 0.87375009 1.8104776e-42
0.13612348 0.1469771 0.87875009 3.6734198e-39
0.13612348 0.1469771 0.88125008 1.1423936e-38
0.13612348 0.14947709 0.87875009 2.6632294e-39
0.13862348 0.1469771 0.87875009 1.4012985e-45
0.13862348 0.14947709 0.87875009 9.1845305e-41
0.13612348 0.15197709 0.87375009 2.5223372e-44
0.13862348 0.15197709 0.87375009 1.460153e-42
0.12112348 0.1594771 0.85125011 1.102026e-39
0.12362348 0.1594771 0.84875011 0
0.12362348 0.1594771 0.85125011 0
0.12112348 0.1619771 0.84375006 0
0.12112348 0.1644771 0.84375006 6.3590224e-39
0.12112348 0.1644771 0.84625006 9.6762658e-39
0.12362348 0.1619771 0.84375006 2.8025969e-45
0.12362348 0.1619771 0.84625006 4.2038954e-45
0.12362348 0.1644771 0.84375006 2.3946103e-39
0.12362348 0.1644771 0.84625006 2.119115e-39
0.12112348 0.1619771 0.84875011 2.1019477e-44
0.12112348 0.1619771 0.85125011 2.7550649e-40
0.12112348 0.1644771 0.84875011 0
0.12112348 0.1644771 0.85125011 0
0.12362348 0.1619771 0.84875011 0
0.12362348 0.1619771 0.85125011 4.6097815e-40
0.12362348 0.1644771 0.84875011 2.1019477e-44
0.12362348 0.1644771 0.85125011 1.4012985e-45
0.12612347 0.1594771 0.84875011 1.8369341e-40
0.12612347 0.1594771 0.85125011 2.7589044e-40
0.12862347 0.1594771 0.85125011 2.7589044e-40
0.12612347 0.1619771 0.84375006 2.7554292e-40
0.12612347 0.1619771 0.84625006 5.5176968e-40
0.12612347 0.1644771 0.84375006 2.3822074e-44
0.12612347 0.1644771 0.84625006 9.1853713e-41
0.12862347 0.1619771 0.84375006 4.5918589e-40
0.12862347 0.1619771 0.84625006 1.460153e-42
0.12862347 0.1644771 0.84375006 0
0.12862347 0.1644771 0.84625006 0
0.12612347 0.1619771 0.84875011 8.265573e-40
0.12612347 0.1619771 0.85125011 6.4396251e-40
0.12612347 0.1644771 0.84875011 7.0064923e-45
0.12612347 0.1644771 0.85125011 1.8370602e-40
0.12862347 0.1619771 0.84875011 2.7589044e-40
0.12862347 0.1619771 0.85125011 1.460153e-42
0.12862347 0.1644771 0.84875011 2.7589044e-40
0.12862347 0.1644771 0.85125011 4.5992157e-40
0.12112348 0.1594771 0.85625011 4.3263352e-39
0.12362348 0.1569771 0.85375011 8.9346117e-39
0.12362348 0.1569771 0.85625011 1.3454059e-38
0.12362348 0.1594771 0.85375011 6.7965442e-39
0.12362348 0.1594771 0.85625011 8.8445545e-39
0.12362348 0.1594771 0.8587501 8.7523589e-39
0.12112348 0.1619771 0.85375011 0
0.12112348 0.1619771 0.85625011 5.5101298e-40
0.12362348 0.1619771 0.85375011 0
0.12362348 0.1619771 0.85625011 0
0.12362348 0.1644771 0.85375011 0
0.12612347 0.1569771 0.85375011 0
0.12612347 0.1569771 0.85625011 0
0.12612347 0.1594771 0.85375011 0
0.12612347 0.1594771 0.85625011 0
0.12862347 0.1569771 0.85375011 2.7589044e-40
0.12862347 0.1569771 0.85625011 8.2654609e-40
0.12862347 0.1594771 0.85375011 4.6026909e-40
0.12862347 0.1594771 0.85625011 2.7589044e-40
0.12612347 0.1569771 0.8587501 0
0.12612347 0.1569771 0.8612501 0
0.12612347 0.1594771 0.8587501 4.5917748e-40
0.12862347 0.1569771 0.8587501 0
0.12862347 0.1569771 0.8612501 0
0.12862347 0.1594771 0.8587501 2.7731276e-40
0.12612347 0.1619771 0.85375011 1.8202867e-42
0.12612347 0.1619771 0.85625011 0
0.12612347 0.1644771 0.85375011 0
0.12862347 0.1619771 0.85375011 2.1804204e-42
0.12862347 0.1619771 0.85625011 1.8369341e-40
0.12612347 0.1619771 0.8587501 0
0.12112348 0.16697709 0.84375006 1.2162265e-38
0.12112348 0.16697709 0.84625006 1.3356134e-38
0.12112348 0.16947709 0.84375006 6.1738506e-39
0.12362348 0.16697709 0.84375006 1.4102336e-38
0.12362348 0.16697709 0.84625006 9.7641048e-39
0.12362348 0.16947709 0.84375006 1.336401e-38
0.12112348 0.16697709 0.84875011 9.7656042e-39
0.12112348 0.16697709 0.85125011 9.5815884e-39
0.12112348 0.17197709 0.84375006 1.0410496e-38
0.12112348 0.1744771 0.84375006 1.2437012e-38
0.12112348 0.1744771 0.84625006 1.4743723e-38
0.12362348 0.17197709 0.84375006 1.4651135e-38
0.12362348 0.1744771 0.84375006 1.4465315e-38
0.12612347 0.16697709 0.84375006 1.5022497e-38
0.12612347 0.16947709 0.84375006 1.7140812e-38
0.12862347 0.16697709 0.84375006 2.7550649e-40
0.12862347 0.16947709 0.84375006 2.3884768e-39
0.12612347 0.17197709 0.84375006 1.4007609e-38
0.12612347 0.1744771 0.84375006 2.3938214e-39
0.12862347 0.17197709 0.84375006 2.112229e-39
0.12862347 0.1744771 0.84375006 0
0.13112348 0.1594771 0.85125011 4.5921532e-40
0.13362348 0.1594771 0.85125011 2.8025969e-44
0.13112348 0.1619771 0.84375006 5.6051939e-45
0.13112348 0.1619771 0.84625006 1.821688e-44
0.13112348 0.1644771 0.84375006 4.2038954e-45
0.13112348 0.1644771 0.84625006 0
0.13362348 0.1619771 0.84375006 0
0.13362348 0.1619771 0.84625006 1.1210388e-44
0.13362348 0.1644771 0.84375006 0
0.13362348 0.1644771 0.84625006 0
0.13112348 0.1619771 0.84875011 0
0.13112348 0.1619771 0.85125011 1.098618e-42
0.13112348 0.1644771 0.84875011 1.4012985e-45
0.13112348 0.1644771 0.85125011 5.6051939e-45
0.13362348 0.1619771 0.84875011 0
0.13362348 0.1619771 0.85125011 0
0.13362348 0.1644771 0.84875011 0
0.13362348 0.1644771 0.85125011 1.4012985e-45
0.13612348 0.1594771 0.85125011 0
0.13612348 0.1619771 0.84625006 0
0.13612348 0.1644771 0.84375006 0
0.13612348 0.1644771 0.84625006 0
0.13612348 0.1619771 0.84875011 0
0.13612348 0.1619771 0.85125011 0
0.13612348 0.1644771 0.84875011 0
0.13612348 0.1644771 0.85125011 0
0.13862348 0.1644771 0.85125011 0
0.13112348 0.1569771 0.85375011 1.8369341e-40
0.13112348 0.1569771 0.85625011 7.3470919e-40
0.13112348 0.1594771 0.85375011 1.8369341e-40
0.13112348 0.1594771 0.85625011 1.9618179e-44
0.13362348 0.1569771 0.85375011 3.7835059e-43
0.13362348 0.1569771 0.85625011 1.098618e-42
0.13362348 0.1594771 0.85375011 3.0828566e-44
0.13362348 0.1594771 0.85625011 5.6051939e-45
0.13112348 0.1569771 0.8587501 7.3470919e-40
0.13112348 0.1569771 0.8612501 8.2654609e-40
0.13112348 0.1594771 0.8587501 1.8369341e-40
0.13362348 0.1569771 0.8587501 9.1845305e-41
0.13362348 0.1569771 0.8612501 1.8404094e-40
0.13362348 0.1594771 0.8587501 7.0064923e-45
0.13112348 0.1619771 0.85375011 9.1856516e-41
0.13112348 0.1619771 0.85625011 9.1856516e-41
0.13362348 0.1619771 0.85375011 0
0.13362348 0.1619771 0.85625011 0
0.13612348 0.1569771 0.85375011 1.4012985e-45
0.13612348 0.1569771 0.85625011 7.258726e-43
0.13612348 0.1594771 0.85375011 0
0.13612348 0.1594771 0.85625011 0
0.13862348 0.1569771 0.85375011 0
0.13862348 0.1594771 0.85375011 0
0.13862348 0.1594771 0.85625011 0
0.13612348 0.1569771 0.8587501 5.6051939e-45
0.13612348 0.1569771 0.8612501 9.1845305e-41
0.13612348 0.1594771 0.8587501 5.6051939e-45
0.13862348 0.1569771 0.8587501 0
0.13862348 0.1569771 0.8612501 0
0.13862348 0.1594771 0.8587501 0
0.13612348 0.1619771 0.85375011 0
0.13612348 0.1619771 0.85625011 0
0.13612348 0.1644771 0.85375011 0
0.13862348 0.1619771 0.85375011 0
0.13862348 0.1619771 0.85625011 0
0.13862348 0.1644771 0.85375011 0
0.13862348 0.1644771 0.85625011 0
0.13612348 0.1619771 0.8587501 0
0.13862348 0.1619771 0.8587501 0
0.13862348 0.1644771 0.8587501 0
0.13862348 0.1644771 0.8612501 0
0.13112348 0.16697709 0.84375006 0
0.13112348 0.16947709 0.84375006 0
0.13362348 0.16697709 0.84375006 0
0.13362348 0.16947709 0.84375006 3.6734899e-40
0.13362348 0.16697709 0.84875011 0
0.13112348 0.17197709 0.84375006 0
0.13112348 0.1744771 0.84375006 0
0.13362348 0.17197709 0.84375006 8.4077908e-45
0.13362348 0.1744771 0.84375006 0
0.13612348 0.16697709 0.84375006 1.4012985e-45
0.13612348 0.16697709 0.84625006 0
0.13612348 0.16947709 0.84375006 0
0.13612348 0.16947709 0.84625006 1.4012985e-45
0.13612348 0.16697709 0.84875011 0
0.13612348 0.16697709 0.85125011 0
0.13612348 0.16947709 0.84875011 1.4012985e-45
0.13612348 0.16947709 0.85125011 0
0.13862348 0.16697709 0.85125011 1.4012985e-45
0.13862348 0.16947709 0.84875011 0
0.13862348 0.16947709 0.85125011 1.4012985e-45
0.13612348 0.17197709 0.84375006 0
0.13612348 0.17197709 0.84625006 0
0.13612348 0.1744771 0.84375006 3.5815844e-39
0.13862348 0.17197709 0.84625006 9.1288191e-39
0.13862348 0.1744771 0.84375006 1.4270165e-38
0.13862348 0.1744771 0.84625006 1.3363324e-38
0.13862348 0.17197709 0.84875011 0
0.13862348 0.17197709 0.85125011 0
0.13862348 0.1744771 0.84875011 8.8533042e-39
0.13862348 0.1744771 0.85125011 9.1288149e-39
0.13612348 0.16697709 0.85375011 0
0.13612348 0.16947709 0.85375011 0
0.13862348 0.16697709 0.85375011 0
0.13862348 0.16697709 0.85625011 1.4012985e-45
0.13862348 0.16947709 0.85375011 5.6051939e-45
0.13862348 0.16947709 0.85625011 7.0064923e-45
0.13862348 0.16947709 0.8587501 0
0.13862348 0.17197709 0.85375011 0
0.13862348 0.17197709 0.85625011 0
0.13862348 0.17197709 0.8587501 0
0.13862348 0.17197709 0.8612501 0
0.13112348 0.1569771 0.8662501 2.8025969e-45
0.13362348 0.1569771 0.8662501 4.5991877e-40
0.13112348 0.1569771 0.8687501 2.8025969e-45
0.13862348 0.1569771 0.8662501 1.8369341e-40
0.13862348 0.1419771 0.88375008 1.2249774e-38
0.13862348 0.1444771 0.88375008 3.861767e-39
0.14612348 0.1319771 0.89625007 1.1789139e-38
0.14612348 0.13447709 0.89625007 4.8773258e-39
0.14862348 0.1319771 0.89375007 2.8469004e-39
0.14862348 0.1319771 0.89625007 1.0123081e-38
0.14862348 0.13447709 0.89625007 0
0.14862348 0.1319771 0.89875007 1.4834361e-38
0.14862348 0.13447709 0.89875007 1.8367099e-40
0.14862348 0.13447709 0.90125006 1.8367099e-40
0.15112348 0.1319771 0.89625007 0
0.15112348 0.1319771 0.89875007 0
0.15112348 0.13447709 0.89875007 0
0.15112348 0.13447709 0.90125006 0
0.15362348 0.13447709 0.90125006 6.4287089e-40
0.14862348 0.1319771 0.90375006 1.4835077e-38
0.14862348 0.1319771 0.90625006 1.7225817e-38
0.14862348 0.13447709 0.90375006 1.8367099e-40
0.14862348 0.13447709 0.90625006 1.1327812e-38
0.14862348 0.1319771 0.90875006 1.7227619e-38
0.14862348 0.13447709 0.90875006 1.1510395e-38
0.15112348 0.1319771 0.90375006 9.1835496e-40
0.15112348 0.1319771 0.90625006 1.2856969e-39
0.15112348 0.13447709 0.90375006 0
0.15112348 0.13447709 0.90625006 3.1224069e-39
0.15362348 0.1319771 0.90375006 0
0.15362348 0.13447709 0.90375006 2.7589044e-40
0.15362348 0.13447709 0.90625006 0
0.15112348 0.1319771 0.90875006 2.9394533e-39
0.15112348 0.13447709 0.90875006 1.1225841e-38
0.15362348 0.1319771 0.90875006 0
0.15362348 0.13447709 0.90875006 0
0.15612347 0.1319771 0.90625006 6.4429742e-40
0.15612347 0.13447709 0.90625006 1.2882403e-39
0.15612347 0.1319771 0.90875006 5.521172e-40
0.15612347 0.13447709 0.90875006 1.4715568e-39
0.15862347 0.1319771 0.90875006 1.821688e-44
0.15862347 0.13447709 0.90875006 1.2871641e-39
0.15362348 0.1319771 0.91375011 0
0.15612347 0.1319771 0.91375011 0
0.15612347 0.13447709 0.91375011 6.4538482e-40
0.15862347 0.1319771 0.91375011 0
0.15862347 0.13447709 0.91375011 2.7589044e-40
0.16112348 0.1319771 0.90875006 0
0.16112348 0.13447709 0.90875006 0
0.16362348 0.13447709 0.90875006 0
0.16612348 0.13447709 0.90875006 1.1617726e-38
0.16112348 0.1319771 0.91375011 0
0.16112348 0.13447709 0.91375011 0
0.16362348 0.1319771 0.91375011 4.5917748e-40
0.16362348 0.13447709 0.91375011 0
0.16112348 0.1319771 0.91875011 6.0612086e-39
0.16112348 0.13447709 0.91875011 0
0.16362348 0.1319771 0.91875011 4.5917748e-40
0.16362348 0.13447709 0.91875011 0
0.16612348 0.13447709 0.91375011 1.1618444e-38
0.16612348 0.13447709 0.91875011 1.1795276e-38
0.14112347 0.15447709 0.8612501 0
0.14862348 0.15447709 0.85625011 6.4285128e-40
0.14862348 0.15447709 0.8587501 7.350441e-40
0.15112348 0.15447709 0.85375011 8.4077908e-45
0.15112348 0.15447709 0.85625011 2.7623797e-40
0.15362348 0.15447709 0.85375011 6.4286249e-40
0.15362348 0.15447709 0.85625011 4.5992157e-40
0.15112348 0.15447709 0.8587501 7.3504691e-40
0.15362348 0.15447709 0.8587501 6.4286249e-40
0.15612347 0.15447709 0.85625011 2.7589044e-40
0.15612347 0.15447709 0.8587501 7.3470078e-40
0.15612347 0.15447709 0.8612501 4.6026909e-40
0.15862347 0.15447709 0.8612501 4.6026909e-40
0.14112347 0.1444771 0.87375009 3.6950839e-40
0.14112347 0.1419771 0.87875009 3.3060779e-39
0.14112347 0.1419771 0.88125008 3.3060779e-39
0.14112347 0.1444771 0.87875009 0
0.14112347 0.1444771 0.88125008 0
0.14362347 0.1419771 0.88125008 5.6051939e-45
0.14362347 0.1444771 0.87875009 2.7658689e-40
0.14362347 0.1444771 0.88125008 5.521172e-40
0.14112347 0.14947709 0.87125009 9.1845305e-41
0.14112347 0.15197709 0.8637501 8.4077908e-45
0.14112347 0.15197709 0.8662501 0
0.14112347 0.15447709 0.8637501 0
0.14112347 0.15447709 0.8662501 0
0.14362347 0.15447709 0.8662501 0
0.14112347 0.15197709 0.8687501 2.7623797e-40
0.14112347 0.15197709 0.87125009 4.6097815e-40
0.14112347 0.15447709 0.87125009 7.0064923e-45
0.14362347 0.15197709 0.8687501 0
0.14362347 0.15197709 0.87125009 5.6051939e-45
0.14362347 0.15447709 0.8687501 0
0.14362347 0.15447709 0.87125009 4.2038954e-45
0.14112347 0.1469771 0.87375009 2.5265411e-42
0.14112347 0.14947709 0.87375009 1.460153e-42
0.14362347 0.14947709 0.87375009 2.7623797e-40
0.14112347 0.1469771 0.87875009 6.4501908e-40
0.14112347 0.1469771 0.88125008 2.7659109e-40
0.14112347 0.14947709 0.87875009 2.1706113e-42
0.14362347 0.1469771 0.87875009 4.6026909e-40
0.14362347 0.1469771 0.88125008 4.5992157e-40
0.14362347 0.14947709 0.87875009 9.1845305e-41
0.14362347 0.14947709 0.88125008 2.7623797e-40
0.14112347 0.15197709 0.87375009 9.1845305e-41
0.14112347 0.15447709 0.87375009 0
0.14362347 0.15197709 0.87375009 0
0.14362347 0.15447709 0.87375009 0
0.14362347 0.15197709 0.87875009 1.8404094e-40
0.14612348 0.1469771 0.87875009 4.6097815e-40
0.14612348 0.1469771 0.88125008 2.7623797e-40
0.14612348 0.14947709 0.87875009 2.7658689e-40
0.14612348 0.14947709 0.88125008 9.1845305e-41
0.14862348 0.1469771 0.88125008 0
0.14862348 0.14947709 0.87875009 0
0.14862348 0.14947709 0.88125008 7.0064923e-45
0.14612348 0.15197709 0.87375009 7.1746481e-43
0.14612348 0.15447709 0.87375009 0
0.14612348 0.15197709 0.87875009 0
0.14612348 0.15197709 0.88125008 2.7658689e-40
0.14612348 0.15447709 0.87875009 0
0.14862348 0.15197709 0.87875009 0
0.14862348 0.15197709 0.88125008 0
0.14862348 0.15447709 0.87875009 0
0.14862348 0.15447709 0.88125008 0
0.15612347 0.15447709 0.8637501 4.5992157e-40
0.15862347 0.15447709 0.8637501 4.6097815e-40
0.15862347 0.15447709 0.8662501 2.8866748e-42
0.15862347 0.15447709 0.8687501 2.7658689e-40
0.15862347 0.15447709 0.87125009 4.6026909e-40
0.15112348 0.14947709 0.88125008 0
0.15112348 0.15197709 0.88125008 0
0.15112348 0.15447709 0.88125008 0
0.15362348 0.15447709 0.88125008 1.8439126e-40
0.15612347 0.15447709 0.87375009 4.6026909e-40
0.15862347 0.15197709 0.87375009 7.3470078e-40
0.15862347 0.15447709 0.87375009 4.6026909e-40
0.15862347 0.15447709 0.87875009 4.6026909e-40
0.14362347 0.1644771 0.84375006 9.1845305e-41
0.14362347 0.1644771 0.84625006 1.9618179e-44
0.14612348 0.1644771 0.84375006 3.7835059e-43
0.14612348 0.1644771 0.84625006 2.7589044e-40
0.14862348 0.1619771 0.84625006 1.8439126e-40
0.14862348 0.1644771 0.84375006 9.1845305e-41
0.14862348 0.1644771 0.84625006 1.8404094e-40
0.14612348 0.1619771 0.84875011 1.8404094e-40
0.14612348 0.1644771 0.84875011 1.9618179e-44
0.14612348 0.1644771 0.85125011 1.8404094e-40
0.14862348 0.1619771 0.84875011 1.44614e-42
0.14862348 0.1619771 0.85125011 6.4287089e-40
0.14862348 0.1644771 0.84875011 2.7589044e-40
0.14862348 0.1644771 0.85125011 2.7623797e-40
0.14112347 0.1569771 0.8612501 0
0.14112347 0.1594771 0.8587501 0
0.14112347 0.1594771 0.8612501 0
0.14362347 0.1594771 0.8612501 0
0.14112347 0.1619771 0.8612501 0
0.14112347 0.1644771 0.8587501 0
0.14112347 0.1644771 0.8612501 0
0.14362347 0.1644771 0.8612501 0
0.14862348 0.1569771 0.85375011 9.1845305e-41
0.14862348 0.1594771 0.85375011 9.1845305e-41
0.14862348 0.1594771 0.85625011 1.8404094e-40
0.14862348 0.1594771 0.8587501 9.1845305e-41
0.14862348 0.1619771 0.85375011 1.8404094e-40
0.14862348 0.1619771 0.85625011 1.8404094e-40
0.14862348 0.1644771 0.85375011 2.7623797e-40
0.14862348 0.1644771 0.85625011 6.4286249e-40
0.14612348 0.1644771 0.8612501 1.8404094e-40
0.14862348 0.1619771 0.8587501 9.1845305e-41
0.14862348 0.1619771 0.8612501 2.7589044e-40
0.14862348 0.1644771 0.8587501 2.7623797e-40
0.14862348 0.1644771 0.8612501 1.8369341e-40
0.14362347 0.16697709 0.84375006 8.4077908e-45
0.14362347 0.16947709 0.84375006 7.0064923e-45
0.14112347 0.17197709 0.84375006 1.1432643e-38
0.14112347 0.17197709 0.84625006 1.1615593e-38
0.14112347 0.1744771 0.84375006 1.5392332e-38
0.14112347 0.1744771 0.84625006 1.5757559e-38
0.14362347 0.17197709 0.84375006 1.1519807e-38
0.14112347 0.1744771 0.84875011 1.115462e-38
0.14112347 0.1744771 0.85125011 1.5481323e-38
0.14612348 0.16697709 0.84375006 1.8369341e-40
0.14612348 0.16947709 0.84375006 0
0.14862348 0.16697709 0.84375006 2.7589044e-40
0.14612348 0.16697709 0.85125011 1.8369341e-40
0.14862348 0.16697709 0.84875011 3.9376487e-43
0.14862348 0.16697709 0.85125011 2.1019477e-44
0.14112347 0.16947709 0.85625011 0
0.14112347 0.16697709 0.8587501 5.6051939e-45
0.14112347 0.16697709 0.8612501 0
0.14112347 0.16947709 0.8587501 5.6051939e-45
0.14112347 0.16947709 0.8612501 5.6051939e-45
0.14362347 0.16697709 0.8587501 5.6051939e-45
0.14362347 0.16697709 0.8612501 5.6051939e-45
0.14362347 0.16947709 0.8587501 7.0064923e-45
0.14362347 0.16947709 0.8612501 4.5918589e-40
0.14112347 0.17197709 0.85375011 4.4264846e-39
0.14112347 0.17197709 0.85625011 0
0.14112347 0.1744771 0.85375011 1.1337932e-38
0.14112347 0.1744771 0.85625011 9.3066985e-39
0.14362347 0.17197709 0.85375011 9.1262561e-39
0.14362347 0.17197709 0.85625011 0
0.14362347 0.1744771 0.85375011 1.2160507e-38
0.14362347 0.1744771 0.85625011 1.1700248e-38
0.14112347 0.17197709 0.8587501 1.5414283e-44
0.14112347 0.17197709 0.8612501 0
0.14362347 0.17197709 0.8587501 1.4012985e-44
0.14362347 0.17197709 0.8612501 1.4012985e-45
0.14362347 0.1744771 0.8587501 9.6758398e-39
0.14362347 0.1744771 0.8612501 9.0329885e-39
0.14612348 0.16697709 0.85625011 7.0064923e-45
0.14612348 0.16947709 0.85375011 8.4077908e-45
0.14862348 0.16697709 0.85375011 1.8369341e-40
0.14862348 0.16697709 0.85625011 1.9618179e-44
0.14612348 0.16697709 0.8587501 1.9618179e-44
0.14612348 0.16697709 0.8612501 1.8404094e-40
0.14612348 0.16947709 0.8612501 8.4077908e-45
0.14862348 0.16697709 0.8587501 1.8369341e-40
0.14862348 0.16697709 0.8612501 2.7589044e-40
0.14862348 0.16947709 0.8612501 2.7589044e-40
0.14612348 0.17197709 0.8587501 9.8090893e-45
0.14612348 0.17197709 0.8612501 5.6051939e-45
0.14612348 0.1744771 0.8587501 6.7274293e-39
0.14612348 0.1744771 0.8612501 2.6704531e-39
0.15112348 0.1594771 0.85125011 2.7623797e-40
0.15362348 0.1594771 0.85125011 2.7623797e-40
0.15112348 0.1619771 0.84375006 2.7623797e-40
0.15112348 0.1619771 0.84625006 2.7589044e-40
0.15112348 0.1644771 0.84375006 4.5992157e-40
0.15112348 0.1644771 0.84625006 2.7589044e-40
0.15362348 0.1619771 0.84625006 2.7589044e-40
0.15362348 0.1644771 0.84375006 4.5918589e-40
0.15362348 0.1644771 0.84625006 2.7623797e-40
0.15112348 0.1619771 0.84875011 1.8404094e-40
0.15112348 0.1619771 0.85125011 2.7623797e-40
0.15112348 0.1644771 0.84875011 2.7589044e-40
0.15112348 0.1644771 0.85125011 2.7554292e-40
0.15362348 0.1619771 0.84875011 2.7589044e-40
0.15362348 0.1619771 0.85125011 2.7623797e-40
0.15362348 0.1644771 0.84875011 7.0064923e-45
0.15362348 0.1644771 0.85125011 1.8404094e-40
0.15612347 0.1594771 0.85125011 4.6026909e-40
0.15862347 0.1594771 0.84875011 7.347204e-40
0.15862347 0.1594771 0.85125011 7.3470919e-40
0.15612347 0.1619771 0.84625006 7.0064923e-45
0.15612347 0.1644771 0.84375006 3.1314242e-39
0.15612347 0.1644771 0.84625006 3.673602e-40
0.15862347 0.1619771 0.84375006 7.3681114e-39
0.15862347 0.1619771 0.84625006 4.332138e-39
0.15862347 0.1644771 0.84375006 7.0954481e-39
0.15862347 0.1644771 0.84625006 2.2987769e-39
0.15612347 0.1619771 0.84875011 1.8404094e-40
0.15612347 0.1619771 0.85125011 8.2689361e-40
0.15612347 0.1644771 0.85125011 8.4077908e-45
0.15862347 0.1619771 0.84875011 1.7448912e-39
0.15862347 0.1619771 0.85125011 1.8368781e-40
0.15862347 0.1644771 0.85125011 5.6051939e-45
0.15112348 0.1569771 0.85375011 9.1845305e-41
0.15112348 0.1569771 0.85625011 1.8404094e-40
0.15112348 0.1594771 0.85375011 4.6026909e-40
0.15112348 0.1594771 0.85625011 1.8369341e-40
0.15362348 0.1569771 0.85375011 2.7623797e-40
0.15362348 0.1569771 0.85625011 6.4285968e-40
0.15362348 0.1594771 0.85375011 4.6026909e-40
0.15362348 0.1594771 0.85625011 2.7623797e-40
0.15112348 0.1569771 0.8587501 1.8404094e-40
0.15112348 0.1569771 0.8612501 6.4285968e-40
0.15112348 0.1594771 0.8587501 1.9618179e-44
0.15112348 0.1594771 0.8612501 9.1845305e-41
0.15362348 0.1569771 0.8587501 2.7623797e-40
0.15362348 0.1569771 0.8612501 1.8404094e-40
0.15362348 0.1594771 0.8587501 2.7623797e-40
0.15112348 0.1619771 0.85375011 1.8369341e-40
0.15112348 0.1619771 0.85625011 1.8369341e-40
0.15112348 0.1644771 0.85375011 1.8404094e-40
0.15362348 0.1619771 0.85375011 1.8404094e-40
0.15362348 0.1619771 0.85625011 6.4286249e-40
0.15112348 0.1619771 0.8587501 8.4077908e-45
0.15112348 0.1619771 0.8612501 4.5918869e-40
0.15612347 0.1569771 0.85375011 2.7623797e-40
0.15612347 0.1569771 0.85625011 2.7589044e-40
0.15612347 0.1594771 0.85375011 4.6026909e-40
0.15612347 0.1594771 0.85625011 1.8404094e-40
0.15862347 0.1569771 0.85625011 1.8369341e-40
0.15862347 0.1594771 0.85375011 2.7589044e-40
0.15862347 0.1594771 0.85625011 1.1031204e-39
0.15612347 0.1569771 0.8587501 8.2689361e-40
0.15612347 0.1569771 0.8612501 2.7623797e-40
0.15612347 0.1594771 0.8587501 5.521172e-40
0.15862347 0.1569771 0.8587501 7.3469798e-40
0.15862347 0.1569771 0.8612501 2.7623797e-40
0.15862347 0.1594771 0.8587501 1.8404094e-40
0.15612347 0.1619771 0.85375011 2.7623797e-40
0.15612347 0.1619771 0.85625011 7.3470078e-40
0.15862347 0.1619771 0.85375011 6.4284847e-40
0.15862347 0.1619771 0.85625011 1.2856997e-39
0.15112348 0.16697709 0.84375006 4.5992157e-40
0.15362348 0.16697709 0.84375006 1.1960251e-39
0.15362348 0.16947709 0.84375006 2.7565306e-39
0.15612347 0.16697709 0.84375006 6.9117954e-39
0.15612347 0.16947709 0.84375006 7.0043497e-39
0.15862347 0.16697709 0.84375006 2.3945682e-39
0.15862347 0.16947709 0.84375006 8.268782e-40
0.14112347 0.1569771 0.8637501 0
0.14112347 0.1569771 0.8662501 0
0.14112347 0.1594771 0.8637501 0
0.14112347 0.1594771 0.8662501 0
0.14362347 0.1569771 0.8662501 0
0.14362347 0.1594771 0.8662501 0
0.14362347 0.1569771 0.8687501 0
0.14362347 0.1569771 0.87125009 0
0.14362347 0.1594771 0.8687501 0
0.14362347 0.1594771 0.87125009 0
0.14112347 0.1619771 0.8637501 0
0.14112347 0.1644771 0.8637501 0
0.14362347 0.1619771 0.8637501 9.1835496e-41
0.14362347 0.1619771 0.8662501 0
0.14362347 0.1644771 0.8637501 4.2038954e-45
0.14362347 0.1644771 0.8662501 0
0.14362347 0.1619771 0.8687501 0
0.14362347 0.1619771 0.87125009 0
0.14362347 0.1644771 0.8687501 0
0.14362347 0.1644771 0.87125009 4.2038954e-45
0.14612348 0.1594771 0.87125009 0
0.14862348 0.1619771 0.8637501 6.4286249e-40
0.14862348 0.1644771 0.8637501 6.4285968e-40
0.14612348 0.1619771 0.87125009 0
0.14612348 0.1644771 0.8687501 6.4285968e-40
0.14612348 0.1644771 0.87125009 7.0064923e-45
0.14862348 0.1619771 0.87125009 7.0064923e-45
0.14862348 0.1644771 0.8687501 6.4285968e-40
0.14862348 0.1644771 0.87125009 9.1845305e-41
0.14362347 0.1569771 0.87375009 0
0.14362347 0.1594771 0.87375009 0
0.14362347 0.1619771 0.87375009 0
0.14612348 0.1569771 0.87375009 0
0.14612348 0.1594771 0.87375009 0
0.14862348 0.1594771 0.87375009 7.0064923e-45
0.14612348 0.1569771 0.87875009 0
0.14612348 0.1569771 0.88125008 0
0.14612348 0.1594771 0.87875009 0
0.14862348 0.1569771 0.87875009 0
0.14862348 0.1569771 0.88125008 0
0.14862348 0.1594771 0.87875009 0
0.14862348 0.1594771 0.88125008 0
0.14612348 0.1619771 0.87375009 0
0.14612348 0.1644771 0.87375009 4.2038954e-45
0.14862348 0.1619771 0.87375009 8.4077908e-45
0.14862348 0.1644771 0.87375009 0
0.14612348 0.1619771 0.87875009 1.4012985e-45
0.14862348 0.1619771 0.87875009 1.4012985e-45
0.14862348 0.1644771 0.87875009 5.6051939e-45
0.14362347 0.16697709 0.8637501 0
0.14362347 0.16947709 0.8637501 6.4285968e-40
0.14362347 0.16697709 0.8687501 0
0.14362347 0.17197709 0.8637501 1.4012985e-45
0.14362347 0.1744771 0.8637501 8.8486071e-39
0.14612348 0.16697709 0.8637501 9.1845305e-41
0.14612348 0.16697709 0.8662501 9.1845305e-41
0.14612348 0.16947709 0.8637501 6.4287089e-40
0.14612348 0.16947709 0.8662501 9.1845305e-41
0.14862348 0.16697709 0.8637501 8.4077908e-45
0.14862348 0.16697709 0.8662501 1.8404094e-40
0.14862348 0.16947709 0.8637501 1.8369341e-40
0.14862348 0.16947709 0.8662501 8.4077908e-45
0.14612348 0.16697709 0.8687501 9.1845305e-41
0.14612348 0.16697709 0.87125009 8.4077908e-45
0.14612348 0.16947709 0.8687501 9.1845305e-41
0.14862348 0.16697709 0.8687501 9.1845305e-41
0.14862348 0.16697709 0.87125009 1.8404094e-40
0.14862348 0.16947709 0.8687501 1.8369341e-40
0.14612348 0.17197709 0.8637501 0
0.14612348 0.17197709 0.8662501 2.8025969e-45
0.14612348 0.1744771 0.8637501 7.0064923e-45
0.14862348 0.17197709 0.8637501 0
0.14862348 0.17197709 0.8662501 2.6624671e-44
0.14862348 0.1744771 0.8637501 1.4012985e-45
0.14612348 0.17197709 0.8687501 0
0.14612348 0.1744771 0.8687501 2.9427268e-44
0.14862348 0.17197709 0.8687501 0
0.14862348 0.1744771 0.8687501 2.5223372e-44
0.14862348 0.1744771 0.87125009 5.6051939e-45
0.14612348 0.16697709 0.87375009 7.0064923e-45
0.14862348 0.16697709 0.87375009 8.4077908e-45
0.15362348 0.1569771 0.8637501 9.1856516e-41
0.15112348 0.1619771 0.8687501 9.1845305e-41
0.15112348 0.1619771 0.87125009 9.1845305e-41
0.15112348 0.1644771 0.8687501 6.4287089e-40
0.15112348 0.1644771 0.87125009 7.3470919e-40
0.15612347 0.1569771 0.8637501 2.7589044e-40
0.15612347 0.1569771 0.8662501 1.8404094e-40
0.15862347 0.1569771 0.8637501 1.8404094e-40
0.15862347 0.1569771 0.8662501 1.460153e-42
0.15862347 0.1569771 0.8687501 4.6026909e-40
0.15862347 0.1569771 0.87125009 4.5992157e-40
0.15112348 0.1569771 0.87875009 0
0.15112348 0.1569771 0.88125008 0
0.15112348 0.1594771 0.87875009 0
0.15112348 0.1594771 0.88125008 2.7658689e-40
0.15362348 0.1569771 0.87875009 0
0.15362348 0.1569771 0.88125008 0
0.15362348 0.1594771 0.87875009 2.7658689e-40
0.15362348 0.1594771 0.88125008 7.258726e-43
0.15112348 0.1619771 0.87375009 9.1845305e-41
0.15112348 0.1644771 0.87375009 1.8369341e-40
0.15362348 0.1619771 0.87375009 6.4286249e-40
0.15362348 0.1644771 0.87375009 2.7589044e-40
0.15112348 0.1619771 0.87875009 9.1845305e-41
0.15112348 0.1619771 0.88125008 7.0064923e-45
0.15112348 0.1644771 0.87875009 6.4286249e-40
0.15362348 0.1619771 0.87875009 2.7623797e-40
0.15362348 0.1619771 0.88125008 1.8404094e-40
0.15362348 0.1644771 0.87875009 5.5102559e-40
0.15612347 0.1569771 0.87375009 1.8404094e-40
0.15612347 0.1594771 0.87375009 2.7589044e-40
0.15862347 0.1569771 0.87375009 4.6026909e-40
0.15862347 0.1594771 0.87375009 2.7589044e-40
0.15612347 0.1569771 0.87875009 2.7623797e-40
0.15612347 0.1569771 0.88125008 4.6026909e-40
0.15612347 0.1594771 0.87875009 2.7623797e-40
0.15612347 0.1594771 0.88125008 2.7623797e-40
0.15862347 0.1569771 0.87875009 2.7623797e-40
0.15862347 0.1569771 0.88125008 4.6026909e-40
0.15862347 0.1594771 0.88125008 1.8104776e-42
0.15612347 0.1619771 0.87875009 1.460153e-42
0.15612347 0.1619771 0.88125008 1.8369341e-40
0.15112348 0.16697709 0.8637501 1.8404094e-40
0.15112348 0.16697709 0.8687501 1.9618179e-44
0.15112348 0.16697709 0.87125009 1.8370602e-40
0.15112348 0.16947709 0.8687501 2.7589044e-40
0.15112348 0.16947709 0.87125009 1.8369341e-40
0.15112348 0.17197709 0.8687501 1.460153e-42
0.15112348 0.1744771 0.8687501 4.2038954e-45
0.15112348 0.1744771 0.87125009 2.6624671e-44
0.16112348 0.15447709 0.8637501 2.5265411e-42
0.16112348 0.15447709 0.8662501 5.521172e-40
0.16362348 0.15447709 0.8637501 0
0.16362348 0.15447709 0.8662501 5.521172e-40
0.16112348 0.15197709 0.8687501 2.8866748e-42
0.16112348 0.15197709 0.87125009 5.5282345e-40
0.16112348 0.15447709 0.8687501 5.5282345e-40
0.16112348 0.15447709 0.87125009 6.4536941e-40
0.16362348 0.15197709 0.8687501 2.8866748e-42
0.16362348 0.15197709 0.87125009 5.5282345e-40
0.16362348 0.15447709 0.8687501 5.5282345e-40
0.16362348 0.15447709 0.87125009 6.4501908e-40
0.16612348 0.15447709 0.8637501 0
0.16612348 0.15447709 0.8662501 0
0.16862348 0.15197709 0.8662501 7.2805877e-39
0.16862348 0.15447709 0.8637501 9.2080443e-39
0.16862348 0.15447709 0.8662501 9.1180151e-39
0.16612348 0.15197709 0.8687501 1.4012985e-45
0.16612348 0.15197709 0.87125009 5.6051939e-45
0.16612348 0.15447709 0.8687501 1.8404094e-40
0.16612348 0.15447709 0.87125009 0
0.16862348 0.15197709 0.8687501 9.18397e-41
0.16862348 0.15197709 0.87125009 8.2651947e-40
0.16862348 0.15447709 0.8687501 2.5728456e-39
0.16862348 0.15447709 0.87125009 0
0.16362348 0.1469771 0.88125008 6.4501908e-40
0.16362348 0.14947709 0.87875009 9.5082305e-41
0.16362348 0.14947709 0.88125008 6.4501908e-40
0.16112348 0.15197709 0.87375009 5.5282345e-40
0.16112348 0.15447709 0.87375009 4.6097815e-40
0.16362348 0.15197709 0.87375009 6.4501908e-40
0.16362348 0.15447709 0.87375009 2.5265411e-42
0.16112348 0.15197709 0.87875009 5.521172e-40
0.16112348 0.15197709 0.88125008 2.8866748e-42
0.16112348 0.15447709 0.87875009 5.5282345e-40
0.16112348 0.15447709 0.88125008 4.6026909e-40
0.16362348 0.15197709 0.87875009 9.5082305e-41
0.16362348 0.15197709 0.88125008 9.5082305e-41
0.16362348 0.15447709 0.87875009 5.5282345e-40
0.16612348 0.1469771 0.88125008 8.2941034e-40
0.16612348 0.14947709 0.87875009 2.8866748e-42
0.16612348 0.14947709 0.88125008 5.5282345e-40
0.16862348 0.1469771 0.87875009 6.4501908e-40
0.16862348 0.1469771 0.88125008 6.4501908e-40
0.16862348 0.14947709 0.87875009 6.4501908e-40
0.16862348 0.14947709 0.88125008 6.4501908e-40
0.16612348 0.15197709 0.87375009 2.7623797e-40
0.16612348 0.15447709 0.87375009 1.8104776e-42
0.16862348 0.15197709 0.87375009 8.2652507e-40
0.16862348 0.15447709 0.87375009 0
0.16612348 0.15197709 0.87875009 9.5082305e-41
0.16612348 0.15197709 0.88125008 6.4501908e-40
0.16612348 0.15447709 0.87875009 1.8404094e-40
0.16862348 0.15197709 0.87875009 7.258726e-43
0.17112347 0.15197709 0.8662501 7.8337601e-39
0.17112347 0.15447709 0.8637501 0
0.17112347 0.15447709 0.8662501 8.4744449e-39
0.17362347 0.15197709 0.8662501 5.2522824e-39
0.17362347 0.15447709 0.8662501 0
0.17112347 0.15197709 0.8687501 8.0170751e-39
0.17112347 0.15197709 0.87125009 6.8174319e-39
0.17112347 0.15447709 0.8687501 8.0156122e-39
0.17112347 0.15447709 0.87125009 7.1883907e-39
0.17362347 0.15197709 0.8687501 8.3046552e-40
0.17362347 0.15447709 0.8687501 1.0101905e-39
0.17362347 0.15447709 0.87125009 0
0.17612348 0.15447709 0.87125009 0
0.17112347 0.1469771 0.87875009 1.2878704e-39
0.17112347 0.1469771 0.88125008 1.1063476e-39
0.17112347 0.14947709 0.87875009 0
0.17112347 0.14947709 0.88125008 6.4501908e-40
0.17362347 0.1469771 0.88125008 1.8404094e-40
0.17362347 0.14947709 0.87875009 1.4694198e-39
0.17362347 0.14947709 0.88125008 5.6051939e-45
0.17112347 0.15197709 0.87375009 4.8799042e-39
0.17112347 0.15447709 0.87375009 7.6511625e-39
0.17362347 0.15197709 0.87375009 7.554997e-39
0.17362347 0.15447709 0.87375009 5.6228572e-39
0.17112347 0.15197709 0.87875009 5.2486853e-39
0.17362347 0.15197709 0.87875009 7.9215963e-39
0.17362347 0.15197709 0.88125008 1.4694254e-39
0.17362347 0.15447709 0.87875009 7.3677218e-39
0.17612348 0.1469771 0.88125008 5.3405292e-39
0.17612348 0.14947709 0.87875009 7.8280484e-39
0.17612348 0.14947709 0.88125008 8.5587246e-39
0.17862348 0.14947709 0.87875009 1.2068232e-38
0.17862348 0.14947709 0.88125008 1.4736902e-38
0.17612348 0.15197709 0.87375009 3.2221597e-39
0.17612348 0.15447709 0.87375009 0
0.17612348 0.15197709 0.87875009 7.3673295e-39
0.17612348 0.15197709 0.88125008 7.1818606e-39
0.17612348 0.15447709 0.87875009 2.6711551e-39
0.17612348 0.15447709 0.88125008 8.1059875e-39
0.17862348 0.15197709 0.87875009 6.4468179e-39
0.17862348 0.15197709 0.88125008 6.3589327e-39
0.17862348 0.15447709 0.87875009 0
0.17862348 0.15447709 0.88125008 0
0.16362348 0.1594771 0.84625006 2.0290101e-39
0.16112348 0.1594771 0.84875011 3.9629645e-39
0.16112348 0.1594771 0.85125011 4.2406136e-39
0.16362348 0.1594771 0.84875011 4.0576615e-39
0.16362348 0.1594771 0.85125011 4.3328092e-39
0.16112348 0.1619771 0.84375006 1.1020512e-39
0.16112348 0.1619771 0.84625006 4.7956427e-39
0.16112348 0.1644771 0.84375006 0
0.16112348 0.1644771 0.84625006 7.2802051e-39
0.16362348 0.1619771 0.84375006 1.4349296e-42
0.16362348 0.1619771 0.84625006 5.5711143e-40
0.16362348 0.1644771 0.84375006 1.5414283e-44
0.16362348 0.1644771 0.84625006 0
0.16112348 0.1619771 0.84875011 5.0711506e-39
0.16112348 0.1619771 0.85125011 4.8881859e-39
0.16362348 0.1619771 0.84875011 7.3755383e-40
0.16362348 0.1619771 0.85125011 3.1357654e-39
0.16612348 0.1594771 0.84625006 0
0.16612348 0.1594771 0.84875011 0
0.16612348 0.1594771 0.85125011 2.8594714e-39
0.16612348 0.1619771 0.84375006 1.8496355e-39
0.16612348 0.1644771 0.84625006 4.055163e-39
0.16612348 0.1619771 0.85125011 1.1102768e-39
0.16112348 0.1594771 0.85625011 1.472263e-39
0.16362348 0.1594771 0.85625011 4.3299674e-39
0.16112348 0.1569771 0.8587501 1.0109247e-39
0.16112348 0.1569771 0.8612501 8.2689361e-40
0.16112348 0.1594771 0.8587501 8.2724394e-40
0.16362348 0.1569771 0.8612501 9.1835496e-41
0.16362348 0.1594771 0.8587501 1.6562941e-39
0.16362348 0.1594771 0.8612501 1.2871641e-39
0.16112348 0.1619771 0.85375011 5.1604343e-39
0.16112348 0.1619771 0.85625011 3.6817113e-39
0.16362348 0.1619771 0.85375011 5.3466431e-39
0.16362348 0.1619771 0.85625011 4.2399102e-39
0.16362348 0.1644771 0.85375011 1.1031106e-39
0.16362348 0.1644771 0.85625011 5.5137451e-40
0.16362348 0.1619771 0.8587501 4.7909161e-39
0.16612348 0.1594771 0.85625011 0
0.16612348 0.1569771 0.8612501 4.7008799e-39
0.16612348 0.1594771 0.8587501 2.8605322e-39
0.16612348 0.1594771 0.8612501 4.0543993e-39
0.16862348 0.1569771 0.8612501 3.2257484e-39
0.16862348 0.1594771 0.8587501 0
0.16862348 0.1594771 0.8612501 9.1835496e-41
0.16612348 0.1619771 0.85375011 9.2588834e-40
0.16612348 0.1619771 0.85625011 2.0293576e-39
0.16612348 0.1644771 0.85375011 2.8698593e-42
0.16862348 0.1619771 0.85375011 0
0.16862348 0.1619771 0.85625011 2.0257829e-39
0.16612348 0.1619771 0.8612501 3.3186503e-39
0.16862348 0.1619771 0.8612501 0
0.16112348 0.16697709 0.84375006 1.1099181e-39
0.16112348 0.16947709 0.84375006 1.8367099e-40
0.16362348 0.16697709 0.84375006 3.1360807e-39
0.16362348 0.16947709 0.84375006 5.3451955e-39
0.17112347 0.1569771 0.8612501 2.7586522e-39
0.17112347 0.1594771 0.8612501 1.4349296e-42
0.17112347 0.1619771 0.8612501 0
0.16112348 0.1569771 0.8637501 4.6026909e-40
0.16112348 0.1569771 0.8662501 4.6026909e-40
0.16362348 0.1569771 0.8637501 3.6734198e-40
0.16362348 0.1569771 0.8662501 1.44614e-42
0.16362348 0.1594771 0.8637501 7.3470919e-40
0.16112348 0.1569771 0.8687501 8.2654609e-40
0.16362348 0.1569771 0.8687501 4.6026909e-40
0.16612348 0.1569771 0.8637501 3.0402852e-39
0.16612348 0.1569771 0.8662501 1.0761972e-42
0.16612348 0.1594771 0.8637501 4.3289136e-39
0.16862348 0.1569771 0.8637501 6.0794984e-39
0.16862348 0.1569771 0.8662501 9.3920754e-39
0.16862348 0.1594771 0.8637501 3.3182972e-39
0.16612348 0.1569771 0.8687501 2.7589044e-40
0.17112347 0.1569771 0.8637501 0
0.17112347 0.1569771 0.8662501 4.6965625e-39
0.17112347 0.1594771 0.8637501 2.0315114e-39
0.17362347 0.1569771 0.8662501 9.18397e-41
0.17362347 0.1594771 0.8662501 2.3077396e-39
0.17362347 0.1569771 0.8687501 0
0.17362347 0.1569771 0.87125009 0
0.17362347 0.1594771 0.8687501 2.759755e-39
0.17112347 0.1619771 0.8637501 2.5825496e-39
0.17362347 0.1619771 0.8662501 3.3211979e-39
0.17362347 0.1619771 0.8687501 4.2402605e-39
0.17612348 0.1569771 0.8687501 8.483793e-39
0.17612348 0.1569771 0.87125009 1.0415238e-38
0.17612348 0.1569771 0.87875009 0
0.17862348 0.1569771 0.87875009 5.9030216e-39
0.14362347 0.13947709 0.89125007 0
0.14112347 0.1419771 0.88375008 7.9193766e-39
0.14112347 0.1419771 0.88625008 7.3468397e-40
0.14112347 0.1444771 0.88375008 3.7652553e-39
0.14112347 0.1444771 0.88625008 0
0.14362347 0.1419771 0.88375008 0
0.14362347 0.1419771 0.88625008 0
0.14362347 0.1444771 0.88375008 5.521172e-40
0.14362347 0.1444771 0.88625008 7.0064923e-45
0.14112347 0.1419771 0.88875008 8.1023301e-39
0.14362347 0.1419771 0.88875008 0
0.14362347 0.1419771 0.89125007 0
0.14362347 0.1444771 0.88875008 7.0064923e-45
0.14362347 0.1444771 0.89125007 5.6051939e-45
0.14612348 0.13947709 0.89125007 2.7550649e-40
0.14612348 0.1419771 0.88625008 4.6314175e-40
0.14612348 0.1444771 0.88375008 4.5992157e-40
0.14612348 0.1444771 0.88625008 6.4501908e-40
0.14612348 0.1419771 0.88875008 1.8655907e-40
0.14612348 0.1419771 0.89125007 8.2941034e-40
0.14612348 0.1444771 0.88875008 5.5282345e-40
0.14612348 0.1444771 0.89125007 6.4501908e-40
0.14862348 0.1419771 0.89125007 7.3650846e-40
0.14862348 0.1444771 0.89125007 6.4431283e-40
0.14612348 0.13947709 0.89375007 0
0.14612348 0.13947709 0.89625007 0
0.14862348 0.13947709 0.89375007 1.8370602e-40
0.14862348 0.13947709 0.89625007 1.460153e-42
0.14612348 0.13697709 0.89875007 1.1938615e-39
0.14612348 0.13947709 0.89875007 3.5815844e-39
0.14862348 0.13697709 0.89875007 0
0.14862348 0.13697709 0.90125006 0
0.14862348 0.13947709 0.89875007 0
0.14862348 0.13947709 0.90125006 0
0.14612348 0.1419771 0.89375007 9.3270426e-41
0.14612348 0.1419771 0.89625007 3.6985872e-40
0.14612348 0.1444771 0.89375007 2.7623797e-40
0.14612348 0.1444771 0.89625007 4.6100057e-40
0.14862348 0.1419771 0.89375007 1.0109247e-39
0.14862348 0.1419771 0.89625007 6.4501908e-40
0.14862348 0.1444771 0.89375007 1.0109247e-39
0.14862348 0.1444771 0.89625007 1.1031204e-39
0.14612348 0.1419771 0.89875007 1.8546606e-40
0.14612348 0.1419771 0.90125006 0
0.14862348 0.1419771 0.89875007 6.4501908e-40
0.14862348 0.1419771 0.90125006 0
0.14112347 0.1469771 0.88375008 1.8511713e-40
0.14112347 0.1469771 0.88625008 9.2917299e-41
0.14362347 0.1469771 0.88375008 6.4501908e-40
0.14362347 0.1469771 0.88625008 6.4501908e-40
0.14362347 0.1469771 0.88875008 6.4501908e-40
0.14612348 0.1469771 0.88375008 4.6026909e-40
0.14612348 0.1469771 0.88625008 4.6026909e-40
0.14612348 0.14947709 0.88375008 9.1845305e-41
0.14612348 0.14947709 0.88625008 4.6026909e-40
0.14862348 0.1469771 0.88375008 5.6051939e-45
0.14862348 0.1469771 0.88625008 8.4077908e-45
0.14862348 0.14947709 0.88375008 0
0.14862348 0.14947709 0.88625008 1.8404094e-40
0.14612348 0.1469771 0.88875008 5.5282345e-40
0.14862348 0.1469771 0.88875008 2.7623797e-40
0.14862348 0.1469771 0.89125007 5.5282345e-40
0.14862348 0.14947709 0.88875008 1.8439126e-40
0.14862348 0.15197709 0.88375008 0
0.14862348 0.15197709 0.88625008 0
0.14862348 0.1469771 0.89375007 4.6097815e-40
0.15112348 0.1419771 0.89125007 1.3793611e-39
0.15112348 0.1444771 0.89125007 1.1031204e-39
0.15112348 0.13947709 0.89625007 2.1804204e-42
0.15362348 0.13947709 0.89625007 6.4501908e-40
0.15112348 0.13697709 0.89875007 7.3650846e-40
0.15112348 0.13697709 0.90125006 0
0.15112348 0.13947709 0.89875007 6.4501908e-40
0.15112348 0.13947709 0.90125006 8.2868447e-40
0.15362348 0.13697709 0.89875007 6.4431283e-40
0.15362348 0.13697709 0.90125006 7.3650846e-40
0.15362348 0.13947709 0.89875007 6.4501908e-40
0.15362348 0.13947709 0.90125006 8.2941034e-40
0.15112348 0.1419771 0.89375007 5.5282345e-40
0.15112348 0.1419771 0.89625007 5.521172e-40
0.15112348 0.1444771 0.89375007 7.3650846e-40
0.15112348 0.1444771 0.89625007 1.1031204e-39
0.15362348 0.1419771 0.89375007 4.6026909e-40
0.15362348 0.1419771 0.89625007 5.521172e-40
0.15362348 0.1444771 0.89375007 6.4284847e-40
0.15362348 0.1444771 0.89625007 4.6097815e-40
0.15112348 0.1419771 0.89875007 5.5282345e-40
0.15112348 0.1419771 0.90125006 6.4431283e-40
0.15362348 0.1419771 0.89875007 2.7623797e-40
0.15362348 0.1419771 0.90125006 4.6026909e-40
0.15362348 0.1444771 0.89875007 8.2689361e-40
0.15612347 0.13697709 0.90125006 1.2882179e-39
0.15612347 0.13947709 0.89875007 5.5317378e-40
0.15612347 0.13947709 0.90125006 4.6026909e-40
0.15862347 0.13947709 0.90125006 0
0.15612347 0.1444771 0.89625007 9.1835496e-41
0.15612347 0.1419771 0.89875007 0
0.15612347 0.1419771 0.90125006 2.7623797e-40
0.15612347 0.1444771 0.89875007 0
0.15612347 0.1444771 0.90125006 1.8367099e-40
0.15862347 0.1419771 0.90125006 1.8367099e-40
0.15862347 0.1444771 0.90125006 9.1835496e-41
0.15112348 0.14947709 0.88375008 0
0.15112348 0.14947709 0.88625008 0
0.15362348 0.14947709 0.88375008 0
0.15362348 0.14947709 0.88625008 0
0.15112348 0.1469771 0.88875008 7.0064923e-45
0.15112348 0.1469771 0.89125007 0
0.15112348 0.14947709 0.88875008 0
0.15112348 0.14947709 0.89125007 0
0.15362348 0.14947709 0.88875008 0
0.15362348 0.14947709 0.89125007 0
0.15112348 0.15197709 0.88375008 0
0.15112348 0.15197709 0.88625008 0
0.15112348 0.15447709 0.88375008 0
0.15112348 0.15447709 0.88625008 0
0.15362348 0.15197709 0.88375008 1.8439126e-40
0.15362348 0.15197709 0.88625008 5.6051939e-45
0.15362348 0.15447709 0.88375008 2.7658689e-40
0.15362348 0.15447709 0.88625008 0
0.15112348 0.15197709 0.88875008 0
0.15112348 0.15197709 0.89125007 0
0.15112348 0.15447709 0.88875008 0
0.15362348 0.15197709 0.88875008 0
0.15362348 0.15197709 0.89125007 0
0.15362348 0.15447709 0.88875008 0
0.15362348 0.15447709 0.89125007 0
0.15612347 0.14947709 0.88875008 0
0.15612347 0.15447709 0.88625008 7.3504691e-40
0.15862347 0.15447709 0.88625008 2.7623797e-40
0.15612347 0.15197709 0.88875008 0
0.15612347 0.15197709 0.89125007 4.5917748e-40
0.15612347 0.15447709 0.88875008 5.6051939e-45
0.15612347 0.15447709 0.89125007 6.4286249e-40
0.15862347 0.15447709 0.88875008 4.6026909e-40
0.15862347 0.15447709 0.89125007 7.3470078e-40
0.15112348 0.1469771 0.89375007 8.2724394e-40
0.15362348 0.1469771 0.89375007 0
0.15362348 0.1469771 0.89625007 1.8367099e-40
0.15362348 0.14947709 0.89375007 0
0.15362348 0.14947709 0.89625007 0
0.15362348 0.15197709 0.89375007 0
0.15362348 0.15197709 0.89625007 0
0.15612347 0.1469771 0.89375007 0
0.15612347 0.1469771 0.89625007 0
0.15612347 0.14947709 0.89375007 0
0.15612347 0.14947709 0.89625007 0
0.15862347 0.14947709 0.89625007 1.4012985e-45
0.15612347 0.1469771 0.89875007 0
0.15862347 0.1469771 0.89875007 0
0.15862347 0.1469771 0.90125006 0
0.15862347 0.14947709 0.89875007 9.1835496e-41
0.15862347 0.14947709 0.90125006 9.1835496e-41
0.15612347 0.15197709 0.89375007 4.2038954e-45
0.15612347 0.15197709 0.89625007 0
0.15862347 0.15197709 0.89375007 2.7658689e-40
0.15862347 0.15197709 0.89625007 6.4284847e-40
0.15862347 0.15447709 0.89375007 2.7623797e-40
0.15862347 0.15447709 0.89625007 8.4077908e-45
0.15612347 0.15197709 0.89875007 0
0.15862347 0.15197709 0.89875007 0
0.15862347 0.15197709 0.90125006 0
0.15862347 0.15447709 0.89875007 2.7658689e-40
0.14612348 0.13697709 0.90625006 1.6127716e-38
0.14862348 0.13697709 0.90375006 0
0.14862348 0.13697709 0.90625006 9.1835496e-40
0.14862348 0.13947709 0.90375006 0
0.14612348 0.13697709 0.90875006 1.5848974e-38
0.14862348 0.13697709 0.90875006 3.6734198e-40
0.15112348 0.13697709 0.90375006 0
0.15112348 0.13697709 0.90625006 0
0.15112348 0.13947709 0.90375006 1.1974712e-39
0.15362348 0.13697709 0.90375006 7.3722733e-40
0.15362348 0.13697709 0.90625006 9.2160738e-40
0.15362348 0.13947709 0.90375006 5.521172e-40
0.15112348 0.13697709 0.90875006 0
0.15112348 0.13947709 0.90875006 0
0.15362348 0.13697709 0.90875006 2.7589044e-40
0.15612347 0.13697709 0.90375006 1.2878704e-39
0.15612347 0.13697709 0.90625006 1.1056385e-39
0.15612347 0.13947709 0.90375006 1.2882179e-39
0.15612347 0.13947709 0.90625006 1.2878704e-39
0.15862347 0.13697709 0.90625006 1.4726133e-39
0.15862347 0.13947709 0.90375006 3.6734198e-40
0.15862347 0.13947709 0.90625006 4.5917748e-40
0.15612347 0.13697709 0.90875006 1.2878704e-39
0.15862347 0.13697709 0.90875006 1.2878704e-39
0.15862347 0.13947709 0.90875006 1.1956747e-39
0.15612347 0.1419771 0.90375006 1.1038294e-39
0.15862347 0.1419771 0.90375006 3.6734198e-40
0.15862347 0.1419771 0.90625006 1.8367099e-40
0.15862347 0.1444771 0.90375006 9.1835496e-41
0.15862347 0.1444771 0.90625006 1.8367099e-40
0.15862347 0.1469771 0.90375006 9.1835496e-41
0.15862347 0.1469771 0.90625006 9.1835496e-41
0.15862347 0.14947709 0.90375006 9.1835496e-41
0.15112348 0.1569771 0.88375008 0
0.15112348 0.1594771 0.88375008 0
0.15362348 0.1569771 0.88375008 0
0.15362348 0.1569771 0.88625008 0
0.15362348 0.1594771 0.88375008 5.5102279e-40
0.15362348 0.1594771 0.88625008 8.4077908e-45
0.15362348 0.1569771 0.88875008 0
0.15362348 0.1619771 0.88375008 1.8404094e-40
0.15362348 0.1619771 0.88625008 2.7623797e-40
0.15612347 0.1569771 0.88375008 1.8439126e-40
0.15612347 0.1569771 0.88625008 7.3469798e-40
0.15612347 0.1594771 0.88375008 6.4286249e-40
0.15612347 0.1594771 0.88625008 6.4286249e-40
0.15862347 0.1569771 0.88375008 4.6026909e-40
0.15862347 0.1569771 0.88625008 4.6026909e-40
0.15862347 0.1594771 0.88375008 4.6097815e-40
0.15862347 0.1594771 0.88625008 2.7589044e-40
0.15612347 0.1569771 0.88875008 1.8404094e-40
0.15612347 0.1569771 0.89125007 6.4285968e-40
0.15862347 0.1569771 0.88875008 4.6026909e-40
0.15862347 0.1569771 0.89125007 1.1038294e-39
0.15862347 0.1594771 0.88875008 1.460153e-42
0.15862347 0.1594771 0.89125007 7.3469798e-40
0.15612347 0.1619771 0.88375008 2.7589044e-40
0.15612347 0.1619771 0.88875008 2.7658689e-40
0.15612347 0.1644771 0.88875008 9.1845305e-41
0.15612347 0.1569771 0.89375007 0
0.15862347 0.1569771 0.89375007 2.7658689e-40
0.15862347 0.1569771 0.89625007 1.8404094e-40
0.15862347 0.1619771 0.89625007 2.7623797e-40
0.16612348 0.1419771 0.88625008 1.1038294e-39
0.16612348 0.1444771 0.88625008 5.5282345e-40
0.16862348 0.1419771 0.88625008 7.3756504e-40
0.16862348 0.1444771 0.88375008 6.4501908e-40
0.16862348 0.1444771 0.88625008 7.3650846e-40
0.16862348 0.1419771 0.88875008 7.3721471e-40
0.16862348 0.1419771 0.89125007 1.3804163e-39
0.16862348 0.1444771 0.88875008 7.3756504e-40
0.16862348 0.1444771 0.89125007 9.2160738e-40
0.16112348 0.13947709 0.90125006 0
0.16112348 0.1419771 0.90125006 0
0.16612348 0.1444771 0.89375007 9.2160738e-40
0.16862348 0.1419771 0.89625007 0
0.16862348 0.1444771 0.89375007 1.3800674e-39
0.16862348 0.1444771 0.89625007 1.3811226e-39
0.16862348 0.1419771 0.89875007 0
0.16862348 0.1419771 0.90125006 0
0.16862348 0.1444771 0.89875007 1.2878704e-39
0.16862348 0.1444771 0.90125006 1.2878704e-39
0.16362348 0.14947709 0.88375008 5.521172e-40
0.16362348 0.14947709 0.88625008 4.5992157e-40
0.16112348 0.15197709 0.88375008 6.4501908e-40
0.16112348 0.15197709 0.88625008 1.8404094e-40
0.16112348 0.15447709 0.88375008 4.6026909e-40
0.16112348 0.15447709 0.88625008 1.8370602e-40
0.16362348 0.15197709 0.88375008 6.4501908e-40
