# .PCD v0.7 - Point Cloud Data file format
VERSION 0.7
FIELDS x y z rgb
SIZE 4 4 4 4
TYPE F F F F
COUNT 1 1 1 1
WIDTH 1025
HEIGHT 1
VIEWPOINT 0 0 0 1 0 0 0
POINTS 1025
DATA ascii
-0.26684761 0.13366826 0.93024999 1.8471594e-39
-0.2743476 0.12616825 0.93274999 3.8700641e-39
-0.2743476 0.12616825 0.93524998 3.6863861e-39
-0.27184761 0.12616825 0.93274999 3.5938317e-39
-0.27184761 0.12616825 0.93524998 3.6863861e-39
-0.2743476 0.12616825 0.93774998 3.5938373e-39
-0.26934761 0.12616825 0.93274999 2.6736733e-39
-0.26934761 0.12616825 0.93524998 3.3172448e-39
-0.26934761 0.12866825 0.93274999 1.8439126e-39
-0.26684761 0.12616825 0.93274999 3.6863861e-39
-0.26684761 0.12616825 0.93524998 3.5019864e-39
-0.26684761 0.12866825 0.93274999 4.0562574e-39
-0.26684761 0.12866825 0.93524998 3.9644121e-39
-0.26934761 0.12616825 0.93774998 3.3183e-39
-0.26684761 0.12616825 0.93774998 4.3270863e-39
-0.26684761 0.12616825 0.94024998 4.5132699e-39
-0.26684761 0.12866825 0.93774998 5.0635668e-39
-0.26684761 0.13116825 0.93274999 4.609078e-39
-0.26684761 0.13116825 0.93524998 4.3328415e-39
-0.26684761 0.13366826 0.93274999 5.1618567e-39
-0.26684761 0.13366826 0.93524998 4.6086899e-39
-0.26684761 0.13116825 0.93774998 4.6983618e-39
-0.26684761 0.13366826 0.93774998 4.1470055e-39
-0.26434761 0.13366826 0.91275001 8.2000427e-39
-0.26434761 0.13366826 0.91525 8.1081988e-39
-0.26184762 0.13366826 0.91275001 2.6729698e-39
-0.26184762 0.13366826 0.91525 2.3077676e-39
-0.26434761 0.13116825 0.92025 4.6072255e-39
-0.26434761 0.13366826 0.91775 8.4766282e-39
-0.26434761 0.13366826 0.92025 8.3844297e-39
-0.26184762 0.13366826 0.92025 1.1978397e-39
-0.26434761 0.12366825 0.93524998 3.9572276e-39
-0.26434761 0.12116826 0.94024998 3.5924024e-39
-0.26434761 0.12366825 0.94024998 5.7114599e-39
-0.26184762 0.12116826 0.94024998 3.9629645e-39
-0.26184762 0.12366825 0.94024998 5.0653871e-39
-0.25934762 0.12366825 0.94024998 3.3164811e-39
-0.26434761 0.12866825 0.93024999 4.7909105e-39
-0.26434761 0.13116825 0.92524999 3.1353521e-39
-0.26434761 0.13366826 0.92275 1.7553141e-39
-0.26434761 0.13366826 0.92524999 1.9357579e-39
-0.26184762 0.13366826 0.92275 3.4097908e-39
-0.26434761 0.13116825 0.92774999 3.7767936e-39
-0.26434761 0.13116825 0.93024999 4.7941784e-39
-0.26434761 0.13366826 0.92774999 4.5171935e-39
-0.26434761 0.13366826 0.93024999 2.8616603e-39
-0.26184762 0.13366826 0.92774999 3.6878252e-39
-0.26434761 0.12616825 0.93274999 4.5136202e-39
-0.26434761 0.12616825 0.93524998 4.6054655e-39
-0.26434761 0.12866825 0.93274999 5.066794e-39
-0.26434761 0.12866825 0.93524998 4.6994758e-39
-0.26184762 0.12616825 0.93274999 4.7902071e-39
-0.26184762 0.12866825 0.93274999 4.3317555e-39
-0.26434761 0.12616825 0.93774998 5.0664436e-39
-0.26434761 0.12616825 0.94024998 6.0784446e-39
-0.26434761 0.12866825 0.93774998 4.6072802e-39
-0.26434761 0.12866825 0.94024998 5.1586393e-39
-0.26184762 0.12616825 0.94024998 4.7001793e-39
-0.26184762 0.12866825 0.93774998 3.226847e-39
-0.26184762 0.12866825 0.94024998 3.3168917e-39
-0.26434761 0.13116825 0.93274999 5.2526496e-39
-0.26434761 0.13116825 0.93524998 4.6104821e-39
-0.26434761 0.13366826 0.93274999 3.6892545e-39
-0.26434761 0.13366826 0.93524998 4.794488e-39
-0.26434761 0.13116825 0.93774998 3.6856826e-39
-0.26434761 0.13116825 0.94024998 3.5948911e-39
-0.26434761 0.13366826 0.93774998 0
-0.26434761 0.13366826 0.94024998 0
-0.26184762 0.13116825 0.94024998 2.2987769e-39
-0.26184762 0.13366826 0.93774998 0
-0.26184762 0.13366826 0.94024998 0
-0.25934762 0.12616825 0.94024998 8.2651947e-40
-0.28434762 0.091168255 0.99774998 1.8417072e-38
-0.28434762 0.093668252 0.99774998 1.3635227e-38
-0.28434762 0.093668252 1.00025 1.9441288e-38
-0.28184763 0.091168255 0.99774998 2.2572057e-38
-0.28184763 0.093668252 0.99774998 1.9901909e-38
-0.27184761 0.093668252 0.98774999 0
-0.26934761 0.093668252 0.98525 0
-0.26684761 0.093668252 0.98525 8.290376e-40
-0.26934761 0.093668252 0.99024999 0
-0.26684761 0.093668252 0.98774999 1.5612118e-39
-0.26684761 0.093668252 0.99024999 1.3800674e-39
-0.27184761 0.093668252 1.00025 9.1835496e-41
-0.26934761 0.093668252 0.99274999 6.4536661e-40
-0.26934761 0.093668252 0.99524999 3.6734198e-40
-0.26684761 0.093668252 0.99274999 1.1031204e-39
-0.26684761 0.093668252 0.99524999 2.6632294e-39
-0.26934761 0.093668252 0.99774998 3.1224069e-39
-0.26934761 0.093668252 1.00025 2.3877229e-39
-0.26684761 0.091168255 0.99774998 1.1884236e-38
-0.26684761 0.091168255 1.00025 1.3726684e-38
-0.26684761 0.093668252 0.99774998 2.2958874e-39
-0.26684761 0.093668252 1.00025 2.3877229e-39
-0.28434762 0.093668252 1.00775 2.2299721e-38
-0.28434762 0.093668252 1.01025 2.2391191e-38
-0.28184763 0.093668252 1.01025 2.2022514e-38
-0.28434762 0.093668252 1.02025 2.1380028e-38
-0.26434761 0.093668252 0.99274999 7.3469798e-40
-0.26434761 0.093668252 0.99524999 1.1938615e-39
-0.26184762 0.093668252 0.99524999 8.2651947e-40
-0.26434761 0.091168255 0.99774998 1.308168e-38
-0.26434761 0.091168255 1.00025 1.317351e-38
-0.26434761 0.093668252 0.99774998 1.5612034e-39
-0.26434761 0.093668252 1.00025 1.6530389e-39
-0.26184762 0.093668252 0.99774998 6.0611427e-39
-0.26184762 0.093668252 1.00025 6.5203202e-39
-0.2768476 0.11366826 0.95525002 3.4112383e-39
-0.27934763 0.11366826 0.95775002 7.3474282e-40
-0.2768476 0.11116825 0.95775002 3.4083712e-39
-0.2768476 0.11366826 0.95775002 4.0509002e-39
-0.27184761 0.11366826 0.95025003 3.8704172e-39
-0.2743476 0.11116825 0.95275003 3.1343011e-39
-0.2743476 0.11366826 0.95275003 3.7800208e-39
-0.2743476 0.11366826 0.95525002 3.6874721e-39
-0.27184761 0.11366826 0.95275003 4.0544567e-39
-0.27184761 0.11366826 0.95525002 3.8700641e-39
-0.2743476 0.11116825 0.95775002 3.5945408e-39
-0.2743476 0.11366826 0.95775002 3.8704172e-39
-0.27184761 0.11366826 0.95775002 3.6860329e-39
-0.26934761 0.11366826 0.95275003 3.8679005e-39
-0.26934761 0.11366826 0.95525002 3.5016417e-39
-0.26684761 0.11366826 0.95525002 3.5945408e-39
-0.26934761 0.11366826 0.95775002 3.6860329e-39
-0.26684761 0.11366826 0.95775002 2.7630018e-39
-0.28434762 0.11116825 0.96275002 6.4284847e-40
-0.28434762 0.11366826 0.96275002 0
-0.28184763 0.11116825 0.96275002 4.5918589e-40
-0.28184763 0.11366826 0.96275002 5.51034e-40
-0.28434762 0.11116825 0.96775001 9.18397e-41
-0.28434762 0.11116825 0.97025001 9.1835496e-41
-0.28434762 0.11366826 0.96775001 3.6734899e-40
-0.28434762 0.11366826 0.97025001 4.6026909e-40
-0.28184763 0.11366826 0.96775001 1.1049407e-39
-0.28184763 0.11366826 0.97025001 8.2765171e-40
-0.27934763 0.11116825 0.96275002 7.3469798e-40
-0.27934763 0.11366826 0.96275002 1.469424e-39
-0.2768476 0.11116825 0.96275002 3.8700641e-39
-0.2768476 0.11366826 0.96275002 4.0551602e-39
-0.27934763 0.11366826 0.96775001 3.7786139e-39
-0.27934763 0.11366826 0.97025001 3.7779105e-39
-0.2768476 0.11366826 0.96775001 3.9629645e-39
-0.2768476 0.11366826 0.97025001 3.8707675e-39
-0.28434762 0.11116825 0.97275001 0
-0.28434762 0.11116825 0.97525001 4.5917748e-40
-0.28434762 0.11366826 0.97525001 6.4285968e-40
-0.28184763 0.11366826 0.97275001 7.3470919e-40
-0.28434762 0.11116825 0.97775 9.18397e-41
-0.28434762 0.11366826 0.97775 3.6734899e-40
-0.28434762 0.11366826 0.98025 1.6815582e-44
-0.28184763 0.11366826 0.97775 2.5786204e-39
-0.28184763 0.11366826 0.98025 2.2127175e-39
-0.2768476 0.10866825 0.98025 4.237392e-39
-0.27934763 0.11366826 0.97275001 2.0315409e-39
-0.27934763 0.11366826 0.97525001 2.5814776e-39
-0.2768476 0.11366826 0.97275001 3.9629645e-39
-0.2768476 0.11366826 0.97525001 3.8700641e-39
-0.27934763 0.11366826 0.97775 4.0551658e-39
-0.27934763 0.11366826 0.98025 3.5034339e-39
-0.2768476 0.11116825 0.97775 3.8700641e-39
-0.2768476 0.11116825 0.98025 3.8700641e-39
-0.2768476 0.11366826 0.97775 3.8700641e-39
-0.2768476 0.11366826 0.98025 4.5125664e-39
-0.26934761 0.10366825 0.97025001 4.0544567e-39
-0.26684761 0.10366825 0.97025001 3.5938373e-39
-0.27184761 0.098668255 0.97525001 2.9387359e-39
-0.27184761 0.09616825 0.98025 3.5873241e-43
-0.27184761 0.098668255 0.97775 2.1122164e-39
-0.27184761 0.098668255 0.98025 2.6665028e-39
-0.27184761 0.10116825 0.97525001 4.2366886e-39
-0.27184761 0.10366825 0.97275001 3.2246947e-39
-0.27184761 0.10366825 0.97525001 4.0544567e-39
-0.2743476 0.10116825 0.97775 9.1835496e-41
-0.2743476 0.10116825 0.98025 4.2366886e-39
-0.2743476 0.10366825 0.97775 4.0548098e-39
-0.2743476 0.10366825 0.98025 3.9622611e-39
-0.27184761 0.10116825 0.97775 4.0548098e-39
-0.27184761 0.10116825 0.98025 3.9626142e-39
-0.27184761 0.10366825 0.97775 4.0548098e-39
-0.27184761 0.10366825 0.98025 4.236683e-39
-0.26934761 0.09616825 0.97275001 0
-0.26934761 0.098668255 0.97275001 1.6559466e-39
-0.26934761 0.098668255 0.97525001 3.0331273e-39
-0.26684761 0.09616825 0.97275001 1.1985432e-39
-0.26684761 0.098668255 0.97275001 2.4885786e-39
-0.26684761 0.098668255 0.97525001 3.8700641e-39
-0.26934761 0.09616825 0.97775 1.4349296e-42
-0.26934761 0.098668255 0.97775 2.3935089e-39
-0.26934761 0.098668255 0.98025 4.4185757e-39
-0.26684761 0.09616825 0.97775 4.1444873e-39
-0.26684761 0.098668255 0.97775 4.0519386e-39
-0.26684761 0.098668255 0.98025 4.2366886e-39
-0.26934761 0.10116825 0.97275001 3.9622611e-39
-0.26934761 0.10116825 0.97525001 4.2366886e-39
-0.26934761 0.10366825 0.97275001 3.3172448e-39
-0.26934761 0.10366825 0.97525001 3.9622611e-39
-0.26684761 0.10116825 0.97275001 3.8700641e-39
-0.26684761 0.10116825 0.97525001 3.8704144e-39
-0.26684761 0.10366825 0.97275001 3.3172448e-39
-0.26684761 0.10366825 0.97525001 3.5034339e-39
-0.26934761 0.10116825 0.97775 3.9622611e-39
-0.26934761 0.10116825 0.98025 3.9619108e-39
-0.26934761 0.10366825 0.97775 4.2366886e-39
-0.26934761 0.10366825 0.98025 4.4210742e-39
-0.26684761 0.10116825 0.97775 3.8704172e-39
-0.26684761 0.10116825 0.98025 3.5016417e-39
-0.26684761 0.10366825 0.97775 3.4112383e-39
-0.26684761 0.10366825 0.98025 2.5814776e-39
-0.27184761 0.10866825 0.97025001 4.1441342e-39
-0.2743476 0.11116825 0.96275002 3.6881755e-39
-0.2743476 0.11366826 0.96275002 3.6867364e-39
-0.27184761 0.11116825 0.96275002 3.6860329e-39
-0.27184761 0.11366826 0.96275002 3.6860329e-39
-0.2743476 0.11366826 0.96775001 3.8700641e-39
-0.2743476 0.11366826 0.97025001 3.8700641e-39
-0.27184761 0.11116825 0.96775001 4.1437839e-39
-0.27184761 0.11116825 0.97025001 3.8704172e-39
-0.27184761 0.11366826 0.96775001 3.8697137e-39
-0.27184761 0.11366826 0.97025001 3.8704172e-39
-0.26934761 0.10616826 0.97025001 3.8704172e-39
-0.26934761 0.10866825 0.96775001 4.0519386e-39
-0.26934761 0.10866825 0.97025001 3.8704144e-39
-0.26684761 0.10616826 0.97025001 3.0421027e-39
-0.26684761 0.10866825 0.96775001 4.0519386e-39
-0.26684761 0.10866825 0.97025001 3.8679005e-39
-0.26934761 0.11116825 0.96275002 3.6863861e-39
-0.26934761 0.11366826 0.96275002 3.4094404e-39
-0.26684761 0.11116825 0.96275002 3.8682508e-39
-0.26684761 0.11366826 0.96275002 3.8675473e-39
-0.26934761 0.11116825 0.96775001 3.5938317e-39
-0.26934761 0.11116825 0.97025001 3.1346514e-39
-0.26934761 0.11366826 0.96775001 3.4094404e-39
-0.26934761 0.11366826 0.97025001 3.4094404e-39
-0.26684761 0.11116825 0.96775001 3.2261044e-39
-0.26684761 0.11116825 0.97025001 3.5948883e-39
-0.26684761 0.11366826 0.96775001 3.8679005e-39
-0.26684761 0.11366826 0.97025001 4.6976611e-39
-0.2743476 0.10866825 0.97525001 4.237392e-39
-0.27184761 0.10616826 0.97275001 3.9626142e-39
-0.27184761 0.10616826 0.97525001 3.9626142e-39
-0.27184761 0.10866825 0.97275001 3.8704144e-39
-0.27184761 0.10866825 0.97525001 3.8704172e-39
-0.2743476 0.10616826 0.97775 4.0548098e-39
-0.2743476 0.10616826 0.98025 4.0548098e-39
-0.2743476 0.10866825 0.97775 4.0548098e-39
-0.2743476 0.10866825 0.98025 3.9622611e-39
-0.27184761 0.10616826 0.97775 4.0548098e-39
-0.27184761 0.10616826 0.98025 3.9626142e-39
-0.27184761 0.10866825 0.97775 4.0519386e-39
-0.27184761 0.10866825 0.98025 4.236683e-39
-0.2743476 0.11116825 0.97275001 4.236683e-39
-0.2743476 0.11116825 0.97525001 4.2366886e-39
-0.2743476 0.11366826 0.97275001 3.6860329e-39
-0.27184761 0.11116825 0.97275001 3.6863861e-39
-0.27184761 0.11116825 0.97525001 4.4210742e-39
-0.27184761 0.11366826 0.97275001 3.6863861e-39
-0.2743476 0.11116825 0.97775 4.4196351e-39
-0.2743476 0.11116825 0.98025 3.8700641e-39
-0.27184761 0.11116825 0.97775 3.0410167e-39
-0.26934761 0.10616826 0.97275001 4.1444873e-39
-0.26934761 0.10616826 0.97525001 3.9626142e-39
-0.26934761 0.10866825 0.97275001 3.8707675e-39
-0.26934761 0.10866825 0.97525001 3.5016417e-39
-0.26684761 0.10616826 0.97275001 3.4094404e-39
-0.26684761 0.10616826 0.97525001 3.1342983e-39
-0.26684761 0.10866825 0.97275001 3.3175951e-39
-0.26684761 0.10866825 0.97525001 3.867197e-39
-0.26934761 0.10616826 0.97775 4.5132699e-39
-0.26934761 0.10616826 0.98025 3.8704172e-39
-0.26934761 0.10866825 0.97775 3.6863861e-39
-0.26684761 0.10616826 0.97775 3.6863861e-39
-0.26684761 0.10616826 0.98025 3.5938373e-39
-0.26934761 0.11116825 0.97275001 3.6867364e-39
-0.26934761 0.11116825 0.97525001 4.1444873e-39
-0.26684761 0.11116825 0.97275001 3.3175951e-39
-0.26684761 0.11116825 0.97525001 4.604762e-39
-0.26684761 0.11366826 0.97275001 5.3430305e-39
-0.26684761 0.11366826 0.97525001 5.3448452e-39
-0.28434762 0.11616825 0.94275004 0
-0.28434762 0.11866825 0.94275004 2.7550649e-40
-0.28434762 0.11866825 0.94775003 5.6051939e-45
-0.28434762 0.12116826 0.94275004 1.2611686e-44
-0.28434762 0.12116826 0.94525003 0
-0.28434762 0.12366825 0.94275004 0
-0.28434762 0.12366825 0.94525003 4.2038954e-45
-0.28184763 0.12366825 0.94525003 2.0254368e-39
-0.28434762 0.12116826 0.94775003 0
-0.28434762 0.12116826 0.95025003 0
-0.28434762 0.12366825 0.94775003 1.4012985e-45
-0.28434762 0.12366825 0.95025003 9.2197592e-40
-0.28184763 0.12116826 0.95025003 1.5414283e-44
-0.28184763 0.12366825 0.94775003 1.3800674e-39
-0.28184763 0.12366825 0.95025003 4.8799042e-39
-0.2768476 0.11866825 0.94275004 3.1346514e-39
-0.27934763 0.12366825 0.94275004 4.420354e-39
-0.27934763 0.12366825 0.94525003 3.7767936e-39
-0.2768476 0.12116826 0.94275004 3.5945408e-39
-0.2768476 0.12116826 0.94525003 3.8711178e-39
-0.27934763 0.12116826 0.95025003 3.0424558e-39
-0.27934763 0.12366825 0.94775003 3.5924024e-39
-0.2768476 0.12116826 0.95025003 3.8700641e-39
-0.28434762 0.11866825 0.95275003 9.18397e-41
-0.28434762 0.11866825 0.95525002 9.185091e-41
-0.28184763 0.11866825 0.95525002 2.6708048e-39
-0.28434762 0.11866825 0.95775002 1.4012985e-45
-0.28434762 0.12116826 0.95275003 3.673602e-40
-0.28434762 0.12116826 0.95525002 1.8368781e-40
-0.28434762 0.12366825 0.95275003 1.4693834e-39
-0.28434762 0.12366825 0.95525002 4.5922232e-40
-0.28184763 0.12116826 0.95275003 3.3154694e-39
-0.28184763 0.12116826 0.95525002 3.4115886e-39
-0.28184763 0.12366825 0.95275003 3.5924024e-39
-0.28184763 0.12366825 0.95525002 4.2377424e-39
-0.28434762 0.12116826 0.95775002 2.9466854e-39
-0.28184763 0.12116826 0.95775002 3.1346514e-39
-0.27934763 0.11866825 0.95275003 3.4098314e-39
-0.27934763 0.11866825 0.95525002 3.3176358e-39
-0.2768476 0.11866825 0.95525002 3.4112383e-39
-0.27934763 0.11616825 0.95775002 3.4122977e-39
-0.27934763 0.11866825 0.95775002 3.4123075e-39
-0.2768476 0.11616825 0.95775002 3.0438851e-39
-0.2768476 0.11866825 0.95775002 3.1360807e-39
-0.27934763 0.12116826 0.95275003 3.4112383e-39
-0.27934763 0.12366825 0.95275003 3.6885244e-39
-0.27934763 0.12116826 0.95775002 4.1470111e-39
-0.2768476 0.12116826 0.95775002 3.4112383e-39
-0.28434762 0.12616825 0.94275004 1.8367099e-40
-0.28434762 0.12616825 0.94525003 7.3470919e-40
-0.28434762 0.12866825 0.94275004 2.7555694e-40
-0.28434762 0.12866825 0.94525003 4.5922933e-40
-0.28184763 0.12616825 0.94275004 3.1310767e-39
-0.28184763 0.12616825 0.94525003 3.3154694e-39
-0.28184763 0.12866825 0.94275004 3.7775545e-39
-0.28434762 0.12616825 0.94775003 4.591971e-40
-0.28434762 0.12616825 0.95025003 2.301316e-39
-0.28434762 0.12866825 0.94775003 2.7555694e-40
-0.28434762 0.12866825 0.95025003 3.1325635e-39
-0.28184763 0.12616825 0.94775003 2.9516895e-39
-0.28184763 0.12616825 0.95025003 3.8707647e-39
-0.28184763 0.12866825 0.95025003 2.8609414e-39
-0.28434762 0.13116825 0.94275004 1.8441088e-40
-0.28434762 0.13116825 0.94775003 6.4536941e-40
-0.28434762 0.13116825 0.95025003 3.1343011e-39
-0.27934763 0.12616825 0.94275004 3.1346514e-39
-0.27934763 0.12616825 0.94525003 4.054091e-39
-0.27934763 0.12616825 0.94775003 3.5048633e-39
-0.28434762 0.12616825 0.95275003 2.5814776e-39
-0.28184763 0.12616825 0.95275003 3.3190427e-39
-0.2743476 0.11866825 0.94275004 3.6863861e-39
-0.2743476 0.11866825 0.94525003 4.0551602e-39
-0.27184761 0.11866825 0.94275004 3.8704172e-39
-0.27184761 0.11866825 0.94525003 3.5938373e-39
-0.2743476 0.11866825 0.95025003 3.4123075e-39
-0.27184761 0.11616825 0.94775003 3.8704172e-39
-0.27184761 0.11616825 0.95025003 3.6860329e-39
-0.27184761 0.11866825 0.94775003 4.5125664e-39
-0.27184761 0.11866825 0.95025003 3.5938373e-39
-0.2743476 0.12116826 0.94275004 4.1455467e-39
-0.2743476 0.12116826 0.94525003 3.8704172e-39
-0.27184761 0.12116826 0.94275004 3.5938373e-39
-0.27184761 0.12116826 0.94525003 3.5938373e-39
-0.2743476 0.12116826 0.94775003 3.5938373e-39
-0.27184761 0.12116826 0.94775003 3.6863861e-39
-0.26934761 0.11866825 0.94275004 3.3168917e-39
-0.26934761 0.11866825 0.94525003 3.5016417e-39
-0.26684761 0.11866825 0.94275004 3.7760551e-39
-0.26684761 0.11866825 0.94525003 3.2250478e-39
-0.26934761 0.11616825 0.94775003 3.6863861e-39
-0.26934761 0.11616825 0.95025003 3.8704144e-39
-0.26934761 0.11866825 0.94775003 3.4094404e-39
-0.26934761 0.11866825 0.95025003 2.8580701e-39
-0.26684761 0.11616825 0.94775003 3.2250478e-39
-0.26684761 0.11616825 0.95025003 3.5941876e-39
-0.26684761 0.11866825 0.94775003 3.2250478e-39
-0.26684761 0.11866825 0.95025003 2.5811245e-39
-0.26934761 0.12116826 0.94275004 3.7757048e-39
-0.26934761 0.12116826 0.94525003 2.6718754e-39
-0.26684761 0.12116826 0.94275004 3.2261044e-39
-0.26684761 0.12116826 0.94525003 3.6867364e-39
-0.26684761 0.12366825 0.94275004 3.2246947e-39
-0.26684761 0.12366825 0.94525003 4.1470111e-39
-0.26934761 0.12116826 0.94775003 2.8580645e-39
-0.26684761 0.12116826 0.94775003 3.9619108e-39
-0.26684761 0.12116826 0.95025003 2.9484679e-39
-0.2743476 0.11616825 0.95275003 3.5034395e-39
-0.2743476 0.11616825 0.95525002 3.5938373e-39
-0.2743476 0.11866825 0.95275003 3.8700641e-39
-0.2743476 0.11866825 0.95525002 3.8700641e-39
-0.27184761 0.11616825 0.95275003 3.9622611e-39
-0.27184761 0.11616825 0.95525002 3.9622611e-39
-0.27184761 0.11866825 0.95275003 3.6860329e-39
-0.27184761 0.11866825 0.95525002 3.8700641e-39
-0.2743476 0.11616825 0.95775002 3.8700641e-39
-0.2743476 0.11866825 0.95775002 3.8700641e-39
-0.27184761 0.11616825 0.95775002 3.6863861e-39
-0.2743476 0.12116826 0.95775002 3.3172448e-39
-0.26934761 0.11616825 0.95275003 3.4090873e-39
-0.26934761 0.11616825 0.95525002 3.4094404e-39
-0.26934761 0.11866825 0.95275003 3.3172448e-39
-0.26934761 0.11866825 0.95525002 3.1299823e-39
-0.26684761 0.11616825 0.95275003 3.7764013e-39
-0.26684761 0.11616825 0.95525002 3.4097964e-39
-0.26684761 0.11866825 0.95275003 3.4090873e-39
-0.26684761 0.11866825 0.95525002 5.8972609e-39
-0.26934761 0.11616825 0.95775002 3.4097908e-39
-0.26684761 0.11616825 0.95775002 3.9626114e-39
-0.26684761 0.11866825 0.95775002 4.6079836e-39
-0.26684761 0.12116826 0.95775002 5.1608029e-39
-0.26684761 0.12616825 0.94275004 4.5132699e-39
-0.26684761 0.12616825 0.94525003 5.3455459e-39
-0.26684761 0.12866825 0.94525003 4.9724501e-39
-0.26684761 0.12866825 0.94775003 5.0664436e-39
-0.26684761 0.13116825 0.94525003 2.6743739e-39
-0.26684761 0.13366826 0.94525003 1.8367099e-40
-0.26684761 0.13116825 0.94775003 3.4101411e-39
-0.26684761 0.13366826 0.94775003 3.6770072e-40
-0.26684761 0.13366826 0.95025003 4.5917748e-40
-0.28434762 0.11616825 0.96275002 9.1835496e-41
-0.28434762 0.11866825 0.96275002 4.5918589e-40
-0.28184763 0.11616825 0.96275002 3.9597878e-39
-0.28184763 0.11866825 0.96275002 1.1027728e-39
-0.28434762 0.11616825 0.96775001 0
-0.28434762 0.11616825 0.97025001 3.673602e-40
-0.28434762 0.11866825 0.96775001 2.7589044e-40
-0.28434762 0.11866825 0.97025001 3.7757399e-39
-0.28184763 0.11616825 0.96775001 2.7622956e-39
-0.28184763 0.11616825 0.97025001 3.1342983e-39
-0.28184763 0.11866825 0.96775001 3.3179861e-39
-0.28184763 0.11866825 0.97025001 3.8711178e-39
-0.28434762 0.12116826 0.96275002 3.2232723e-39
-0.28184763 0.12116826 0.96275002 2.5839958e-39
-0.28434762 0.12116826 0.96775001 2.6711551e-39
-0.28184763 0.12116826 0.96775001 3.8704144e-39
-0.27934763 0.11616825 0.96275002 3.4123075e-39
-0.27934763 0.11866825 0.96275002 3.4123075e-39
-0.2768476 0.11616825 0.96275002 3.4112383e-39
-0.2768476 0.11866825 0.96275002 3.4123075e-39
-0.27934763 0.11616825 0.96775001 4.2392011e-39
-0.27934763 0.11616825 0.97025001 3.318342e-39
-0.27934763 0.11866825 0.96775001 3.8711178e-39
-0.2768476 0.11616825 0.96775001 4.5129167e-39
-0.2768476 0.11866825 0.96775001 3.9626142e-39
-0.27934763 0.12116826 0.96275002 3.6867364e-39
-0.2768476 0.12116826 0.96275002 3.6867364e-39
-0.28434762 0.11616825 0.97275001 5.51034e-40
-0.28434762 0.11616825 0.97525001 6.4287089e-40
-0.28184763 0.11616825 0.97275001 3.6878252e-39
-0.28184763 0.11616825 0.97525001 4.3278472e-39
-0.28434762 0.11616825 0.97775 0
-0.27934763 0.11616825 0.97275001 3.8704144e-39
-0.27934763 0.11616825 0.97525001 4.0551602e-39
-0.2768476 0.11616825 0.97275001 2.7662192e-39
-0.2768476 0.11616825 0.97525001 3.5938373e-39
-0.27934763 0.11616825 0.97775 3.869362e-39
-0.2768476 0.11616825 0.97775 3.8700641e-39
-0.2768476 0.11616825 0.98025 3.6856826e-39
-0.2743476 0.11616825 0.96275002 3.5938373e-39
-0.2743476 0.11866825 0.96275002 3.3168917e-39
-0.27184761 0.11616825 0.96275002 3.0417523e-39
-0.2743476 0.11616825 0.96775001 2.5811245e-39
-0.27184761 0.11616825 0.97025001 3.5938317e-39
-0.26934761 0.11616825 0.96275002 3.6867364e-39
-0.26934761 0.11866825 0.96275002 2.9484623e-39
-0.26684761 0.11616825 0.96275002 5.4337786e-39
-0.26684761 0.11866825 0.96275002 6.627301e-39
-0.26934761 0.11616825 0.96775001 3.5938373e-39
-0.26684761 0.11616825 0.96775001 3.408737e-39
-0.26684761 0.12116826 0.96275002 6.3557433e-39
-0.2743476 0.11616825 0.97275001 2.8580701e-39
-0.26434761 0.11366826 0.95525002 3.0392286e-39
-0.26184762 0.11366826 0.95525002 4.9753368e-39
-0.26434761 0.10366825 0.97025001 3.0410167e-39
-0.26184762 0.10366825 0.97025001 3.8697137e-39
-0.26434761 0.098668255 0.97275001 2.764071e-39
-0.26434761 0.098668255 0.97525001 3.6860329e-39
-0.26184762 0.098668255 0.97275001 3.3136575e-39
-0.26184762 0.098668255 0.97525001 3.5938373e-39
-0.26434761 0.09616825 0.97775 4.236683e-39
-0.26434761 0.09616825 0.98025 4.4210742e-39
-0.26434761 0.098668255 0.98025 3.7753517e-39
-0.26184762 0.098668255 0.97775 3.4976886e-39
-0.26184762 0.098668255 0.98025 3.5016417e-39
-0.26434761 0.10116825 0.97275001 2.6711551e-39
-0.26434761 0.10116825 0.97525001 3.317242e-39
-0.26434761 0.10366825 0.97275001 3.3172448e-39
-0.26434761 0.10366825 0.97525001 3.9600961e-39
-0.26184762 0.10116825 0.97275001 3.3133044e-39
-0.26184762 0.10116825 0.97525001 3.4998242e-39
-0.26184762 0.10366825 0.97525001 2.6704531e-39
-0.26434761 0.10116825 0.97775 2.9491685e-39
-0.26434761 0.10116825 0.98025 2.9491685e-39
-0.26434761 0.10366825 0.97775 2.6736733e-39
-0.26434761 0.10366825 0.98025 2.5814776e-39
-0.26184762 0.10116825 0.97775 3.4976886e-39
-0.26184762 0.10116825 0.98025 5.1615035e-39
-0.26184762 0.10366825 0.98025 4.0566077e-39
-0.25934762 0.10116825 0.98025 3.6867364e-39
-0.25934762 0.10366825 0.98025 3.2261044e-39
-0.25684762 0.10116825 0.97775 6.9925704e-39
-0.25684762 0.10116825 0.98025 5.2448191e-39
-0.25684762 0.10366825 0.97775 1.3082429e-38
-0.25684762 0.10366825 0.98025 1.1884251e-38
-0.26434761 0.10616826 0.96775001 3.5913192e-39
-0.26434761 0.10616826 0.97025001 3.8675473e-39
-0.26434761 0.10866825 0.96775001 4.0519386e-39
-0.26434761 0.10866825 0.97025001 2.6729698e-39
-0.26184762 0.10616826 0.96775001 4.882058e-39
-0.26184762 0.10616826 0.97025001 5.1611532e-39
-0.26184762 0.10866825 0.96775001 6.0802424e-39
-0.26184762 0.10866825 0.97025001 6.1763687e-39
-0.26434761 0.11116825 0.96275002 4.1488089e-39
-0.26434761 0.11366826 0.96275002 5.434873e-39
-0.26184762 0.11116825 0.96275002 4.6994758e-39
-0.26184762 0.11366826 0.96275002 6.0784446e-39
-0.26434761 0.11116825 0.96775001 3.6867364e-39
-0.26434761 0.11116825 0.97025001 4.5125664e-39
-0.26434761 0.11366826 0.96775001 5.8940519e-39
-0.26434761 0.11366826 0.97025001 5.9880468e-39
-0.26184762 0.11116825 0.96775001 6.0798921e-39
-0.26184762 0.11116825 0.97025001 6.2642427e-39
-0.26184762 0.11366826 0.96775001 5.7100208e-39
-0.26184762 0.11366826 0.97025001 4.0551602e-39
-0.25934762 0.10616826 0.96775001 3.2250478e-39
-0.25934762 0.10616826 0.97025001 3.8704144e-39
-0.25934762 0.10866825 0.96775001 6.1760184e-39
-0.25934762 0.10866825 0.97025001 5.3462493e-39
-0.25684762 0.10866825 0.96775001 7.1778977e-39
-0.25684762 0.10866825 0.97025001 7.6374522e-39
-0.25934762 0.11116825 0.96275002 5.9866021e-39
-0.25934762 0.11366826 0.96275002 4.6998261e-39
-0.25684762 0.11116825 0.96275002 3.4973201e-39
-0.25684762 0.11366826 0.96275002 2.7608088e-39
-0.25934762 0.11116825 0.96775001 6.0816493e-39
-0.25934762 0.11116825 0.97025001 4.5175438e-39
-0.25934762 0.11366826 0.96775001 4.6040166e-39
-0.25934762 0.11366826 0.97025001 3.6841874e-39
-0.26434761 0.10616826 0.97275001 3.5938373e-39
-0.26434761 0.10616826 0.97525001 3.6874721e-39
-0.26434761 0.10866825 0.97275001 4.9782109e-39
-0.26434761 0.10866825 0.97525001 5.8955009e-39
-0.26184762 0.10616826 0.97275001 3.8697137e-39
-0.26184762 0.10616826 0.97525001 4.0548098e-39
-0.26184762 0.10866825 0.97275001 6.4500787e-39
-0.26184762 0.10866825 0.97525001 5.2511852e-39
-0.26434761 0.10616826 0.97775 3.869362e-39
-0.26434761 0.10616826 0.98025 3.869362e-39
-0.26434761 0.10866825 0.98025 4.3314023e-39
-0.26184762 0.10616826 0.97775 3.2250478e-39
-0.26184762 0.10616826 0.98025 4.3306989e-39
-0.26184762 0.10866825 0.97775 4.6994338e-39
-0.26184762 0.10866825 0.98025 3.4090873e-39
-0.26434761 0.11116825 0.97275001 5.3469934e-39
-0.26434761 0.11116825 0.97525001 5.6217908e-39
-0.26434761 0.11366826 0.97275001 6.5397745e-39
-0.26184762 0.11116825 0.97275001 6.5444408e-39
-0.26184762 0.11116825 0.97525001 6.083464e-39
-0.26184762 0.11366826 0.97275001 5.8951057e-39
-0.26184762 0.11116825 0.97775 4.7001793e-39
-0.25934762 0.10616826 0.97275001 7.6352816e-39
-0.25934762 0.10616826 0.97525001 9.5634879e-39
-0.25934762 0.10866825 0.97275001 5.2515384e-39
-0.25934762 0.10866825 0.97525001 8.096299e-39
-0.25684762 0.10616826 0.97525001 1.8599374e-38
-0.25684762 0.10866825 0.97525001 1.1327776e-38
-0.25934762 0.10616826 0.97775 1.0114138e-38
-0.25934762 0.10616826 0.98025 7.2675879e-39
-0.25934762 0.10866825 0.97775 7.7278499e-39
-0.25934762 0.10866825 0.98025 1.0485071e-38
-0.25934762 0.11116825 0.97275001 5.8068757e-39
-0.25934762 0.11116825 0.97525001 3.5044933e-39
-0.25934762 0.11366826 0.97275001 3.4051244e-39
-0.26434761 0.11866825 0.94275004 3.6863861e-39
-0.26434761 0.11866825 0.94525003 3.9600961e-39
-0.26184762 0.11866825 0.94275004 4.8845705e-39
-0.26434761 0.11616825 0.94775003 3.3172448e-39
-0.26434761 0.11866825 0.94775003 3.4090873e-39
-0.26434761 0.11866825 0.95025003 5.5274274e-39
-0.26184762 0.11866825 0.95025003 5.2490356e-39
-0.26434761 0.12116826 0.94275004 5.341213e-39
-0.26434761 0.12116826 0.94525003 3.8722165e-39
-0.26434761 0.12366825 0.94275004 5.8040087e-39
-0.26434761 0.12366825 0.94525003 4.6980114e-39
-0.26184762 0.12116826 0.94275004 6.0787781e-39
-0.26184762 0.12116826 0.94525003 5.0707596e-39
-0.26184762 0.12366825 0.94275004 4.5132699e-39
-0.26184762 0.12366825 0.94525003 4.2392011e-39
-0.26434761 0.12116826 0.94775003 4.4275538e-39
-0.26434761 0.12116826 0.95025003 6.2642483e-39
-0.26434761 0.12366825 0.94775003 5.1589896e-39
-0.26434761 0.12366825 0.95025003 5.2508349e-39
-0.26184762 0.12116826 0.94775003 4.3346239e-39
-0.26184762 0.12116826 0.95025003 2.4835269e-39
-0.26184762 0.12366825 0.94775003 5.066794e-39
-0.26184762 0.12366825 0.95025003 5.5101298e-40
-0.25934762 0.11866825 0.94275004 2.7601054e-39
-0.25684762 0.11866825 0.94275004 7.361189e-40
-0.25934762 0.11866825 0.95025003 3.0409914e-39
-0.25934762 0.12116826 0.94275004 0
-0.25934762 0.12116826 0.94525003 0
-0.25934762 0.12366825 0.94275004 0
-0.25934762 0.12366825 0.94525003 0
-0.25684762 0.12116826 0.94275004 0
-0.25684762 0.12116826 0.94525003 0
-0.25684762 0.12366825 0.94275004 3.3631163e-44
-0.25684762 0.12366825 0.94525003 0
-0.25934762 0.12116826 0.94775003 0
-0.25934762 0.12366825 0.94775003 0
-0.25934762 0.12366825 0.95025003 0
-0.26434761 0.11616825 0.95275003 3.6863861e-39
-0.26434761 0.11616825 0.95525002 3.8722165e-39
-0.26434761 0.11866825 0.95275003 6.4465068e-39
-0.26434761 0.11866825 0.95525002 6.263189e-39
-0.26184762 0.11616825 0.95275003 4.6079836e-39
-0.26184762 0.11616825 0.95525002 4.7019771e-39
-0.26184762 0.11866825 0.95275003 5.6163874e-39
-0.26184762 0.11866825 0.95525002 3.5952386e-39
-0.26434761 0.11616825 0.95775002 5.804359e-39
-0.26434761 0.11866825 0.95775002 6.1706402e-39
-0.26184762 0.11616825 0.95775002 4.5186396e-39
-0.26184762 0.11866825 0.95775002 5.3437312e-39
-0.26434761 0.12116826 0.95275003 4.8845761e-39
-0.26184762 0.12116826 0.95275003 2.9484623e-39
-0.26184762 0.12366825 0.95275003 0
-0.26434761 0.12116826 0.95775002 5.2511852e-39
-0.26184762 0.12116826 0.95775002 3.8693074e-39
-0.25934762 0.11616825 0.95275003 3.7810718e-39
-0.25934762 0.11866825 0.95275003 9.1835496e-40
-0.25934762 0.11866825 0.95525002 1.102026e-39
-0.25684762 0.11866825 0.95275003 1.8369622e-40
-0.25684762 0.11866825 0.95525002 8.2654609e-40
-0.25934762 0.11616825 0.95775002 1.472263e-39
-0.25934762 0.11866825 0.95775002 5.5101298e-40
-0.25684762 0.11616825 0.95775002 1.7484898e-39
-0.25684762 0.11866825 0.95775002 1.9314209e-39
-0.25934762 0.12116826 0.95275003 1.5612034e-39
-0.25934762 0.12366825 0.95275003 0
-0.26434761 0.12616825 0.94275004 6.0787977e-39
-0.26434761 0.12616825 0.94525003 5.1589896e-39
-0.26434761 0.12866825 0.94275004 3.4112383e-39
-0.26434761 0.12866825 0.94525003 4.6054655e-39
-0.26184762 0.12616825 0.94275004 2.1143856e-39
-0.26184762 0.12616825 0.94525003 1.3775324e-39
-0.26184762 0.12866825 0.94275004 0
-0.26184762 0.12866825 0.94525003 0
-0.26434761 0.12616825 0.94775003 2.1165338e-39
-0.26434761 0.12866825 0.94775003 9.1835496e-41
-0.26184762 0.12616825 0.94775003 3.6734198e-40
-0.26184762 0.12866825 0.94775003 0
-0.26434761 0.13116825 0.94275004 2.3027201e-39
-0.26434761 0.13116825 0.94525003 2.7604613e-39
-0.26434761 0.13366826 0.94275004 5.5101298e-40
-0.26434761 0.13366826 0.94525003 5.5101298e-40
-0.26184762 0.13116825 0.94275004 0
-0.26184762 0.13116825 0.94525003 0
-0.26184762 0.13366826 0.94275004 8.2651947e-40
-0.26184762 0.13366826 0.94525003 8.2651947e-40
-0.26434761 0.13116825 0.94775003 9.1835496e-41
-0.26434761 0.13366826 0.94775003 5.5101298e-40
-0.26434761 0.13366826 0.95025003 2.7550649e-40
-0.26184762 0.13116825 0.94775003 0
-0.26184762 0.13116825 0.95025003 0
-0.26184762 0.13366826 0.95025003 3.1310767e-39
-0.25934762 0.12616825 0.94275004 0
-0.25934762 0.12616825 0.94525003 8.2651947e-40
-0.25934762 0.12866825 0.94275004 0
-0.25934762 0.12866825 0.94525003 5.5208917e-40
-0.25684762 0.12616825 0.94275004 1.6815582e-44
-0.25684762 0.12866825 0.94275004 1.2903885e-39
-0.25934762 0.12616825 0.94775003 8.2651947e-40
-0.25934762 0.12866825 0.94775003 0
-0.25934762 0.13116825 0.94275004 2.3020447e-39
-0.25934762 0.13116825 0.94525003 2.5782729e-39
-0.25934762 0.13366826 0.94275004 3.222922e-39
-0.25684762 0.13116825 0.94525003 1.8439126e-39
-0.25934762 0.13116825 0.94775003 9.2302969e-40
-0.25934762 0.13366826 0.95025003 1.7553141e-39
-0.26434761 0.13366826 0.95275003 9.185091e-41
-0.26184762 0.13366826 0.95275003 2.8548598e-39
-0.25934762 0.13116825 0.95275003 9.2125985e-40
-0.25934762 0.13366826 0.95275003 8.3264734e-40
-0.25434762 0.11866825 0.94275004 1.0102185e-39
-0.25434762 0.12116826 0.94275004 3.5873241e-43
-0.25434762 0.12366825 0.94275004 9.187151e-40
-0.26434761 0.11616825 0.96275002 6.5401248e-39
-0.26434761 0.11866825 0.96275002 7.2726704e-39
-0.26184762 0.11616825 0.96275002 3.2253981e-39
-0.26184762 0.11866825 0.96275002 5.2525893e-39
-0.26434761 0.11616825 0.96775001 6.3560937e-39
-0.26434761 0.11616825 0.97025001 6.1713437e-39
-0.26434761 0.11866825 0.96775001 6.263189e-39
-0.26434761 0.11866825 0.97025001 5.159693e-39
-0.26184762 0.11616825 0.96775001 4.0519386e-39
-0.26184762 0.11616825 0.97025001 3.772828e-39
-0.26184762 0.11866825 0.96775001 6.4284847e-40
-0.26184762 0.11866825 0.97025001 1.3793611e-39
-0.26434761 0.12116826 0.96275002 4.7005296e-39
-0.25934762 0.11616825 0.96275002 1.8402972e-39
-0.25934762 0.11866825 0.96275002 7.3468817e-40
-0.25684762 0.11616825 0.96275002 1.8410441e-39
-0.25684762 0.11866825 0.96275002 1.7484898e-39
-0.25934762 0.11616825 0.96775001 2.390234e-39
-0.25934762 0.11866825 0.96775001 1.3800674e-39
-0.26434761 0.11616825 0.97275001 5.8965546e-39
-0.28434762 0.098668255 0.98525 1.2868138e-39
-0.28434762 0.098668255 0.99024999 9.8090893e-45
-0.28434762 0.10116825 0.99024999 1.838505e-39
-0.28434762 0.10366825 0.99024999 1.6530684e-39
-0.28184763 0.10366825 0.99024999 2.1129605e-39
-0.2768476 0.10366825 0.98525 4.4207015e-39
-0.27934763 0.10366825 0.98774999 3.3143553e-39
-0.27934763 0.10366825 0.99024999 3.9626142e-39
-0.2768476 0.10116825 0.98774999 0
-0.2768476 0.10116825 0.99024999 2.7550649e-40
-0.2768476 0.10366825 0.98774999 3.6867364e-39
-0.2768476 0.10366825 0.99024999 4.1470055e-39
-0.28434762 0.098668255 0.99524999 2.3472066e-38
-0.28184763 0.098668255 0.99524999 2.0641747e-38
-0.28434762 0.09616825 0.99774998 2.1363442e-38
-0.28434762 0.09616825 1.00025 2.1362742e-38
-0.28434762 0.098668255 0.99774998 2.3470265e-38
-0.28434762 0.098668255 1.00025 2.1011253e-38
-0.28184763 0.09616825 0.99774998 2.119275e-38
-0.28184763 0.098668255 0.99774998 2.0641391e-38
-0.28434762 0.10116825 0.99274999 1.102026e-39
-0.28434762 0.10116825 0.99524999 0
-0.28434762 0.10366825 0.99274999 1.4693946e-39
-0.28434762 0.10366825 0.99524999 2.2065813e-39
-0.28184763 0.10116825 0.99274999 3.6734198e-40
-0.28184763 0.10116825 0.99524999 0
-0.28184763 0.10366825 0.99274999 2.9437988e-39
-0.28184763 0.10366825 0.99524999 2.4867639e-39
-0.28434762 0.10116825 0.99774998 0
-0.28434762 0.10116825 1.00025 8.7312441e-39
-0.28434762 0.10366825 0.99774998 2.3938592e-39
-0.28434762 0.10366825 1.00025 0
-0.28184763 0.10116825 0.99774998 0
-0.28184763 0.10116825 1.00025 9.2844179e-39
-0.28184763 0.10366825 0.99774998 3.4101467e-39
-0.28184763 0.10366825 1.00025 0
-0.27934763 0.098668255 0.99524999 2.1102367e-38
-0.27934763 0.09616825 0.99774998 2.1839213e-38
-0.27934763 0.10116825 0.99524999 0
-0.27934763 0.10366825 0.99274999 4.0497876e-39
-0.27934763 0.10366825 0.99524999 3.5927527e-39
-0.2768476 0.10116825 0.99274999 9.1835496e-41
-0.2768476 0.10366825 0.99274999 4.1441342e-39
-0.27934763 0.10116825 0.99774998 5.5177206e-39
-0.27934763 0.10116825 1.00025 5.0570858e-39
-0.27934763 0.10366825 0.99774998 3.4097964e-39
-0.28434762 0.10616826 0.99024999 7.3504691e-40
-0.28434762 0.10866825 0.99024999 7.3469798e-40
-0.28184763 0.10616826 0.99024999 3.1303704e-39
-0.28184763 0.10866825 0.98774999 5.1536549e-39
-0.28184763 0.10866825 0.99024999 2.3996269e-39
-0.28434762 0.11366826 0.98525 8.2654609e-40
-0.28184763 0.11366826 0.98525 3.3190427e-39
-0.28434762 0.11116825 0.98774999 1.7481423e-39
-0.28434762 0.11116825 0.99024999 1.6562941e-39
-0.28434762 0.11366826 0.98774999 3.2232723e-39
-0.28434762 0.11366826 0.99024999 3.5948911e-39
-0.28184763 0.11116825 0.98774999 2.7655186e-39
-0.28184763 0.11116825 0.99024999 3.6863861e-39
-0.28184763 0.11366826 0.98774999 2.6743795e-39
-0.28184763 0.11366826 0.99024999 3.4097908e-39
-0.27934763 0.10616826 0.98525 3.3168917e-39
-0.27934763 0.10866825 0.98525 4.1473558e-39
-0.2768476 0.10616826 0.98525 3.6867364e-39
-0.2768476 0.10866825 0.98525 3.8707675e-39
-0.27934763 0.10616826 0.98774999 3.5945408e-39
-0.27934763 0.10616826 0.99024999 3.8707675e-39
-0.27934763 0.10866825 0.98774999 4.331052e-39
-0.27934763 0.10866825 0.99024999 2.8594939e-39
-0.2768476 0.10616826 0.98774999 3.8707675e-39
-0.2768476 0.10616826 0.99024999 3.9626142e-39
-0.2768476 0.10866825 0.98774999 3.8697137e-39
-0.2768476 0.10866825 0.99024999 3.5016417e-39
-0.27934763 0.11116825 0.98525 4.7880589e-39
-0.27934763 0.11366826 0.98525 3.6860329e-39
-0.2768476 0.11116825 0.98525 3.9626142e-39
-0.2768476 0.11366826 0.98525 3.9622611e-39
-0.27934763 0.11116825 0.98774999 4.5132699e-39
-0.27934763 0.11116825 0.99024999 3.8700641e-39
-0.27934763 0.11366826 0.98774999 4.1470111e-39
-0.27934763 0.11366826 0.99024999 3.6860329e-39
-0.2768476 0.11116825 0.98774999 3.5938373e-39
-0.2768476 0.11116825 0.99024999 3.3168917e-39
-0.2768476 0.11366826 0.98774999 3.6856826e-39
-0.28434762 0.10616826 0.99274999 7.347204e-40
-0.28434762 0.10616826 0.99524999 3.2232723e-39
-0.28434762 0.10866825 0.99274999 1.1027728e-39
-0.28434762 0.10866825 0.99524999 1.8368781e-40
-0.28184763 0.10616826 0.99274999 3.2253981e-39
-0.28184763 0.10616826 0.99524999 3.1360807e-39
-0.28184763 0.10866825 0.99274999 3.407665e-39
-0.28184763 0.10866825 0.99524999 2.8580701e-39
-0.28434762 0.10616826 0.99774998 2.947033e-39
-0.28434762 0.10866825 0.99774998 3.2232723e-39
-0.28184763 0.10616826 0.99774998 3.8707675e-39
-0.28184763 0.10866825 0.99774998 3.5938317e-39
-0.28434762 0.11116825 0.99274999 3.4955208e-39
-0.28434762 0.11116825 0.99524999 8.2657692e-40
-0.28434762 0.11366826 0.99274999 4.1455467e-39
-0.28434762 0.11366826 0.99524999 4.0529924e-39
-0.28184763 0.11116825 0.99274999 4.5126085e-39
-0.28184763 0.11116825 0.99524999 3.8697137e-39
-0.28184763 0.11366826 0.99274999 4.6983618e-39
-0.28184763 0.11366826 0.99524999 4.4210742e-39
-0.28434762 0.11366826 0.99774998 2.5821839e-39
-0.28184763 0.11366826 0.99774998 2.6736733e-39
-0.27934763 0.10616826 0.99274999 3.8707675e-39
-0.27934763 0.10616826 0.99524999 3.5970589e-39
-0.27934763 0.10866825 0.99524999 3.1342983e-39
-0.2768476 0.10616826 0.99274999 4.5129167e-39
-0.27934763 0.10616826 0.99774998 3.6860329e-39
-0.27934763 0.11366826 0.99524999 3.4094404e-39
-0.2743476 0.09616825 0.98525 1.1699487e-38
-0.2743476 0.098668255 0.98525 2.7550803e-39
-0.27184761 0.09616825 0.98525 6.6269198e-39
-0.27184761 0.098668255 0.98525 2.7590544e-39
-0.2743476 0.09616825 0.99024999 6.4421698e-39
-0.2743476 0.098668255 0.98774999 1.9285454e-39
-0.27184761 0.09616825 0.98774999 2.1122164e-39
-0.27184761 0.09616825 0.99024999 2.3877229e-39
-0.27184761 0.098668255 0.98774999 1.7531435e-39
-0.27184761 0.098668255 0.99024999 1.7531435e-39
-0.2743476 0.10116825 0.98525 2.391697e-39
-0.2743476 0.10366825 0.98525 3.9622611e-39
-0.27184761 0.10116825 0.98525 3.8675473e-39
-0.27184761 0.10366825 0.98525 4.1444873e-39
-0.2743476 0.10116825 0.98774999 2.0232662e-39
-0.2743476 0.10366825 0.98774999 4.4207211e-39
-0.27184761 0.10116825 0.98774999 3.2239786e-39
-0.26934761 0.09616825 0.98525 1.8367099e-39
-0.26934761 0.098668255 0.98525 4.0519386e-39
-0.26684761 0.09616825 0.98525 3.8696983e-39
-0.26684761 0.098668255 0.98525 4.5129167e-39
-0.26934761 0.09616825 0.98774999 2.7630018e-39
-0.26934761 0.09616825 0.99024999 2.7630018e-39
-0.26934761 0.098668255 0.98774999 4.1441342e-39
-0.26934761 0.098668255 0.99024999 3.5938373e-39
-0.26684761 0.09616825 0.98774999 4.4210742e-39
-0.26684761 0.09616825 0.99024999 3.8700641e-39
-0.26684761 0.098668255 0.98774999 4.0519386e-39
-0.26684761 0.098668255 0.99024999 3.5034395e-39
-0.26934761 0.10116825 0.98525 4.1441342e-39
-0.26934761 0.10366825 0.98525 3.4108852e-39
-0.26684761 0.10116825 0.98525 3.8675473e-39
-0.26684761 0.10366825 0.98525 2.7655158e-39
-0.26934761 0.10116825 0.98774999 3.0406635e-39
-0.26684761 0.10116825 0.98774999 2.6718614e-39
-0.26684761 0.10366825 0.98774999 2.6718614e-39
-0.2743476 0.098668255 0.99524999 0
-0.27184761 0.09616825 0.99274999 1.8367099e-39
-0.27184761 0.09616825 0.99524999 2.3938592e-39
-0.27184761 0.098668255 0.99524999 3.3168917e-39
-0.2743476 0.10116825 0.99274999 1.6559466e-39
-0.27184761 0.10116825 0.99274999 2.7622956e-39
-0.27184761 0.10116825 0.99524999 3.4094404e-39
-0.26934761 0.09616825 0.99274999 4.0533875e-39
-0.26934761 0.09616825 0.99524999 3.7767936e-39
-0.26934761 0.098668255 0.99274999 4.2392067e-39
-0.26934761 0.098668255 0.99524999 3.5938373e-39
-0.26684761 0.09616825 0.99274999 4.0544567e-39
-0.26684761 0.09616825 0.99524999 7.3469798e-40
-0.26684761 0.098668255 0.99274999 4.5136202e-39
-0.26684761 0.098668255 0.99524999 3.2250478e-39
-0.2743476 0.10616826 0.98525 4.604762e-39
-0.2743476 0.10866825 0.98525 4.0519386e-39
-0.2743476 0.11366826 0.98525 3.3172448e-39
-0.28434762 0.09616825 1.00275 1.7045739e-38
-0.28434762 0.098668255 1.00275 2.1009448e-38
-0.28434762 0.09616825 1.00775 2.1748069e-38
-0.28434762 0.09616825 1.01025 2.147328e-38
-0.28434762 0.098668255 1.00775 2.1286045e-38
-0.28434762 0.098668255 1.01025 2.3496917e-38
-0.28184763 0.09616825 1.01025 2.1657326e-38
-0.28184763 0.098668255 1.00775 1.8247176e-38
-0.28184763 0.098668255 1.01025 1.1977138e-38
-0.28434762 0.10116825 1.00275 8.0879879e-39
-0.28184763 0.10116825 1.00275 5.0563669e-39
-0.28434762 0.10116825 1.00775 9.4648463e-39
-0.28434762 0.10116825 1.01025 2.1011253e-38
-0.28434762 0.10366825 1.00775 0
-0.28184763 0.10116825 1.00775 5.4233516e-39
-0.28184763 0.10116825 1.01025 1.9538268e-38
-0.28184763 0.10366825 1.00775 0
-0.27934763 0.10116825 1.00775 2.9387359e-39
-0.27934763 0.10116825 1.01025 1.7484898e-39
-0.27934763 0.10366825 1.00775 9.2015843e-40
-0.2768476 0.10116825 1.01025 3.2239786e-39
-0.28434762 0.09616825 1.01275 2.1840988e-38
-0.28434762 0.09616825 1.01525 2.1749887e-38
-0.28434762 0.098668255 1.01275 2.1564424e-38
-0.28434762 0.098668255 1.01525 2.1287833e-38
-0.28184763 0.09616825 1.01275 1.7323421e-38
-0.28184763 0.09616825 1.01525 1.7416692e-38
-0.28184763 0.098668255 1.01275 1.1791687e-38
-0.28184763 0.098668255 1.01525 1.1884239e-38
-0.28434762 0.09616825 1.02025 2.1748075e-38
-0.28434762 0.098668255 1.02025 1.1976081e-38
-0.28184763 0.09616825 1.02025 1.3915034e-38
-0.28184763 0.098668255 1.02025 6.8130837e-39
-0.28434762 0.10116825 1.01275 2.0088571e-38
-0.28434762 0.10116825 1.01525 1.9445719e-38
-0.28184763 0.10116825 1.01275 8.8407037e-39
-0.28184763 0.10116825 1.01525 8.8432205e-39
-0.28434762 0.10116825 1.02025 9.0258167e-39
-0.28184763 0.10116825 1.02025 0
-0.27934763 0.098668255 1.01275 6.7208881e-39
-0.27934763 0.098668255 1.01525 6.4425201e-39
-0.27934763 0.09616825 1.02025 0
-0.27934763 0.098668255 1.02025 2.2040519e-39
-0.27934763 0.10116825 1.01275 2.2055247e-39
-0.27934763 0.10116825 1.01525 0
-0.27934763 0.10116825 1.02025 2.579307e-39
-0.28434762 0.11616825 0.98525 1.0102437e-39
-0.28434762 0.11866825 0.98525 3.3190427e-39
-0.28434762 0.11616825 0.98774999 3.7764461e-39
-0.28434762 0.11616825 0.99024999 3.4112383e-39
-0.28184763 0.11616825 0.98774999 3.5048633e-39
-0.28184763 0.11616825 0.99024999 3.7800208e-39
-0.27934763 0.11616825 0.98774999 4.2366886e-39
-0.2768476 0.11616825 0.98774999 4.1441342e-39
-0.28434762 0.11616825 0.99274999 3.8707675e-39
-0.28434762 0.11616825 0.99524999 3.6892545e-39
-0.28184763 0.11616825 0.99274999 3.8707675e-39
-0.26434761 0.09616825 0.98525 3.4976886e-39
-0.26434761 0.098668255 0.98525 3.5913192e-39
-0.26184762 0.098668255 0.98525 2.5790015e-39
-0.26434761 0.09616825 0.98774999 4.0522917e-39
-0.26434761 0.09616825 0.99024999 3.4090873e-39
-0.26434761 0.098668255 0.98774999 3.8675473e-39
-0.26434761 0.098668255 0.99024999 3.5913192e-39
-0.26184762 0.098668255 0.98774999 3.4076804e-39
-0.26184762 0.098668255 0.99024999 3.4069223e-39
-0.26434761 0.10116825 0.98525 4.1426895e-39
-0.26434761 0.10366825 0.98525 4.1470055e-39
-0.26184762 0.10116825 0.98525 3.9626142e-39
-0.26184762 0.10366825 0.98525 3.8714682e-39
-0.26434761 0.10116825 0.98774999 4.8802545e-39
-0.26434761 0.10116825 0.99024999 4.7898568e-39
-0.26434761 0.10366825 0.98774999 4.7001793e-39
-0.26184762 0.10116825 0.98774999 3.9629645e-39
-0.26184762 0.10116825 0.99024999 1.7499247e-39
-0.26184762 0.10366825 0.98774999 3.7767516e-39
-0.26184762 0.10366825 0.99024999 8.3883534e-39
-0.25934762 0.098668255 0.98525 1.5644895e-39
-0.25684762 0.098668255 0.98525 2.6653818e-39
-0.25934762 0.098668255 0.98774999 4.2251503e-39
-0.25934762 0.098668255 0.99024999 4.3213032e-39
-0.25934762 0.10116825 0.98525 7.3576717e-40
-0.25934762 0.10366825 0.98525 8.1128273e-39
-0.25684762 0.10116825 0.98525 4.045089e-39
-0.25684762 0.10366825 0.98525 1.35434e-38
-0.25934762 0.10116825 0.98774999 3.7681294e-39
-0.25934762 0.10116825 0.99024999 1.4726133e-39
-0.25934762 0.10366825 0.98774999 8.5712845e-39
-0.25934762 0.10366825 0.99024999 1.3542681e-38
-0.25684762 0.10116825 0.98774999 1.8984001e-38
-0.25684762 0.10366825 0.98774999 2.0452409e-38
-0.26434761 0.09616825 0.99274999 3.5001745e-39
-0.26434761 0.09616825 0.99524999 2.8573232e-39
-0.26434761 0.098668255 0.99274999 2.9484623e-39
-0.26434761 0.098668255 0.99524999 1.6634646e-39
-0.26184762 0.09616825 0.99274999 1.2882375e-39
-0.26184762 0.09616825 0.99524999 6.6164801e-39
-0.26184762 0.098668255 0.99274999 8.279628e-40
-0.26184762 0.098668255 0.99524999 6.7086758e-39
-0.26434761 0.09616825 0.99774998 0
-0.26184762 0.09616825 0.99774998 5.3264588e-39
-0.26434761 0.10116825 0.99274999 4.1441342e-39
-0.26434761 0.10366825 0.99274999 4.5139705e-39
-0.26184762 0.10116825 0.99274999 1.3782653e-39
-0.26184762 0.10116825 0.99524999 4.2251503e-39
-0.25934762 0.09616825 0.99524999 2.0353629e-38
-0.25934762 0.098668255 0.99274999 6.4324308e-39
-0.25934762 0.098668255 0.99524999 1.9800455e-38
-0.25934762 0.09616825 0.99774998 2.1827299e-38
-0.25934762 0.098668255 0.99774998 2.0259972e-38
-0.25934762 0.10116825 0.99274999 4.2291076e-39
-0.25934762 0.10116825 0.99524999 1.7413083e-38
-0.26434761 0.10616826 0.98525 3.7793174e-39
-0.26434761 0.10866825 0.98525 5.1593399e-39
-0.26184762 0.10616826 0.98525 7.5441663e-39
-0.26184762 0.10866825 0.98525 7.9125915e-39
-0.26434761 0.10616826 0.98774999 3.6853295e-39
-0.26434761 0.10866825 0.98774999 5.066794e-39
-0.26184762 0.10616826 0.98774999 6.9931604e-39
-0.26184762 0.10616826 0.99024999 1.7961189e-38
-0.26184762 0.10866825 0.98774999 7.8200456e-39
-0.26184762 0.10866825 0.99024999 1.0574749e-38
-0.26434761 0.11116825 0.98525 4.6079836e-39
-0.26434761 0.11366826 0.98525 3.7764055e-39
-0.26184762 0.11116825 0.98525 3.6867364e-39
-0.26184762 0.11366826 0.98525 2.3013132e-39
-0.25934762 0.10616826 0.98525 1.8420023e-38
-0.25934762 0.10866825 0.98525 1.9797196e-38
-0.25684762 0.10616826 0.98525 2.0362967e-38
-0.25684762 0.10866825 0.98525 2.0087109e-38
-0.25934762 0.10616826 0.98774999 1.7411265e-38
-0.25934762 0.10866825 0.98774999 1.2614218e-38
-0.26434761 0.10616826 0.99274999 4.696194e-39
-0.26184762 0.10616826 0.99274999 1.7777158e-38
-0.30184761 0.13616826 0.92524999 1.1440187e-38
-0.3043476 0.13616826 0.92774999 1.5573853e-38
-0.3043476 0.13616826 0.93024999 1.5482013e-38
-0.3043476 0.13866825 0.92774999 1.6404689e-38
-0.3043476 0.13866825 0.93024999 1.575967e-38
-0.30184761 0.13616826 0.92774999 1.2357084e-38
-0.30184761 0.13616826 0.93024999 1.1988672e-38
-0.30184761 0.13866825 0.92774999 1.714479e-38
-0.30184761 0.13866825 0.93024999 1.7329166e-38
-0.30184761 0.14116825 0.93024999 1.9351371e-38
-0.30184761 0.14366825 0.93024999 1.7690408e-38
-0.29934761 0.13616826 0.92524999 8.5824823e-39
-0.29684761 0.13616826 0.92524999 1.3643178e-38
-0.29684761 0.13866825 0.92524999 1.3089609e-38
-0.29934761 0.13616826 0.92774999 9.6777091e-39
-0.29934761 0.13866825 0.92774999 1.4288152e-38
-0.29934761 0.13866825 0.93024999 1.3549886e-38
-0.29684761 0.13616826 0.92774999 1.3274415e-38
-0.29684761 0.13866825 0.92774999 1.2814104e-38
-0.29684761 0.14116825 0.92524999 1.1150636e-38
-0.29934761 0.14116825 0.92774999 1.5575669e-38
-0.29934761 0.14116825 0.93024999 1.5576745e-38
