# .PCD v0.7 - Point Cloud Data file format
VERSION 0.7
FIELDS x y z rgb
SIZE 4 4 4 4
TYPE F F F F
COUNT 1 1 1 1
WIDTH 1127
HEIGHT 1
VIEWPOINT 0 0 0 1 0 0 0
POINTS 1127
DATA ascii
-0.34745744 0.18348384 0.83075005 0
-0.34745744 0.18348384 0.83325005 7.3504691e-40
-0.34745744 0.18598384 0.83075005 0
-0.34745744 0.18598384 0.83325005 4.2038954e-45
-0.34745744 0.18598384 0.83575004 5.6051939e-45
-0.34995744 0.18848383 0.83075005 6.6395343e-39
-0.34995744 0.18848383 0.83325005 1.5723858e-39
-0.34995744 0.19098385 0.83075005 7.1001551e-39
-0.34995744 0.19098385 0.83325005 8.4809288e-39
-0.34745744 0.18848383 0.83075005 0
-0.34745744 0.18848383 0.83325005 0
-0.34745744 0.19098385 0.83325005 0
-0.34995744 0.18848383 0.83575004 0
-0.34995744 0.18848383 0.83825004 0
-0.34995744 0.19098385 0.83575004 0
-0.34995744 0.19098385 0.83825004 0
-0.34745744 0.18848383 0.83575004 0
-0.34745744 0.19098385 0.83575004 0
-0.34745744 0.19098385 0.83825004 0
-0.34495741 0.18348384 0.83075005 1.4012985e-45
-0.34495741 0.18348384 0.83325005 6.4320721e-40
-0.34495741 0.18598384 0.83075005 1.4012985e-44
-0.34495741 0.18598384 0.83325005 0
-0.34245741 0.18348384 0.83075005 0
-0.34245741 0.18348384 0.83325005 0
-0.34245741 0.18598384 0.83325005 0
-0.34495741 0.18348384 0.83575004 3.5873241e-43
-0.34495741 0.18598384 0.83575004 0
-0.34245741 0.18348384 0.83575004 0
-0.34245741 0.18598384 0.83575004 0
-0.34245741 0.18598384 0.83825004 0
-0.34495741 0.18848383 0.83325005 0
-0.34495741 0.18848383 0.83575004 0
-0.34495741 0.18848383 0.83825004 0
-0.34495741 0.19098385 0.83575004 0
-0.34495741 0.19098385 0.83825004 0
-0.34245741 0.18848383 0.83575004 0
-0.34245741 0.18848383 0.83825004 0
-0.34995744 0.19098385 0.84075004 0
-0.34745744 0.19098385 0.84075004 0
-0.34745744 0.19098385 0.84325004 0
-0.34745744 0.19098385 0.84575003 0
-0.34245741 0.18598384 0.84075004 0
-0.34495741 0.18848383 0.84075004 0
-0.34495741 0.19098385 0.84075004 0
-0.34495741 0.19098385 0.84325004 0
-0.34245741 0.18848383 0.84075004 0
-0.34245741 0.18848383 0.84325004 0
-0.34245741 0.19098385 0.84325004 0
-0.34495741 0.18848383 0.84575003 0
-0.34495741 0.19098385 0.84575003 4.2038954e-45
-0.34245741 0.18848383 0.84575003 0
-0.34245741 0.19098385 0.84575003 0
-0.34245741 0.19098385 0.84825003 0
-0.33745742 0.15348384 0.84575003 1.5206866e-38
-0.33745742 0.15598384 0.84575003 1.2809081e-38
-0.33745742 0.15598384 0.84825003 0
-0.33745742 0.15848385 0.84825003 0
-0.33495742 0.15348384 0.84575003 1.3270448e-38
-0.33495742 0.15598384 0.84575003 1.0601068e-38
-0.33495742 0.15598384 0.84825003 0
-0.33245742 0.15348384 0.84575003 1.2625078e-38
-0.33245742 0.15598384 0.84575003 0
-0.33245742 0.15598384 0.84825003 0
-0.33495742 0.15848385 0.84825003 0
-0.33495742 0.16098385 0.84825003 7.3756504e-40
-0.33245742 0.15848385 0.84575003 1.1077741e-39
-0.33245742 0.15848385 0.84825003 2.026492e-39
-0.33245742 0.16098385 0.84575003 2.7623797e-40
-0.33245742 0.16098385 0.84825003 6.4501908e-40
-0.33745742 0.17098384 0.83075005 1.7520645e-39
-0.33745742 0.17098384 0.83325005 1.2921639e-39
-0.33995742 0.17098384 0.83575004 1.7520645e-39
-0.33995742 0.17098384 0.83825004 2.1179828e-39
-0.33745742 0.16848384 0.83575004 2.4885786e-39
-0.33745742 0.17098384 0.83575004 2.1179828e-39
-0.33745742 0.17098384 0.83825004 2.1179828e-39
-0.33495742 0.17098384 0.83075005 1.7520645e-39
-0.33495742 0.17098384 0.83325005 1.7491988e-39
-0.33245742 0.17098384 0.83075005 2.3027201e-39
-0.33245742 0.17098384 0.83325005 1.1985432e-39
-0.33495742 0.16848384 0.83575004 2.0283039e-39
-0.33495742 0.17098384 0.83575004 1.4747798e-39
-0.33495742 0.17098384 0.83825004 2.2119931e-39
-0.33245742 0.17098384 0.83575004 1.3825841e-39
-0.33245742 0.17098384 0.83825004 1.7531435e-39
-0.33745742 0.16848384 0.84825003 2.3981388e-39
-0.33745742 0.17098384 0.84575003 1.571269e-39
-0.33745742 0.17098384 0.84825003 1.4783671e-39
-0.33245742 0.16598384 0.84575003 9.1835496e-41
-0.33245742 0.16598384 0.84825003 0
-0.33495742 0.16848384 0.84075004 2.3970864e-39
-0.33495742 0.17098384 0.84075004 1.9361082e-39
-0.33245742 0.16848384 0.84075004 1.7556616e-39
-0.33245742 0.16848384 0.84325004 1.3868777e-39
-0.33245742 0.17098384 0.84075004 2.0276032e-39
-0.33245742 0.17098384 0.84325004 1.9361082e-39
-0.33495742 0.16848384 0.84575003 2.4896295e-39
-0.33495742 0.16848384 0.84825003 0
-0.33495742 0.17098384 0.84575003 2.1204995e-39
-0.33245742 0.16848384 0.84575003 2.6743795e-39
-0.33245742 0.17098384 0.84575003 2.2126951e-39
-0.32995743 0.15598384 0.84575003 0
-0.32995743 0.15598384 0.84825003 9.5432629e-41
-0.32995743 0.15848385 0.84575003 2.7801762e-40
-0.32995743 0.17098384 0.83325005 1.1985432e-39
-0.32995743 0.17098384 0.83575004 1.841742e-39
-0.32995743 0.17098384 0.83825004 1.7491988e-39
-0.32745743 0.17098384 0.83825004 1.7491988e-39
-0.32495743 0.16848384 0.83825004 1.2028466e-39
-0.32495743 0.17098384 0.83825004 1.6566445e-39
-0.32245743 0.16848384 0.83575004 2.7633522e-39
-0.32245743 0.16848384 0.83825004 2.9491685e-39
-0.32245743 0.17098384 0.83825004 1.3804163e-39
-0.32995743 0.16598384 0.84575003 4.5917748e-40
-0.32995743 0.16598384 0.84825003 4.2038954e-45
-0.32745743 0.16598384 0.84575003 1.1056385e-39
-0.32745743 0.16598384 0.84825003 6.4607706e-40
-0.32995743 0.16848384 0.84325004 2.2141216e-39
-0.32995743 0.17098384 0.84075004 1.7531435e-39
-0.32995743 0.17098384 0.84325004 2.3027201e-39
-0.32745743 0.16848384 0.84075004 1.6627667e-39
-0.32745743 0.16848384 0.84325004 2.3945654e-39
-0.32745743 0.17098384 0.84075004 1.5687522e-39
-0.32745743 0.17098384 0.84325004 2.3949158e-39
-0.32995743 0.16848384 0.84575003 2.9480895e-39
-0.32995743 0.17098384 0.84575003 2.5786092e-39
-0.32745743 0.16848384 0.84575003 2.3963829e-39
-0.32745743 0.16848384 0.84825003 1.3829344e-39
-0.32745743 0.17098384 0.84575003 2.5811245e-39
-0.32245743 0.16598384 0.84325004 1.4783671e-39
-0.32495743 0.16598384 0.84575003 1.2028466e-39
-0.32495743 0.16598384 0.84825003 1.4765552e-39
-0.32245743 0.16598384 0.84575003 1.7531435e-39
-0.32245743 0.16598384 0.84825003 2.6722089e-39
-0.32495743 0.16848384 0.84075004 1.3858211e-39
-0.32495743 0.16848384 0.84325004 1.751717e-39
-0.32495743 0.17098384 0.84075004 2.026492e-39
-0.32495743 0.17098384 0.84325004 1.8413945e-39
-0.32245743 0.16848384 0.84075004 1.751717e-39
-0.32245743 0.16848384 0.84325004 1.6609479e-39
-0.32245743 0.17098384 0.84075004 1.2907388e-39
-0.32495743 0.16848384 0.84575003 2.1219246e-39
-0.32245743 0.16848384 0.84575003 2.3963773e-39
-0.33995742 0.17598385 0.82825005 0
-0.33995742 0.17848384 0.82825005 0
-0.33995742 0.17348385 0.83075005 7.3756504e-40
-0.33995742 0.17348385 0.83325005 1.7520645e-39
-0.33995742 0.17598385 0.83075005 3.6734198e-40
-0.33995742 0.17598385 0.83325005 6.4284847e-40
-0.33745742 0.17348385 0.83075005 1.6566445e-39
-0.33745742 0.17348385 0.83325005 2.7658689e-40
-0.33745742 0.17598385 0.83075005 0
-0.33745742 0.17598385 0.83325005 4.5917748e-40
-0.33995742 0.17348385 0.83575004 1.6573507e-39
-0.33995742 0.17598385 0.83575004 6.4284847e-40
-0.33745742 0.17348385 0.83575004 1.4726133e-39
-0.33745742 0.17598385 0.83575004 7.350441e-40
-0.33995742 0.17848384 0.83075005 9.1835496e-41
-0.33995742 0.17848384 0.83325005 0
-0.33995742 0.18098384 0.83075005 0
-0.33995742 0.18098384 0.83325005 0
-0.33745742 0.17848384 0.83075005 3.6734198e-40
-0.33745742 0.17848384 0.83325005 0
-0.33745742 0.18098384 0.83075005 5.6051939e-45
-0.33745742 0.18098384 0.83325005 5.6051939e-45
-0.33995742 0.17848384 0.83575004 0
-0.33995742 0.18098384 0.83575004 0
-0.33745742 0.17848384 0.83575004 0
-0.33745742 0.18098384 0.83575004 5.6051939e-45
-0.33495742 0.17348385 0.83075005 7.3504691e-40
-0.33495742 0.17348385 0.83325005 7.3504691e-40
-0.33495742 0.17598385 0.83075005 0
-0.33495742 0.17598385 0.83325005 3.6734198e-40
-0.33245742 0.17348385 0.83075005 1.4349296e-42
-0.33245742 0.17348385 0.83325005 0
-0.33245742 0.17598385 0.83075005 2.7658689e-40
-0.33245742 0.17598385 0.83325005 0
-0.33495742 0.17348385 0.83575004 1.3804163e-39
-0.33495742 0.17598385 0.83575004 0
-0.33245742 0.17348385 0.83575004 1.1038294e-39
-0.33245742 0.17598385 0.83575004 0
-0.33495742 0.17848384 0.83075005 1.8439126e-40
-0.33495742 0.17848384 0.83325005 0
-0.33495742 0.18098384 0.83075005 0
-0.33495742 0.18098384 0.83325005 2.7730015e-40
-0.33245742 0.17848384 0.83325005 0
-0.33245742 0.18098384 0.83325005 1.8404094e-40
-0.33495742 0.17848384 0.83575004 0
-0.33495742 0.18098384 0.83575004 0
-0.33245742 0.17848384 0.83575004 0
-0.33245742 0.18098384 0.83575004 0
-0.33995742 0.18348384 0.83325005 0
-0.33995742 0.18348384 0.83575004 0
-0.33995742 0.18348384 0.83825004 0
-0.33995742 0.18598384 0.83575004 0
-0.33995742 0.18598384 0.83825004 0
-0.33745742 0.18348384 0.83575004 0
-0.33745742 0.18348384 0.83825004 0
-0.33495742 0.18348384 0.83575004 9.1835496e-41
-0.33495742 0.18348384 0.83825004 0
-0.33245742 0.18348384 0.83575004 3.6734198e-40
-0.33245742 0.18348384 0.83825004 0
-0.33995742 0.18598384 0.84075004 0
-0.33995742 0.18598384 0.84325004 0
-0.33745742 0.18598384 0.84075004 0
-0.33745742 0.18598384 0.84325004 0
-0.33995742 0.18848383 0.84325004 0
-0.33995742 0.18848383 0.84575003 0
-0.33995742 0.19098385 0.84575003 0
-0.33745742 0.18848383 0.84575003 0
-0.33745742 0.19098385 0.84575003 0
-0.33495742 0.18598384 0.84075004 0
-0.33495742 0.18598384 0.84325004 0
-0.33245742 0.18598384 0.84075004 0
-0.33245742 0.18598384 0.84325004 0
-0.33495742 0.18848383 0.84575003 0
-0.33495742 0.19098385 0.84575003 0
-0.33245742 0.18848383 0.84575003 0
-0.33245742 0.19098385 0.84575003 0
-0.32995743 0.17348385 0.83325005 0
-0.32995743 0.17598385 0.83325005 0
-0.32745743 0.17598385 0.83325005 4.2038954e-45
-0.32995743 0.17348385 0.83575004 8.2724394e-40
-0.32995743 0.17348385 0.83825004 1.3811226e-39
-0.32995743 0.17598385 0.83575004 0
-0.32745743 0.17348385 0.83575004 7.3504691e-40
-0.32745743 0.17348385 0.83825004 6.4285128e-40
-0.32745743 0.17598385 0.83575004 0
-0.32745743 0.17598385 0.83825004 0
-0.32995743 0.17848384 0.83325005 0
-0.32995743 0.18098384 0.83325005 2.7623797e-40
-0.32745743 0.17848384 0.83325005 5.6051939e-45
-0.32995743 0.17848384 0.83575004 0
-0.32995743 0.18098384 0.83575004 5.6051939e-45
-0.32745743 0.17848384 0.83575004 0
-0.32745743 0.18098384 0.83575004 0
-0.32745743 0.18098384 0.83825004 0
-0.32495743 0.17348385 0.83575004 0
-0.32495743 0.17348385 0.83825004 6.4285128e-40
-0.32495743 0.17598385 0.83575004 0
-0.32495743 0.17598385 0.83825004 0
-0.32245743 0.17348385 0.83575004 0
-0.32245743 0.17348385 0.83825004 0
-0.32245743 0.17598385 0.83575004 0
-0.32245743 0.17598385 0.83825004 0
-0.32495743 0.17848384 0.83575004 0
-0.32495743 0.17848384 0.83825004 0
-0.32495743 0.18098384 0.83575004 0
-0.32495743 0.18098384 0.83825004 1.4012985e-45
-0.32245743 0.17848384 0.83575004 0
-0.32245743 0.17848384 0.83825004 0
-0.32245743 0.18098384 0.83575004 3.6734198e-40
-0.32245743 0.18098384 0.83825004 0
-0.32495743 0.18098384 0.84075004 0
-0.32245743 0.18098384 0.84075004 0
-0.32995743 0.18348384 0.83575004 1.4012985e-45
-0.32995743 0.18348384 0.83825004 0
-0.32745743 0.18348384 0.83575004 0
-0.32745743 0.18348384 0.83825004 0
-0.32495743 0.18348384 0.83825004 0
-0.32995743 0.18598384 0.84075004 0
-0.32995743 0.18598384 0.84325004 0
-0.32745743 0.18348384 0.84075004 0
-0.32745743 0.18598384 0.84075004 0
-0.32745743 0.18598384 0.84325004 0
-0.32995743 0.18848383 0.84575003 0
-0.32995743 0.19098385 0.84575003 0
-0.32745743 0.18848383 0.84575003 0
-0.32745743 0.19098385 0.84575003 0
-0.32745743 0.19098385 0.84825003 0
-0.32495743 0.18348384 0.84075004 0
-0.32495743 0.18348384 0.84325004 0
-0.32495743 0.18598384 0.84075004 0
-0.32495743 0.18598384 0.84325004 0
-0.32245743 0.18348384 0.84075004 0
-0.32245743 0.18348384 0.84325004 0
-0.32245743 0.18598384 0.84075004 0
-0.32245743 0.18598384 0.84325004 0
-0.32495743 0.18598384 0.84575003 0
-0.32245743 0.18348384 0.84575003 0
-0.32245743 0.18598384 0.84575003 0
-0.32495743 0.18848383 0.84575003 0
-0.32495743 0.18848383 0.84825003 0
-0.32495743 0.19098385 0.84575003 0
-0.32495743 0.19098385 0.84825003 0
-0.32245743 0.18848383 0.84575003 0
-0.32245743 0.18848383 0.84825003 0
-0.32245743 0.19098385 0.84575003 0
-0.32245743 0.19098385 0.84825003 0
-0.35995743 0.16098385 0.85075003 5.6051939e-45
-0.35745743 0.15848385 0.85325003 1.0601769e-38
-0.35745743 0.16098385 0.85075003 0
-0.35745743 0.16098385 0.85325003 0
-0.35745743 0.16098385 0.85575002 0
-0.35495743 0.15848385 0.85325003 9.3088649e-39
-0.35495743 0.16098385 0.85075003 0
-0.35495743 0.16098385 0.85325003 1.4012985e-45
-0.35245743 0.15848385 0.85075003 7.1934101e-39
-0.35245743 0.15848385 0.85325003 6.1807029e-39
-0.35245743 0.16098385 0.85075003 1.1985432e-39
-0.35245743 0.16098385 0.85325003 0
-0.35495743 0.15848385 0.85575002 1.1518343e-38
-0.35495743 0.16098385 0.85575002 9.3081643e-39
-0.35245743 0.15848385 0.85575002 1.0597087e-38
-0.35245743 0.16098385 0.85575002 0
-0.35245743 0.16098385 0.85825002 7.1746481e-43
-0.35245743 0.16098385 0.86075002 2.5111268e-42
-0.35995743 0.16348384 0.85075003 4.5186999e-39
-0.35745743 0.16348384 0.85075003 6.4536941e-40
-0.35745743 0.16348384 0.85325003 0
-0.35495743 0.16348384 0.85075003 2.0283039e-39
-0.35495743 0.16348384 0.85325003 4.2038954e-45
-0.35245743 0.16348384 0.85075003 1.3836407e-39
-0.35245743 0.16348384 0.85325003 0
-0.35245743 0.16598384 0.85075003 1.1985432e-39
-0.35245743 0.16348384 0.85575002 1.1066951e-39
-0.35245743 0.16348384 0.85825002 2.3020139e-39
-0.35245743 0.16848384 0.85075003 0
-0.35245743 0.16848384 0.85325003 0
-0.35245743 0.16848384 0.85825002 0
-0.35245743 0.17098384 0.85575002 0
-0.35245743 0.17098384 0.85825002 0
-0.34995744 0.15848385 0.85325003 2.6769103e-39
-0.34995744 0.16098385 0.85075003 1.2907388e-39
-0.34995744 0.16098385 0.85325003 7.1746481e-43
-0.34995744 0.16098385 0.85575002 2.8768657e-42
-0.34995744 0.16098385 0.85825002 1.8582339e-40
-0.34745744 0.15848385 0.85575002 6.4432642e-39
-0.34745744 0.15848385 0.85825002 2.2058624e-39
-0.34745744 0.16098385 0.85575002 0
-0.34745744 0.16098385 0.85825002 7.3899016e-40
-0.34495741 0.15848385 0.85325003 0
-0.34495741 0.16098385 0.85325003 1.7520645e-39
-0.34245741 0.15848385 0.85325003 0
-0.34245741 0.16098385 0.85325003 2.0283039e-39
-0.34495741 0.15848385 0.85575002 3.0320259e-39
-0.34495741 0.15848385 0.85825002 0
-0.34495741 0.16098385 0.85575002 1.9361082e-39
-0.34495741 0.16098385 0.85825002 1.8439126e-39
-0.34245741 0.15848385 0.85575002 0
-0.34245741 0.15848385 0.85825002 0
-0.34245741 0.16098385 0.85575002 1.9361082e-39
-0.34495741 0.15848385 0.86075002 0
-0.34245741 0.15848385 0.86075002 0
-0.34995744 0.16348384 0.85075003 4.6457528e-40
-0.34995744 0.16348384 0.85325003 1.1988907e-39
-0.34995744 0.16598384 0.85075003 0
-0.34995744 0.16598384 0.85325003 0
-0.34745744 0.16348384 0.85075003 1.1063476e-39
-0.34745744 0.16348384 0.85325003 1.1038294e-39
-0.34745744 0.16598384 0.85075003 0
-0.34745744 0.16598384 0.85325003 0
-0.34995744 0.16348384 0.85575002 1.1066951e-39
-0.34995744 0.16348384 0.85825002 2.1179828e-39
-0.34995744 0.16598384 0.85575002 0
-0.34995744 0.16598384 0.85825002 0
-0.34745744 0.16348384 0.85575002 7.0064923e-45
-0.34745744 0.16348384 0.85825002 1.4012985e-45
-0.34745744 0.16598384 0.85575002 0
-0.34745744 0.16598384 0.85825002 0
-0.34995744 0.16848384 0.85075003 0
-0.34995744 0.16848384 0.85325003 0
-0.34995744 0.17098384 0.85325003 0
-0.34745744 0.17098384 0.85325003 1.1056385e-39
-0.34995744 0.16848384 0.85575002 0
-0.34995744 0.16848384 0.85825002 0
-0.34995744 0.17098384 0.85575002 4.5917748e-40
-0.34995744 0.17098384 0.85825002 4.2038954e-45
-0.34745744 0.16848384 0.85575002 0
-0.34745744 0.16848384 0.85825002 0
-0.34745744 0.17098384 0.85575002 2.155197e-42
-0.34745744 0.17098384 0.85825002 9.1845305e-41
-0.34245741 0.16348384 0.85325003 1.7510079e-39
-0.34495741 0.16348384 0.85575002 5.6051939e-45
-0.34495741 0.16348384 0.85825002 9.18397e-41
-0.34495741 0.16598384 0.85575002 0
-0.34495741 0.16598384 0.85825002 0
-0.34245741 0.16348384 0.85575002 1.4012985e-45
-0.34245741 0.16348384 0.85825002 1.4012985e-45
-0.34245741 0.16598384 0.85575002 0
-0.34245741 0.16598384 0.85825002 0
-0.34245741 0.16848384 0.85325003 0
-0.34245741 0.17098384 0.85325003 1.3868777e-39
-0.34495741 0.16848384 0.85575002 0
-0.34495741 0.16848384 0.85825002 0
-0.34495741 0.17098384 0.85575002 1.751717e-39
-0.34495741 0.17098384 0.85825002 1.1996012e-39
-0.34245741 0.16848384 0.85575002 0
-0.34245741 0.16848384 0.85825002 0
-0.34245741 0.17098384 0.85575002 2.0283039e-39
-0.34995744 0.16348384 0.86075002 1.9361082e-39
-0.34995744 0.16598384 0.86075002 1.8439126e-40
-0.34745744 0.16348384 0.86075002 1.6609479e-39
-0.34745744 0.16598384 0.86075002 0
-0.34745744 0.16848384 0.86075002 0
-0.34495741 0.16348384 0.86075002 1.4747798e-39
-0.34495741 0.16598384 0.86075002 5.6051939e-45
-0.35245743 0.17348385 0.85825002 9.1835496e-41
-0.35245743 0.17348385 0.86075002 2.6718614e-39
-0.35245743 0.17598385 0.86075002 1.5709214e-39
-0.34745744 0.17348385 0.85075003 2.6718614e-39
-0.34745744 0.17348385 0.85325003 2.1197988e-39
-0.34995744 0.17348385 0.85575002 2.9484371e-39
-0.34995744 0.17348385 0.85825002 6.4284847e-40
-0.34745744 0.17348385 0.85575002 2.1179828e-39
-0.34745744 0.17348385 0.85825002 2.5786092e-39
-0.34495741 0.17348385 0.85075003 2.3020139e-39
-0.34495741 0.17348385 0.85575002 1.7531435e-39
-0.34495741 0.17348385 0.85825002 2.3023698e-39
-0.34245741 0.17348385 0.85575002 2.1179828e-39
-0.34995744 0.17348385 0.86075002 2.6708048e-39
-0.34995744 0.17598385 0.86075002 1.7520645e-39
-0.34745744 0.17348385 0.86075002 1.5687522e-39
-0.34495741 0.17348385 0.86075002 1.7531435e-39
-0.33995742 0.15598384 0.85075003 1.3274373e-38
-0.33995742 0.15598384 0.85325003 1.2443892e-38
-0.33745742 0.15598384 0.85075003 1.1060957e-38
-0.33995742 0.15848385 0.85075003 0
-0.33995742 0.15848385 0.85325003 0
-0.33995742 0.16098385 0.85075003 5.5677091e-40
-0.33995742 0.16098385 0.85325003 2.118689e-39
-0.33745742 0.15848385 0.85075003 0
-0.33745742 0.15848385 0.85325003 0
-0.33745742 0.16098385 0.85075003 1.3829344e-39
-0.33745742 0.16098385 0.85325003 1.7520645e-39
-0.33995742 0.15848385 0.85575002 0
-0.33995742 0.16098385 0.85575002 1.8442601e-39
-0.33245742 0.15348384 0.85075003 9.401118e-39
-0.33245742 0.15598384 0.85075003 1.0874076e-42
-0.33245742 0.15598384 0.85325003 0
-0.33495742 0.15598384 0.85575002 1.0874076e-42
-0.33245742 0.15598384 0.85575002 1.4012985e-45
-0.33495742 0.15848385 0.85075003 9.1835496e-41
-0.33495742 0.15848385 0.85325003 0
-0.33495742 0.16098385 0.85075003 3.7237825e-40
-0.33245742 0.15848385 0.85075003 1.8413917e-39
-0.33245742 0.15848385 0.85325003 2.3027201e-39
-0.33245742 0.16098385 0.85075003 6.4536941e-40
-0.33245742 0.16098385 0.85325003 1.011631e-39
-0.33495742 0.15848385 0.85575002 0
-0.33495742 0.16098385 0.85575002 5.5317378e-40
-0.33245742 0.15848385 0.85575002 1.4349296e-42
-0.33245742 0.16098385 0.85575002 1.011631e-39
-0.33995742 0.16348384 0.85325003 1.3829344e-39
-0.33745742 0.16348384 0.85325003 7.3756504e-40
-0.33745742 0.16598384 0.85325003 0
-0.33995742 0.16348384 0.85575002 1.4012985e-45
-0.33995742 0.16348384 0.85825002 0
-0.33995742 0.16598384 0.85575002 0
-0.33995742 0.16598384 0.85825002 0
-0.33745742 0.16348384 0.85575002 0
-0.33745742 0.16348384 0.85825002 0
-0.33745742 0.16598384 0.85575002 0
-0.33745742 0.16598384 0.85825002 0
-0.33995742 0.16848384 0.85075003 1.8449664e-39
-0.33995742 0.16848384 0.85325003 0
-0.33995742 0.17098384 0.85075003 1.3868777e-39
-0.33995742 0.17098384 0.85325003 1.7553141e-39
-0.33745742 0.16848384 0.85075003 2.1219246e-39
-0.33745742 0.16848384 0.85325003 0
-0.33745742 0.17098384 0.85075003 1.4790733e-39
-0.33745742 0.17098384 0.85325003 2.7644045e-39
-0.33995742 0.16848384 0.85575002 0
-0.33745742 0.16848384 0.85575002 0
-0.33495742 0.16348384 0.85325003 0
-0.33495742 0.16598384 0.85325003 0
-0.33245742 0.16348384 0.85325003 5.5317378e-40
-0.33245742 0.16598384 0.85075003 0
-0.33245742 0.16598384 0.85325003 0
-0.33495742 0.16348384 0.85575002 0
-0.33495742 0.16348384 0.85825002 0
-0.33495742 0.16598384 0.85575002 0
-0.33495742 0.16598384 0.85825002 0
-0.33245742 0.16348384 0.85575002 0
-0.33245742 0.16348384 0.85825002 0
-0.33245742 0.16598384 0.85575002 0
-0.33245742 0.16598384 0.85825002 0
-0.33495742 0.16848384 0.85575002 0
-0.33245742 0.16848384 0.85575002 0
-0.32995743 0.15348384 0.85075003 4.5136426e-39
-0.32995743 0.15598384 0.85075003 0
-0.32995743 0.15598384 0.85325003 0
-0.32745743 0.15348384 0.85075003 2.2987769e-39
-0.32745743 0.15598384 0.85075003 0
-0.32745743 0.15598384 0.85325003 0
-0.32995743 0.15598384 0.85575002 0
-0.32745743 0.15348384 0.85575002 1.6589821e-38
-0.32745743 0.15598384 0.85575002 0
-0.32995743 0.15848385 0.85075003 2.8768657e-42
-0.32995743 0.15848385 0.85325003 2.3949158e-39
-0.32995743 0.16098385 0.85325003 8.2759987e-40
-0.32745743 0.15848385 0.85325003 2.1204995e-39
-0.32995743 0.15848385 0.85575002 1.7520645e-39
-0.32995743 0.16098385 0.85575002 0
-0.32745743 0.15848385 0.85575002 1.8439126e-39
-0.32745743 0.16098385 0.85575002 0
-0.32495743 0.15348384 0.85075003 0
-0.32495743 0.15348384 0.85325003 1.4931373e-38
-0.32495743 0.15598384 0.85075003 0
-0.32495743 0.15598384 0.85325003 0
-0.32245743 0.15598384 0.85325003 0
-0.32495743 0.15348384 0.85575002 1.5299082e-38
-0.32495743 0.15598384 0.85575002 0
-0.32495743 0.15598384 0.85825002 0
-0.32245743 0.15598384 0.85575002 0
-0.32245743 0.15598384 0.85825002 0
-0.32495743 0.15848385 0.85325003 1.7556616e-39
-0.32245743 0.15848385 0.85325003 2.0283039e-39
-0.32495743 0.15848385 0.85575002 1.4790733e-39
-0.32495743 0.15848385 0.85825002 1.6609479e-39
-0.32495743 0.16098385 0.85575002 1.0177477e-39
-0.32495743 0.16098385 0.85825002 0
-0.32245743 0.15848385 0.85575002 1.1102922e-39
-0.32245743 0.15848385 0.85825002 1.5687522e-39
-0.32245743 0.16098385 0.85575002 8.3299767e-40
-0.32245743 0.16098385 0.85825002 8.3299767e-40
-0.32745743 0.16098385 0.86075002 5.6051939e-45
-0.32495743 0.16098385 0.86075002 4.2038954e-45
-0.32245743 0.15848385 0.86075002 1.0180952e-39
-0.32245743 0.16098385 0.86075002 0
-0.32995743 0.16598384 0.85075003 4.6097815e-40
-0.32995743 0.16598384 0.85325003 5.6051939e-45
-0.32745743 0.16348384 0.85325003 0
-0.32745743 0.16598384 0.85075003 3.7021184e-40
-0.32745743 0.16598384 0.85325003 0
-0.32995743 0.16348384 0.85575002 0
-0.32995743 0.16348384 0.85825002 0
-0.32995743 0.16598384 0.85575002 0
-0.32745743 0.16348384 0.85575002 0
-0.32745743 0.16348384 0.85825002 0
-0.32745743 0.16598384 0.85575002 0
-0.32995743 0.16848384 0.85575002 7.0064923e-45
-0.32495743 0.16348384 0.85325003 0
-0.32495743 0.16598384 0.85075003 2.1190365e-39
-0.32495743 0.16598384 0.85325003 0
-0.32245743 0.16348384 0.85325003 0
-0.32245743 0.16598384 0.85075003 0
-0.32245743 0.16598384 0.85325003 0
-0.32495743 0.16348384 0.85575002 0
-0.32495743 0.16348384 0.85825002 0
-0.32245743 0.16348384 0.85575002 0
-0.32245743 0.16348384 0.85825002 0
-0.32245743 0.16598384 0.85575002 2.7550649e-40
-0.32745743 0.16348384 0.86075002 0
-0.32495743 0.16348384 0.86075002 0
-0.32245743 0.16348384 0.86075002 0
-0.32245743 0.16598384 0.86075002 0
-0.33995742 0.17348385 0.85325003 2.3945654e-39
-0.32495743 0.18848383 0.85075003 0
-0.32245743 0.18848383 0.85075003 0
-0.32245743 0.19098385 0.85075003 0
-0.35495743 0.19598384 0.83825004 9.5861749e-39
-0.35245743 0.19348384 0.83575004 6.4561982e-39
-0.35245743 0.19348384 0.83825004 7.0994166e-39
-0.35245743 0.19598384 0.83825004 6.5480407e-39
-0.35245743 0.19348384 0.84075004 0
-0.35245743 0.19598384 0.84075004 0
-0.35495743 0.19848384 0.84325004 5.9030384e-39
-0.35245743 0.19848384 0.84075004 0
-0.35245743 0.19848384 0.84325004 0
-0.34995744 0.19348384 0.83575004 0
-0.34995744 0.19348384 0.83825004 0
-0.34995744 0.19598384 0.83825004 0
-0.34745744 0.19348384 0.83575004 0
-0.34745744 0.19348384 0.83825004 0
-0.34745744 0.19598384 0.83825004 1.4012985e-45
-0.34745744 0.19848384 0.83825004 5.6051939e-45
-0.34495741 0.19348384 0.83825004 0
-0.34495741 0.19598384 0.83825004 1.4012985e-45
-0.34495741 0.19848384 0.83825004 5.6051939e-45
-0.34995744 0.19348384 0.84075004 0
-0.34995744 0.19598384 0.84075004 0
-0.34745744 0.19348384 0.84075004 0
-0.34745744 0.19348384 0.84325004 0
-0.34745744 0.19598384 0.84075004 1.4012985e-45
-0.34745744 0.19598384 0.84325004 0
-0.34745744 0.19348384 0.84575003 0
-0.34745744 0.19598384 0.84575003 0
-0.34995744 0.19848384 0.84075004 0
-0.34995744 0.19848384 0.84325004 0
-0.34745744 0.19848384 0.84075004 5.6051939e-45
-0.34745744 0.19848384 0.84325004 1.4012985e-45
-0.34495741 0.19348384 0.84075004 0
-0.34495741 0.19348384 0.84325004 0
-0.34495741 0.19598384 0.84075004 0
-0.34495741 0.19598384 0.84325004 0
-0.34495741 0.19348384 0.84575003 0
-0.34495741 0.19348384 0.84825003 0
-0.34495741 0.19598384 0.84575003 0
-0.34495741 0.19598384 0.84825003 0
-0.34245741 0.19348384 0.84575003 0
-0.34245741 0.19348384 0.84825003 0
-0.34245741 0.19598384 0.84575003 0
-0.34245741 0.19598384 0.84825003 0
-0.34495741 0.19848384 0.84075004 5.6051939e-45
-0.34495741 0.19848384 0.84325004 0
-0.34245741 0.19848384 0.84325004 0
-0.33995742 0.19348384 0.84575003 0
-0.33995742 0.19598384 0.84575003 0
-0.33745742 0.19348384 0.84575003 0
-0.33745742 0.19598384 0.84575003 1.4012985e-45
-0.33245742 0.19598384 0.84325004 0
-0.33495742 0.19348384 0.84575003 0
-0.33495742 0.19598384 0.84575003 5.6051939e-45
-0.33245742 0.19348384 0.84575003 0
-0.33245742 0.19598384 0.84575003 5.6051939e-45
-0.33245742 0.19848384 0.84325004 0
-0.32995743 0.19598384 0.84075004 2.7658689e-40
-0.32995743 0.19598384 0.84325004 2.7658689e-40
-0.32745743 0.19598384 0.84075004 7.3504691e-40
-0.32745743 0.19598384 0.84325004 2.7658689e-40
-0.32995743 0.19348384 0.84575003 0
-0.32995743 0.19598384 0.84575003 5.6051939e-45
-0.32745743 0.19348384 0.84575003 1.4012985e-45
-0.32745743 0.19598384 0.84575003 7.0064923e-45
-0.32995743 0.19848384 0.84075004 8.2724394e-40
-0.32995743 0.19848384 0.84325004 0
-0.32745743 0.19848384 0.84075004 1.011631e-39
-0.32745743 0.19848384 0.84325004 0
-0.32495743 0.19598384 0.84325004 4.6097815e-40
-0.32495743 0.19348384 0.84575003 0
-0.32495743 0.19598384 0.84575003 0
-0.32245743 0.19348384 0.84575003 0
-0.32245743 0.19348384 0.84825003 0
-0.32245743 0.19598384 0.84575003 0
-0.32495743 0.19848384 0.84325004 1.8439126e-40
-0.30745742 0.15098384 0.86325002 1.3454454e-38
-0.30495742 0.15098384 0.86075002 5.9016161e-39
-0.30495742 0.15098384 0.86325002 1.1705267e-38
-0.30245742 0.15098384 0.86075002 2.7732257e-40
-0.30245742 0.15098384 0.86325002 8.0174465e-39
-0.30245742 0.15098384 0.86575001 4.8820748e-39
-0.29995742 0.15098384 0.86075002 0
-0.29995742 0.15098384 0.86325002 2.3895432e-39
-0.29745743 0.15098384 0.86075002 0
-0.29745743 0.15098384 0.86325002 0
-0.29995742 0.14848384 0.86575001 1.6867479e-38
-0.29995742 0.15098384 0.86575001 5.5101298e-40
-0.29995742 0.15098384 0.86825007 1.7234822e-38
-0.29745743 0.14848384 0.86575001 1.5302679e-38
-0.29745743 0.14848384 0.86825007 1.7973109e-38
-0.29745743 0.15098384 0.86575001 0
-0.29745743 0.15098384 0.86825007 0
-0.29495743 0.14848384 0.86575001 1.4655145e-38
-0.29495743 0.15098384 0.86575001 0
-0.29495743 0.15098384 0.86825007 0
-0.29245743 0.15098384 0.86825007 0
-0.28995743 0.15098384 0.86825007 0
-0.28745744 0.15098384 0.86825007 2.1523944e-42
-0.28495744 0.15098384 0.86825007 1.1102922e-39
-0.28245741 0.15098384 0.86825007 2.2123448e-39
-0.29995742 0.14848384 0.87325007 1.9171634e-38
-0.29995742 0.15098384 0.87075007 0
-0.29745743 0.14848384 0.87075007 1.7696144e-38
-0.29745743 0.14848384 0.87325007 1.760575e-38
-0.29745743 0.15098384 0.87075007 0
-0.29745743 0.15098384 0.87325007 1.4287449e-38
-0.29995742 0.14848384 0.87575006 1.8435163e-38
-0.29745743 0.14848384 0.87575006 1.6774913e-38
-0.29495743 0.14848384 0.87075007 1.7325919e-38
-0.29495743 0.14848384 0.87325007 1.6959311e-38
-0.29495743 0.15098384 0.87075007 0
-0.29495743 0.15098384 0.87325007 1.2259145e-38
-0.29245743 0.15098384 0.87075007 0
-0.28995743 0.15098384 0.87075007 0
-0.28745744 0.15098384 0.87075007 0
-0.28745744 0.15098384 0.87325007 0
-0.28495744 0.15098384 0.87075007 1.3861714e-39
-0.28495744 0.15098384 0.87325007 0
-0.28245741 0.15098384 0.87075007 2.7633522e-39
-0.28245741 0.15098384 0.87325007 0
-0.28495744 0.15098384 0.87575006 0
-0.28245741 0.15098384 0.87575006 0
-0.27995741 0.15098384 0.86825007 2.3963773e-39
-0.27995741 0.15098384 0.87075007 2.7647773e-39
-0.27995741 0.15098384 0.87325007 0
-0.27745742 0.15098384 0.87075007 2.5789595e-39
-0.27745742 0.15098384 0.87325007 0
-0.27995741 0.15098384 0.87575006 0
-0.27745742 0.15098384 0.87575006 0
-0.27745742 0.15098384 0.87825006 9.1835496e-40
-0.27495742 0.15098384 0.87575006 0
-0.27495742 0.15098384 0.87825006 0
-0.27245742 0.15098384 0.87575006 5.6098574e-39
-0.27245742 0.15098384 0.87825006 5.8835702e-39
-0.27995741 0.15098384 0.88075006 0
-0.27745742 0.15098384 0.88075006 0
-0.27745742 0.15098384 0.88575006 0
-0.27495742 0.15098384 0.88075006 6.9881073e-39
-0.27245742 0.15098384 0.88075006 2.1190892e-38
-0.27495742 0.15098384 0.88575006 2.1653375e-38
-0.27245742 0.15098384 0.88575006 2.1752041e-38
-0.31995744 0.16598384 0.83575004 2.6736733e-39
-0.31745744 0.16598384 0.83575004 2.9484623e-39
-0.31745744 0.16598384 0.83825004 1.9361082e-39
-0.31995744 0.16848384 0.83575004 1.2907388e-39
-0.31995744 0.16848384 0.83825004 1.8435623e-39
-0.31995744 0.17098384 0.83575004 1.1985432e-39
-0.31995744 0.17098384 0.83825004 1.2878704e-39
-0.31745744 0.16848384 0.83575004 1.6566445e-39
-0.31745744 0.16848384 0.83825004 1.751717e-39
-0.31745744 0.17098384 0.83575004 1.1038294e-39
-0.31745744 0.17098384 0.83825004 1.1960251e-39
-0.31495744 0.16598384 0.83575004 3.0410167e-39
-0.31495744 0.16598384 0.83825004 1.8439126e-39
-0.31495744 0.16848384 0.83575004 1.6566445e-39
-0.31495744 0.16848384 0.83825004 1.5673257e-39
-0.31495744 0.17098384 0.83575004 1.0112751e-39
-0.31495744 0.17098384 0.83825004 1.1038294e-39
-0.31245741 0.16848384 0.83825004 1.8413945e-39
-0.31245741 0.17098384 0.83825004 1.1038294e-39
-0.31995744 0.16598384 0.84075004 2.215572e-39
-0.31995744 0.16598384 0.84325004 1.6631171e-39
-0.31745744 0.16598384 0.84075004 2.6736733e-39
-0.31745744 0.16598384 0.84325004 1.571269e-39
-0.31995744 0.16598384 0.84575003 2.0293576e-39
-0.31995744 0.16598384 0.84825003 2.6722089e-39
-0.31745744 0.16598384 0.84575003 2.4903358e-39
-0.31745744 0.16598384 0.84825003 2.7640584e-39
-0.31995744 0.16848384 0.84075004 2.3963829e-39
-0.31995744 0.16848384 0.84325004 2.2141216e-39
-0.31995744 0.17098384 0.84075004 1.1985432e-39
-0.31745744 0.16848384 0.84075004 1.8442601e-39
-0.31745744 0.16848384 0.84325004 2.0290101e-39
-0.31745744 0.17098384 0.84075004 1.6573507e-39
-0.31995744 0.16848384 0.84575003 2.5821839e-39
-0.31995744 0.16848384 0.84825003 3.3175951e-39
-0.31745744 0.16848384 0.84575003 2.2126951e-39
-0.31745744 0.16848384 0.84825003 3.4097908e-39
-0.31495744 0.16598384 0.84075004 3.4097964e-39
-0.31495744 0.16598384 0.84325004 2.1219246e-39
-0.31245741 0.16598384 0.84075004 2.3938592e-39
-0.31245741 0.16598384 0.84325004 2.3970864e-39
-0.31495744 0.16598384 0.84575003 2.9473833e-39
-0.31495744 0.16598384 0.84825003 2.5811245e-39
-0.31245741 0.16598384 0.84575003 2.3016636e-39
-0.31245741 0.16598384 0.84825003 2.2127007e-39
-0.31495744 0.16848384 0.84075004 1.2907388e-39
-0.31495744 0.16848384 0.84325004 2.5786092e-39
-0.31495744 0.17098384 0.84075004 1.6573507e-39
-0.31495744 0.17098384 0.84325004 1.0155785e-39
-0.31245741 0.16848384 0.84075004 1.7491988e-39
-0.31245741 0.16848384 0.84325004 1.6566445e-39
-0.31245741 0.17098384 0.84075004 1.3804163e-39
-0.31495744 0.16848384 0.84575003 1.751717e-39
-0.31495744 0.16848384 0.84825003 2.9484679e-39
-0.31245741 0.16848384 0.84575003 2.118689e-39
-0.31245741 0.16848384 0.84825003 2.5789595e-39
-0.31245741 0.17098384 0.84575003 1.8413945e-39
-0.30995741 0.16848384 0.83825004 1.7491988e-39
-0.30995741 0.17098384 0.83825004 8.2759987e-40
-0.30745742 0.17098384 0.83825004 1.8439126e-40
-0.30495742 0.17098384 0.83825004 2.7658689e-40
-0.30995741 0.16598384 0.84325004 2.3027201e-39
-0.30745742 0.16598384 0.84325004 1.751717e-39
-0.30995741 0.16598384 0.84575003 1.751717e-39
-0.30995741 0.16598384 0.84825003 2.3030677e-39
-0.30745742 0.16598384 0.84575003 2.1179828e-39
-0.30995741 0.16848384 0.84075004 1.2907388e-39
-0.30995741 0.16848384 0.84325004 1.6566445e-39
-0.30995741 0.17098384 0.84075004 8.2724394e-40
-0.30995741 0.17098384 0.84325004 1.011631e-39
-0.30745742 0.16848384 0.84075004 9.2338282e-40
-0.30745742 0.16848384 0.84325004 1.3804163e-39
-0.30745742 0.17098384 0.84075004 6.4285128e-40
-0.30745742 0.17098384 0.84325004 4.6097815e-40
-0.30995741 0.16848384 0.84575003 1.5673257e-39
-0.30745742 0.16848384 0.84575003 1.2907388e-39
-0.30745742 0.17098384 0.84575003 8.2976067e-40
-0.30495742 0.16598384 0.84325004 1.751717e-39
-0.30245742 0.16598384 0.84325004 2.8569729e-39
-0.30495742 0.16348384 0.84825003 2.1219246e-39
-0.30495742 0.16598384 0.84575003 2.3945654e-39
-0.30495742 0.16598384 0.84825003 1.8435623e-39
-0.30245742 0.16348384 0.84825003 2.6743795e-39
-0.30245742 0.16598384 0.84575003 1.5673257e-39
-0.30245742 0.16598384 0.84825003 2.0283039e-39
-0.30495742 0.16848384 0.84325004 1.1960251e-39
-0.30495742 0.17098384 0.84075004 6.4284847e-40
-0.30495742 0.17098384 0.84325004 6.4284847e-40
-0.30245742 0.16848384 0.84325004 2.2065813e-39
-0.30245742 0.17098384 0.84075004 1.8439126e-40
-0.30245742 0.17098384 0.84325004 2.7658689e-40
-0.30495742 0.16848384 0.84575003 1.3804163e-39
-0.30495742 0.17098384 0.84575003 7.3504691e-40
-0.30245742 0.16848384 0.84575003 1.1038294e-39
-0.30245742 0.17098384 0.84575003 7.3504691e-40
-0.31995744 0.17348385 0.83575004 0
-0.31995744 0.17348385 0.83825004 7.3504691e-40
-0.31995744 0.17598385 0.83575004 0
-0.31745744 0.17348385 0.83575004 0
-0.31745744 0.17348385 0.83825004 3.6734198e-40
-0.31745744 0.17598385 0.83575004 0
-0.31745744 0.17598385 0.83825004 0
-0.31995744 0.17848384 0.83575004 3.6734198e-40
-0.31995744 0.17848384 0.83825004 0
-0.31995744 0.18098384 0.83825004 3.6734899e-40
-0.31745744 0.17848384 0.83575004 3.5873241e-43
-0.31745744 0.17848384 0.83825004 1.8367099e-40
-0.31745744 0.18098384 0.83825004 0
-0.31245741 0.17348385 0.83075005 0
-0.31245741 0.17598385 0.83075005 3.5873241e-43
-0.31495744 0.17348385 0.83575004 1.8367099e-40
-0.31495744 0.17348385 0.83825004 0
-0.31495744 0.17598385 0.83575004 0
-0.31495744 0.17598385 0.83825004 0
-0.31245741 0.17348385 0.83575004 0
-0.31245741 0.17348385 0.83825004 0
-0.31245741 0.17598385 0.83575004 0
-0.31245741 0.17598385 0.83825004 0
-0.31495744 0.17848384 0.83575004 7.3576017e-40
-0.31495744 0.17848384 0.83825004 9.1835496e-41
-0.31245741 0.17848384 0.83575004 0
-0.31245741 0.17848384 0.83825004 9.1835496e-41
-0.31995744 0.17848384 0.84075004 0
-0.31995744 0.18098384 0.84075004 0
-0.31995744 0.18098384 0.84325004 1.4012985e-45
-0.31745744 0.17848384 0.84075004 3.5873241e-43
-0.31745744 0.18098384 0.84075004 9.1835496e-41
-0.31745744 0.18098384 0.84325004 9.1835496e-41
-0.31995744 0.18098384 0.84575003 9.1835496e-41
-0.31745744 0.18098384 0.84575003 0
-0.31245741 0.17598385 0.84075004 0
-0.31495744 0.17848384 0.84075004 3.5873241e-43
-0.31495744 0.18098384 0.84075004 0
-0.31495744 0.18098384 0.84325004 0
-0.31245741 0.17848384 0.84075004 0
-0.31245741 0.17848384 0.84325004 6.4320721e-40
-0.31245741 0.18098384 0.84075004 0
-0.31245741 0.18098384 0.84325004 0
-0.31495744 0.18098384 0.84575003 0
-0.31245741 0.18098384 0.84575003 0
-0.31995744 0.18348384 0.84075004 0
-0.31995744 0.18348384 0.84325004 0
-0.31745744 0.18348384 0.84325004 0
-0.31995744 0.18348384 0.84575003 0
-0.31995744 0.18598384 0.84575003 0
-0.31995744 0.18598384 0.84825003 0
-0.31745744 0.18348384 0.84575003 0
-0.31745744 0.18348384 0.84825003 0
-0.31745744 0.18598384 0.84575003 0
-0.31745744 0.18598384 0.84825003 0
-0.31995744 0.18848383 0.84575003 0
-0.31995744 0.18848383 0.84825003 0
-0.31995744 0.19098385 0.84575003 0
-0.31995744 0.19098385 0.84825003 0
-0.31745744 0.18848383 0.84575003 0
-0.31745744 0.19098385 0.84575003 0
-0.31745744 0.19098385 0.84825003 0
-0.31495744 0.18348384 0.84325004 0
-0.31245741 0.18348384 0.84325004 0
-0.31495744 0.18348384 0.84575003 0
-0.31495744 0.18348384 0.84825003 0
-0.31495744 0.18598384 0.84575003 0
-0.31495744 0.18598384 0.84825003 0
-0.31245741 0.18348384 0.84575003 0
-0.31245741 0.18348384 0.84825003 0
-0.31245741 0.18598384 0.84575003 0
-0.31245741 0.18598384 0.84825003 0
-0.31495744 0.19098385 0.84575003 0
-0.31495744 0.19098385 0.84825003 0
-0.31245741 0.19098385 0.84825003 3.6734198e-40
-0.30995741 0.17348385 0.83075005 0
-0.30995741 0.17598385 0.83075005 0
-0.30995741 0.17348385 0.83575004 0
-0.30995741 0.17348385 0.83825004 0
-0.30995741 0.17598385 0.83575004 0
-0.30995741 0.17598385 0.83825004 0
-0.30745742 0.17348385 0.83825004 0
-0.30745742 0.17598385 0.83575004 0
-0.30745742 0.17598385 0.83825004 0
-0.30995741 0.17848384 0.83825004 0
-0.30745742 0.17848384 0.83825004 9.1835496e-41
-0.30495742 0.17348385 0.83825004 0
-0.30495742 0.17598385 0.83825004 0
-0.30245742 0.17598385 0.83825004 5.5282345e-40
-0.30495742 0.17848384 0.83825004 0
-0.30245742 0.17848384 0.83825004 4.5918589e-40
-0.30995741 0.17348385 0.84075004 0
-0.30995741 0.17598385 0.84075004 0
-0.30995741 0.17598385 0.84325004 2.7658689e-40
-0.30745742 0.17348385 0.84075004 0
-0.30745742 0.17598385 0.84075004 0
-0.30995741 0.17848384 0.84075004 0
-0.30995741 0.17848384 0.84325004 0
-0.30995741 0.18098384 0.84075004 0
-0.30995741 0.18098384 0.84325004 0
-0.30745742 0.17848384 0.84075004 0
-0.30745742 0.17848384 0.84325004 1.8439126e-40
-0.30745742 0.18098384 0.84075004 0
-0.30745742 0.18098384 0.84325004 0
-0.30995741 0.18098384 0.84575003 0
-0.30495742 0.17348385 0.84075004 0
-0.30495742 0.17348385 0.84325004 0
-0.30495742 0.17598385 0.84075004 8.4077908e-45
-0.30495742 0.17598385 0.84325004 0
-0.30245742 0.17348385 0.84075004 1.8439126e-40
-0.30245742 0.17348385 0.84325004 1.8439126e-40
-0.30245742 0.17598385 0.84075004 0
-0.30245742 0.17598385 0.84325004 0
-0.30495742 0.17348385 0.84575003 0
-0.30245742 0.17348385 0.84575003 0
-0.30245742 0.17598385 0.84575003 0
-0.30495742 0.17848384 0.84075004 0
-0.30495742 0.17848384 0.84325004 0
-0.30495742 0.18098384 0.84075004 0
-0.30495742 0.18098384 0.84325004 0
-0.30245742 0.17848384 0.84075004 0
-0.30245742 0.17848384 0.84325004 0
-0.30245742 0.18098384 0.84075004 0
-0.30245742 0.18098384 0.84325004 0
-0.30495742 0.17848384 0.84575003 0
-0.30495742 0.18098384 0.84575003 0
-0.30495742 0.18098384 0.84825003 0
-0.30245742 0.17848384 0.84575003 0
-0.30245742 0.17848384 0.84825003 9.1835496e-41
-0.30245742 0.18098384 0.84575003 0
-0.30245742 0.18098384 0.84825003 0
-0.30995741 0.18348384 0.84325004 0
-0.30745742 0.18348384 0.84325004 0
-0.30995741 0.18348384 0.84575003 0
-0.30995741 0.18598384 0.84575003 0
-0.30995741 0.18598384 0.84825003 0
-0.30745742 0.18348384 0.84575003 0
-0.30745742 0.18598384 0.84575003 0
-0.30495742 0.18348384 0.84325004 0
-0.30495742 0.18348384 0.84575003 0
-0.30495742 0.18348384 0.84825003 0
-0.30245742 0.18348384 0.84575003 0
-0.30245742 0.18348384 0.84825003 0
-0.29995742 0.16598384 0.84325004 2.4896295e-39
-0.29995742 0.16348384 0.84825003 2.3963773e-39
-0.29995742 0.16598384 0.84575003 1.8413945e-39
-0.29995742 0.16598384 0.84825003 1.9361082e-39
-0.29745743 0.16348384 0.84825003 2.0279535e-39
-0.29745743 0.16598384 0.84575003 1.6566445e-39
-0.29745743 0.16598384 0.84825003 2.1179828e-39
-0.29995742 0.16848384 0.84325004 1.6566445e-39
-0.29995742 0.17098384 0.84075004 1.011631e-39
-0.29995742 0.17098384 0.84325004 2.5153307e-42
-0.29745743 0.16848384 0.84325004 1.0112751e-39
-0.29745743 0.17098384 0.84075004 1.011631e-39
-0.29745743 0.17098384 0.84325004 1.8439126e-40
-0.29995742 0.16848384 0.84575003 1.1038294e-39
-0.29995742 0.17098384 0.84575003 7.3504691e-40
-0.29745743 0.16848384 0.84575003 1.011631e-39
-0.29745743 0.16848384 0.84825003 1.7491988e-39
-0.29745743 0.17098384 0.84575003 1.8439126e-40
-0.29495743 0.16348384 0.84575003 3.0399377e-39
-0.29495743 0.16348384 0.84825003 2.6711551e-39
-0.29495743 0.16598384 0.84575003 1.6566445e-39
-0.29245743 0.16348384 0.84575003 2.6708048e-39
-0.29245743 0.16348384 0.84825003 2.5789595e-39
-0.29245743 0.16598384 0.84575003 1.6566445e-39
-0.29245743 0.16598384 0.84825003 3.1299627e-39
-0.29495743 0.16848384 0.84325004 8.2724394e-40
-0.29495743 0.17098384 0.84075004 1.1031204e-39
-0.29495743 0.17098384 0.84325004 1.8439126e-40
-0.29245743 0.16848384 0.84075004 7.3504691e-40
-0.29245743 0.16848384 0.84325004 2.7658689e-40
-0.29245743 0.17098384 0.84075004 7.3504691e-40
-0.29245743 0.17098384 0.84325004 3.6734198e-40
-0.29495743 0.16848384 0.84575003 6.4284847e-40
-0.29495743 0.17098384 0.84575003 0
-0.29245743 0.16848384 0.84575003 6.4286249e-40
-0.29245743 0.17098384 0.84575003 1.8439126e-40
-0.28995743 0.16348384 0.84575003 2.3016636e-39
-0.28995743 0.16348384 0.84825003 2.1179828e-39
-0.28995743 0.16598384 0.84575003 1.6566445e-39
-0.28995743 0.16598384 0.84825003 1.8413917e-39
-0.28745744 0.16348384 0.84825003 1.8413945e-39
-0.28745744 0.16598384 0.84575003 9.219563e-40
-0.28745744 0.16598384 0.84825003 1.7495464e-39
-0.28995743 0.16848384 0.84325004 6.4284847e-40
-0.28995743 0.17098384 0.84325004 7.3504691e-40
-0.28745744 0.17098384 0.84325004 2.7658689e-40
-0.28995743 0.16848384 0.84575003 6.4286249e-40
-0.28995743 0.16848384 0.84825003 1.4726133e-39
-0.28995743 0.17098384 0.84575003 2.7658689e-40
-0.28745744 0.16848384 0.84575003 2.7658689e-40
-0.28745744 0.16848384 0.84825003 4.6097815e-40
-0.28745744 0.17098384 0.84575003 7.3504691e-40
-0.28745744 0.17098384 0.84825003 2.7658689e-40
-0.28495744 0.16348384 0.84825003 2.0257829e-39
-0.28495744 0.16598384 0.84575003 9.219563e-40
-0.28495744 0.16598384 0.84825003 1.7495464e-39
-0.28245741 0.16348384 0.84825003 2.0257829e-39
-0.28245741 0.16598384 0.84575003 2.0225361e-39
-0.28245741 0.16598384 0.84825003 1.7495464e-39
-0.28495744 0.17098384 0.84325004 1.8439126e-40
-0.28495744 0.16848384 0.84575003 7.3504691e-40
-0.28495744 0.16848384 0.84825003 1.2885682e-39
-0.28495744 0.17098384 0.84575003 6.4284847e-40
-0.28495744 0.17098384 0.84825003 1.8582339e-40
-0.28245741 0.16848384 0.84575003 6.4536941e-40
-0.28245741 0.16848384 0.84825003 4.6097815e-40
-0.28245741 0.17098384 0.84575003 7.350441e-40
-0.28245741 0.17098384 0.84825003 2.7658689e-40
-0.29995742 0.17598385 0.83825004 2.7623797e-40
-0.29995742 0.17848384 0.83825004 7.3469798e-40
-0.29995742 0.17348385 0.84075004 2.7658689e-40
-0.29995742 0.17348385 0.84325004 0
-0.29995742 0.17598385 0.84075004 4.6097815e-40
-0.29995742 0.17598385 0.84325004 0
-0.29745743 0.17348385 0.84075004 2.7658689e-40
-0.29745743 0.17348385 0.84325004 6.4285128e-40
-0.29745743 0.17598385 0.84075004 4.6097815e-40
-0.29745743 0.17598385 0.84325004 0
-0.29995742 0.17348385 0.84575003 0
-0.29995742 0.17598385 0.84575003 1.8439126e-40
-0.29745743 0.17348385 0.84575003 7.3504691e-40
-0.29745743 0.17598385 0.84575003 2.7658689e-40
-0.29745743 0.17598385 0.84825003 4.5918589e-40
-0.29995742 0.17848384 0.84075004 3.6734198e-40
-0.29995742 0.17848384 0.84325004 3.6734198e-40
-0.29745743 0.17848384 0.84325004 0
-0.29995742 0.17848384 0.84575003 9.1835496e-41
-0.29995742 0.18098384 0.84575003 0
-0.29995742 0.18098384 0.84825003 0
-0.29745743 0.17848384 0.84575003 0
-0.29745743 0.17848384 0.84825003 9.1835496e-41
-0.29745743 0.18098384 0.84575003 0
-0.29745743 0.18098384 0.84825003 0
-0.29495743 0.17348385 0.84325004 0
-0.29245743 0.17348385 0.84325004 1.8439126e-40
-0.29495743 0.17348385 0.84575003 6.4285128e-40
-0.29495743 0.17598385 0.84575003 4.5918589e-40
-0.29245743 0.17348385 0.84575003 4.5917748e-40
-0.29245743 0.17598385 0.84575003 0
-0.29495743 0.17848384 0.84575003 3.6735179e-40
-0.29495743 0.17848384 0.84825003 0
-0.29495743 0.18098384 0.84825003 0
-0.29245743 0.17848384 0.84575003 1.4012985e-45
-0.29245743 0.17848384 0.84825003 0
-0.29245743 0.18098384 0.84825003 0
-0.29995742 0.18348384 0.84825003 0
-0.28995743 0.17348385 0.84325004 1.8439126e-40
-0.28995743 0.17348385 0.84575003 6.4285128e-40
-0.28995743 0.17348385 0.84825003 1.0112751e-39
-0.28995743 0.17598385 0.84575003 1.8367099e-40
-0.28995743 0.17598385 0.84825003 1.8367099e-40
-0.28745744 0.17348385 0.84575003 7.3504691e-40
-0.28745744 0.17348385 0.84825003 2.7658689e-40
-0.28745744 0.17598385 0.84575003 9.1835496e-41
-0.28745744 0.17598385 0.84825003 9.1835496e-41
-0.28995743 0.17848384 0.84575003 0
-0.28995743 0.17848384 0.84825003 0
-0.28995743 0.18098384 0.84825003 0
-0.28745744 0.17848384 0.84825003 0
-0.28495744 0.17348385 0.84575003 6.4284847e-40
-0.28495744 0.17348385 0.84825003 2.7658689e-40
-0.28495744 0.17598385 0.84825003 9.1835496e-41
-0.28245741 0.17348385 0.84575003 2.7658689e-40
-0.28245741 0.17348385 0.84825003 4.6097815e-40
-0.28245741 0.17598385 0.84825003 0
-0.31995744 0.15598384 0.85325003 0
-0.31995744 0.15598384 0.85825002 5.5137451e-40
-0.31745744 0.15598384 0.85825002 9.2266255e-40
-0.31995744 0.15848385 0.85325003 1.5673257e-39
-0.31995744 0.15848385 0.85825002 1.568032e-39
-0.31745744 0.15848385 0.85825002 1.7520645e-39
-0.31995744 0.15848385 0.86075002 1.1985432e-39
-0.31995744 0.15848385 0.86325002 2.2126951e-39
-0.31995744 0.16098385 0.86075002 4.6422496e-40
-0.31995744 0.16098385 0.86325002 9.5082305e-41
-0.31745744 0.15848385 0.86075002 1.8449664e-39
-0.31745744 0.15848385 0.86325002 1.3861714e-39
-0.31745744 0.16098385 0.86075002 9.5432629e-41
-0.31745744 0.16098385 0.86325002 0
-0.31745744 0.15848385 0.86575001 1.3861714e-39
-0.31745744 0.15848385 0.86825007 1.1099447e-39
-0.31745744 0.16098385 0.86575001 1.821688e-44
-0.31495744 0.15598384 0.86325002 2.5821839e-39
-0.31245741 0.15348384 0.86325002 0
-0.31245741 0.15598384 0.86325002 2.2134014e-39
-0.31495744 0.15598384 0.86575001 0
-0.31245741 0.15348384 0.86575001 0
-0.31245741 0.15348384 0.86825007 1.400942e-38
-0.31245741 0.15598384 0.86575001 0
-0.31245741 0.15598384 0.86825007 0
-0.31495744 0.15848385 0.86325002 2.3970864e-39
-0.31495744 0.16098385 0.86325002 0
-0.31245741 0.15848385 0.86325002 1.9361082e-39
-0.31245741 0.16098385 0.86325002 0
-0.31495744 0.15848385 0.86575001 1.3858211e-39
-0.31495744 0.15848385 0.86825007 2.0279535e-39
-0.31495744 0.16098385 0.86575001 0
-0.31495744 0.16098385 0.86825007 7.0064923e-45
-0.31245741 0.15848385 0.86575001 2.0283039e-39
-0.31245741 0.15848385 0.86825007 8.3299767e-40
-0.31245741 0.16098385 0.86575001 0
-0.31245741 0.16098385 0.86825007 0
-0.31995744 0.16598384 0.85075003 0
-0.31995744 0.16598384 0.85325003 0
-0.31745744 0.16598384 0.85075003 2.3985129e-39
-0.31745744 0.16598384 0.85325003 2.4889289e-39
-0.31995744 0.16598384 0.85575002 0
-0.31995744 0.16598384 0.85825002 9.1835496e-40
-0.31745744 0.16598384 0.85575002 1.8404094e-40
-0.31745744 0.16598384 0.85825002 1.1031204e-39
-0.31745744 0.16848384 0.85575002 2.6718614e-39
-0.31495744 0.16598384 0.85075003 2.3967332e-39
-0.31495744 0.16598384 0.85325003 2.3945682e-39
-0.31245741 0.16598384 0.85325003 5.5677091e-40
-0.31495744 0.16598384 0.85575002 1.1056385e-39
-0.31495744 0.16598384 0.85825002 7.4080204e-40
-0.31245741 0.16348384 0.85825002 1.5687382e-39
-0.31245741 0.16598384 0.85575002 1.1138865e-39
-0.31245741 0.16598384 0.85825002 1.8439126e-39
-0.31495744 0.16848384 0.85575002 2.4871114e-39
-0.31995744 0.16348384 0.86075002 0
-0.31995744 0.16348384 0.86325002 0
-0.31995744 0.16598384 0.86075002 0
-0.31995744 0.16598384 0.86325002 4.6097815e-40
-0.31745744 0.16348384 0.86075002 0
-0.31745744 0.16348384 0.86325002 0
-0.31745744 0.16598384 0.86075002 2.7658689e-40
-0.31745744 0.16598384 0.86325002 5.5317378e-40
-0.31495744 0.16348384 0.86075002 0
-0.31495744 0.16348384 0.86325002 0
-0.31495744 0.16598384 0.86075002 1.1985432e-39
-0.31495744 0.16598384 0.86325002 6.4536941e-40
-0.31245741 0.16348384 0.86075002 0
-0.31245741 0.16348384 0.86325002 0
-0.31245741 0.16598384 0.86075002 1.3839896e-39
-0.31495744 0.16348384 0.86575001 0
