# .PCD v0.7 - Point Cloud Data file format
VERSION 0.7
FIELDS x y z rgb
SIZE 4 4 4 4
TYPE F F F F
COUNT 1 1 1 1
WIDTH 1001
HEIGHT 1
VIEWPOINT 0 0 0 1 0 0 0
POINTS 1001
DATA ascii
-0.34449947 0.14009449 0.90175009 1.6620619e-39
-0.34199947 0.13759449 0.90175009 3.2243457e-39
-0.34199947 0.14009449 0.90175009 3.3165414e-39
-0.34449947 0.13759449 0.90675008 3.3168917e-39
-0.34449947 0.13759449 0.90925008 3.0410167e-39
-0.34449947 0.14009449 0.90675008 2.8573625e-39
-0.34449947 0.14009449 0.90925008 3.2246947e-39
-0.34199947 0.13759449 0.90925008 3.2250478e-39
-0.34199947 0.14009449 0.90675008 3.0406635e-39
-0.34199947 0.14009449 0.90925008 2.8580701e-39
-0.33949947 0.14009449 0.89675009 3.0421027e-39
-0.33949947 0.14009449 0.90175009 2.8580701e-39
-0.33699948 0.14009449 0.90175009 2.6733201e-39
-0.33949947 0.13759449 0.90925008 3.2250478e-39
-0.33949947 0.14009449 0.90675008 2.6733201e-39
-0.33949947 0.14009449 0.90925008 3.2246947e-39
-0.33699948 0.14009449 0.90675008 2.3970864e-39
-0.33699948 0.14009449 0.90925008 2.489282e-39
-0.34199947 0.14509448 0.8892501 3.1347061e-39
-0.34199947 0.15759449 0.87175006 1.4377091e-38
-0.34199947 0.15759449 0.87425005 1.4653329e-38
-0.34199947 0.16009448 0.87175006 1.4561132e-38
-0.34199947 0.16009448 0.87425005 1.4191272e-38
-0.34199947 0.15759449 0.87675005 1.3089614e-38
-0.34199947 0.15759449 0.87925005 1.3458038e-38
-0.34199947 0.16009448 0.87675005 1.2995268e-38
-0.34199947 0.16009448 0.87925005 1.3087814e-38
-0.34199947 0.15759449 0.88175005 1.1704877e-38
-0.33949947 0.15009448 0.87175006 1.3459123e-38
-0.33699948 0.15009448 0.87175006 6.9143163e-39
-0.33699948 0.15009448 0.87425005 7.0061588e-39
-0.33949947 0.15009448 0.87925005 6.7299307e-39
-0.33699948 0.14759448 0.87925005 1.1045875e-39
-0.33699948 0.15009448 0.87675005 1.2900326e-39
-0.33699948 0.15009448 0.87925005 1.1978397e-39
-0.33449948 0.15009448 0.87175006 1.3829373e-39
-0.33449948 0.15009448 0.87425005 1.8413945e-39
-0.33199948 0.15009448 0.87175006 1.8435623e-39
-0.33199948 0.15009448 0.87425005 2.8577142e-39
-0.33449948 0.14759448 0.87925005 2.6733229e-39
-0.33449948 0.15009448 0.87675005 2.7655186e-39
-0.33449948 0.15009448 0.87925005 2.8573653e-39
-0.33199948 0.14759448 0.87925005 3.0417523e-39
-0.33199948 0.15009448 0.87675005 2.8580701e-39
-0.33199948 0.15009448 0.87925005 2.8573625e-39
-0.33949947 0.14259449 0.88425004 1.9354048e-39
-0.33949947 0.14509448 0.88425004 1.841805e-39
-0.33699948 0.14259449 0.88425004 2.8570122e-39
-0.33699948 0.14509448 0.88175005 1.2925535e-39
-0.33699948 0.14509448 0.88425004 2.8570122e-39
-0.33949947 0.14509448 0.8867501 2.4882282e-39
-0.33949947 0.14509448 0.8892501 2.2123448e-39
-0.33699948 0.14509448 0.8867501 2.8573625e-39
-0.33699948 0.14509448 0.8892501 3.3172448e-39
-0.33949947 0.14759448 0.88425004 8.3157535e-40
-0.33699948 0.14759448 0.88175005 2.0276032e-39
-0.33699948 0.14759448 0.88425004 2.7651654e-39
-0.33699948 0.15009448 0.88175005 1.9361082e-39
-0.33699948 0.15009448 0.88425004 2.1176324e-39
-0.33949947 0.14759448 0.8867501 2.1201492e-39
-0.33949947 0.14759448 0.8892501 1.3815303e-39
-0.33949947 0.15009448 0.8892501 1.2000047e-39
-0.33699948 0.14759448 0.8867501 3.0417467e-39
-0.33449948 0.14259449 0.88425004 2.8580701e-39
-0.33449948 0.14509448 0.88175005 3.2246947e-39
-0.33449948 0.14509448 0.88425004 3.2246947e-39
-0.33199948 0.14259449 0.88425004 2.6733201e-39
-0.33199948 0.14509448 0.88175005 3.2246947e-39
-0.33199948 0.14509448 0.88425004 2.7655158e-39
-0.33449948 0.14509448 0.8867501 3.0424558e-39
-0.33449948 0.14509448 0.8892501 3.0410167e-39
-0.33199948 0.14509448 0.8867501 3.3172448e-39
-0.33199948 0.14509448 0.8892501 2.7658689e-39
-0.33449948 0.14759448 0.88175005 3.2246947e-39
-0.33449948 0.14759448 0.88425004 2.7655158e-39
-0.33449948 0.15009448 0.88175005 3.0424558e-39
-0.33199948 0.14759448 0.88175005 2.7655158e-39
-0.33199948 0.14759448 0.88425004 2.6733201e-39
-0.33199948 0.15009448 0.88175005 2.8580645e-39
-0.33449948 0.14759448 0.8867501 3.2250478e-39
-0.33949947 0.15259449 0.87175006 1.3825379e-38
-0.33949947 0.15259449 0.87425005 1.0231544e-38
-0.33949947 0.15509449 0.87175006 1.3458394e-38
-0.33949947 0.15509449 0.87425005 1.0600331e-38
-0.33699948 0.15259449 0.87175006 7.3756532e-39
-0.33699948 0.15259449 0.87425005 7.2834576e-39
-0.33699948 0.15509449 0.87175006 1.1429001e-38
-0.33699948 0.15509449 0.87425005 7.3756532e-39
-0.33949947 0.15259449 0.87675005 1.1520115e-38
-0.33949947 0.15259449 0.87925005 7.0987076e-39
-0.33949947 0.15509449 0.87675005 1.0784365e-38
-0.33949947 0.15509449 0.87925005 7.0083098e-39
-0.33699948 0.15259449 0.87675005 1.2900228e-39
-0.33699948 0.15259449 0.87925005 9.219591e-40
-0.33699948 0.15509449 0.87675005 0
-0.33699948 0.15509449 0.87925005 2.776757e-40
-0.33949947 0.15759449 0.87175006 1.2903418e-38
-0.33949947 0.15759449 0.87425005 1.1612684e-38
-0.33949947 0.16009448 0.87175006 1.2995615e-38
-0.33949947 0.16009448 0.87425005 1.1796359e-38
-0.33699948 0.15759449 0.87175006 1.1431164e-38
-0.33699948 0.15759449 0.87425005 6.090301e-39
-0.33699948 0.16009448 0.87175006 1.2440627e-38
-0.33699948 0.16009448 0.87425005 1.2256236e-38
-0.33949947 0.15759449 0.87675005 1.0876561e-38
-0.33949947 0.15759449 0.87925005 5.4485231e-39
-0.33949947 0.16009448 0.87675005 1.1796353e-38
-0.33949947 0.16009448 0.87925005 1.1612684e-38
-0.33699948 0.15759449 0.87675005 1.7556616e-39
-0.33699948 0.15759449 0.87925005 4.6996047e-40
-0.33699948 0.16009448 0.87675005 1.23531e-38
-0.33449948 0.15259449 0.87175006 2.7659109e-40
-0.33449948 0.15259449 0.87425005 1.1974866e-39
-0.33449948 0.15509449 0.87175006 0
-0.33449948 0.15509449 0.87425005 7.3650846e-40
-0.33199948 0.15259449 0.87175006 6.4285968e-40
-0.33199948 0.15259449 0.87425005 2.6726167e-39
-0.33199948 0.15509449 0.87175006 1.2021557e-39
-0.33199948 0.15509449 0.87425005 1.842856e-39
-0.33449948 0.15259449 0.87675005 2.6733229e-39
-0.33449948 0.15259449 0.87925005 3.0417467e-39
-0.33449948 0.15509449 0.87675005 4.3314136e-42
-0.33449948 0.15509449 0.87925005 1.7510079e-39
-0.33199948 0.15259449 0.87675005 2.7655158e-39
-0.33199948 0.15259449 0.87925005 3.1342983e-39
-0.33199948 0.15509449 0.87675005 2.3013132e-39
-0.33449948 0.15759449 0.87175006 1.2721903e-38
-0.33449948 0.15759449 0.87425005 1.3827549e-38
-0.33449948 0.16009448 0.87175006 1.6589434e-38
-0.33449948 0.16009448 0.87425005 1.5297992e-38
-0.33199948 0.15759449 0.87175006 1.5762935e-38
-0.33199948 0.15759449 0.87425005 1.5487071e-38
-0.33199948 0.16009448 0.87175006 1.4290323e-38
-0.33199948 0.16009448 0.87425005 1.3549886e-38
-0.33449948 0.15759449 0.87675005 6.7288783e-39
-0.33449948 0.15759449 0.87925005 3.9579857e-39
-0.33449948 0.16009448 0.87675005 1.5210484e-38
-0.33199948 0.15759449 0.87675005 8.2011175e-39
-0.33199948 0.16009448 0.87675005 1.3735023e-38
-0.33699948 0.15259449 0.88175005 1.197474e-39
-0.34949946 0.14259449 0.89675009 1.2814116e-38
-0.34949946 0.14509448 0.89675009 1.1615577e-38
-0.34699947 0.14259449 0.89675009 6.4526193e-39
-0.34699947 0.14509448 0.89675009 6.4526221e-39
-0.34449947 0.14509448 0.8917501 7.9273766e-39
-0.34199947 0.14259449 0.8917501 1.8468063e-39
-0.34199947 0.14259449 0.89425009 2.7651654e-39
-0.34199947 0.14509448 0.8917501 6.4542406e-40
-0.34199947 0.14509448 0.89425009 1.2003579e-39
-0.34449947 0.14259449 0.89675009 9.2736671e-40
-0.34449947 0.14509448 0.89675009 1.2007068e-39
-0.34199947 0.14259449 0.89675009 2.6726195e-39
-0.34199947 0.14509448 0.89675009 2.4882282e-39
-0.34449947 0.14759448 0.89425009 4.1509768e-39
-0.34199947 0.14759448 0.8917501 1.1081608e-39
-0.34199947 0.14759448 0.89425009 1.1985978e-39
-0.34199947 0.15009448 0.8917501 1.5655727e-39
-0.34449947 0.14759448 0.89675009 6.4612751e-40
-0.34199947 0.14759448 0.89675009 1.9361082e-39
-0.34949946 0.14259449 0.90175009 6.7284859e-39
-0.34949946 0.14509448 0.90175009 6.6359372e-39
-0.34699947 0.14259449 0.90175009 1.20179e-39
-0.34699947 0.14509448 0.90175009 1.4776538e-39
-0.34949946 0.14259449 0.90675008 2.0308374e-39
-0.34949946 0.14509448 0.90675008 2.123033e-39
-0.34949946 0.14509448 0.90925008 2.0308374e-39
-0.34699947 0.14259449 0.90675008 3.0392342e-39
-0.34949946 0.14759448 0.90175009 6.8214032e-39
-0.34699947 0.14759448 0.90175009 2.9506749e-39
-0.34949946 0.14759448 0.90675008 3.1335948e-39
-0.34949946 0.15009448 0.90675008 2.9506749e-39
-0.34449947 0.14259449 0.90175009 2.5807742e-39
-0.34449947 0.14509448 0.90175009 2.5804239e-39
-0.34199947 0.14259449 0.90175009 2.6733201e-39
-0.34199947 0.14509448 0.90175009 2.8570122e-39
-0.34449947 0.14259449 0.90675008 3.4080181e-39
-0.34199947 0.14259449 0.90675008 3.0421027e-39
-0.34449947 0.14759448 0.90175009 7.3868187e-40
-0.33949947 0.14259449 0.8917501 2.765171e-39
-0.33949947 0.14259449 0.89425009 3.0417523e-39
-0.33949947 0.14509448 0.8917501 2.4885786e-39
-0.33949947 0.14509448 0.89425009 2.6729698e-39
-0.33699948 0.14259449 0.8917501 3.2246947e-39
-0.33699948 0.14259449 0.89425009 2.8580645e-39
-0.33699948 0.14509448 0.8917501 2.7658689e-39
-0.33699948 0.14509448 0.89425009 2.8580645e-39
-0.33949947 0.14259449 0.89675009 2.8580701e-39
-0.33949947 0.14509448 0.89675009 2.9484679e-39
-0.33699948 0.14259449 0.89675009 2.7655158e-39
-0.33699948 0.14509448 0.89675009 3.3168917e-39
-0.33449948 0.14259449 0.8917501 2.9484679e-39
-0.33449948 0.14259449 0.89425009 2.6733201e-39
-0.33449948 0.14509448 0.8917501 2.6733201e-39
-0.33449948 0.14509448 0.89425009 3.2243457e-39
-0.33199948 0.14259449 0.8917501 2.7637179e-39
-0.33199948 0.14259449 0.89425009 2.5811245e-39
-0.33199948 0.14509448 0.8917501 2.6733201e-39
-0.33199948 0.14509448 0.89425009 2.3963773e-39
-0.33449948 0.14259449 0.89675009 2.9484623e-39
-0.33449948 0.14509448 0.89675009 2.8562723e-39
-0.33199948 0.14259449 0.89675009 2.4889289e-39
-0.33199948 0.14509448 0.89675009 1.9357579e-39
-0.33949947 0.14259449 0.90175009 2.7655158e-39
-0.33949947 0.14509448 0.90175009 3.2250478e-39
-0.33699948 0.14259449 0.90175009 3.0406635e-39
-0.33699948 0.14509448 0.90175009 2.7655158e-39
-0.33949947 0.14259449 0.90675008 2.7655158e-39
-0.33949947 0.14259449 0.90925008 2.5814776e-39
-0.33949947 0.14509448 0.90675008 2.9484679e-39
-0.33949947 0.14509448 0.90925008 2.5811245e-39
-0.33699948 0.14259449 0.90675008 2.6733201e-39
-0.33699948 0.14259449 0.90925008 1.8432091e-39
-0.33699948 0.14509448 0.90675008 1.6627667e-39
-0.33699948 0.14509448 0.90925008 1.7553141e-39
-0.33699948 0.14759448 0.90925008 4.6422496e-40
-0.33449948 0.14259449 0.90175009 2.4889289e-39
-0.33449948 0.14509448 0.90175009 1.9357579e-39
-0.33199948 0.14509448 0.90175009 1.7520645e-39
-0.33449948 0.14259449 0.90675008 1.3861714e-39
-0.33449948 0.14259449 0.90925008 2.0290101e-39
-0.33449948 0.14509448 0.90675008 1.7510079e-39
-0.33449948 0.14509448 0.90925008 2.1204995e-39
-0.33199948 0.14509448 0.90925008 2.9473833e-39
-0.33449948 0.14759448 0.90175009 1.8435623e-39
-0.33199948 0.14759448 0.90175009 1.751717e-39
-0.33449948 0.14759448 0.90675008 1.1095944e-39
-0.33449948 0.14759448 0.90925008 1.751717e-39
-0.33199948 0.14759448 0.90675008 2.3970864e-39
-0.33199948 0.14759448 0.90925008 2.7633522e-39
-0.33199948 0.15009448 0.90675008 2.3970864e-39
-0.33199948 0.15009448 0.90925008 2.3970864e-39
-0.32699949 0.13759449 0.90925008 2.9491685e-39
-0.32699949 0.14009449 0.90925008 2.489282e-39
-0.32199946 0.13259448 0.90925008 3.4097964e-39
-0.32199946 0.13509449 0.90675008 3.2246947e-39
-0.32199946 0.13509449 0.90925008 3.3172448e-39
-0.32199946 0.14009449 0.90175009 3.2250478e-39
-0.32449949 0.13759449 0.90675008 3.3172448e-39
-0.32449949 0.13759449 0.90925008 3.3172448e-39
-0.32449949 0.14009449 0.90675008 2.7658689e-39
-0.32449949 0.14009449 0.90925008 3.0424558e-39
-0.32199946 0.13759449 0.90675008 3.1342983e-39
-0.32199946 0.13759449 0.90925008 3.3172448e-39
-0.32199946 0.14009449 0.90675008 3.1346514e-39
-0.32199946 0.14009449 0.90925008 3.3175951e-39
-0.31949946 0.14009449 0.89675009 3.3168917e-39
-0.31699947 0.14009449 0.89675009 3.4090873e-39
-0.31449947 0.14009449 0.89675009 3.408737e-39
-0.31199947 0.14009449 0.89675009 3.3165414e-39
-0.31699947 0.13509449 0.90175009 3.5016417e-39
-0.31949946 0.13259448 0.90925008 3.1346514e-39
-0.31949946 0.13509449 0.90675008 3.2246947e-39
-0.31949946 0.13509449 0.90925008 3.4097964e-39
-0.31699947 0.13259448 0.90925008 2.7658689e-40
-0.31699947 0.13509449 0.90675008 3.4097964e-39
-0.31699947 0.13509449 0.90925008 7.3576437e-40
-0.31949946 0.13759449 0.90175009 3.4094404e-39
-0.31949946 0.14009449 0.90175009 3.1342983e-39
-0.31699947 0.13759449 0.90175009 3.5016361e-39
-0.31699947 0.14009449 0.90175009 3.1342983e-39
-0.31949946 0.13759449 0.90675008 3.1342983e-39
-0.31949946 0.13759449 0.90925008 3.4097964e-39
-0.31949946 0.14009449 0.90675008 3.4090873e-39
-0.31699947 0.13759449 0.90675008 3.4094404e-39
-0.31699947 0.13759449 0.90925008 1.5655334e-39
-0.31699947 0.14009449 0.90675008 3.4090873e-39
-0.31449947 0.13509449 0.90175009 2.1183485e-39
-0.31199947 0.13509449 0.90175009 3.2142424e-39
-0.31449947 0.13259448 0.90925008 3.0305714e-39
-0.31449947 0.13509449 0.90675008 3.2142494e-39
-0.31449947 0.13509449 0.90925008 3.1224069e-39
-0.31199947 0.13509449 0.90675008 1.021717e-38
-0.31199947 0.13509449 0.90925008 1.5292578e-38
-0.31449947 0.13759449 0.90175009 2.5796784e-39
-0.31449947 0.14009449 0.90175009 2.9484679e-39
-0.31199947 0.13759449 0.90175009 3.6737982e-39
-0.31199947 0.14009449 0.90175009 3.1289061e-39
-0.31449947 0.13759449 0.90675008 3.9489474e-39
-0.31449947 0.13759449 0.90925008 6.5300522e-39
-0.31449947 0.14009449 0.90675008 3.7659938e-39
-0.31449947 0.14009449 0.90925008 1.8388763e-39
-0.31199947 0.13759449 0.90675008 6.3449561e-39
-0.31199947 0.13759449 0.90925008 1.4370251e-38
-0.31199947 0.14009449 0.90675008 1.7459716e-39
-0.32949948 0.15009448 0.87425005 3.0417523e-39
-0.32949948 0.14759448 0.87925005 3.2250478e-39
-0.32949948 0.15009448 0.87675005 2.8580701e-39
-0.32949948 0.15009448 0.87925005 2.8580701e-39
-0.32699949 0.14759448 0.87925005 2.6736733e-39
-0.32699949 0.15009448 0.87925005 2.2152189e-39
-0.32449949 0.14759448 0.87925005 2.3970864e-39
-0.32449949 0.15009448 0.87925005 1.2929038e-39
-0.32199946 0.14759448 0.87925005 2.0283039e-39
-0.32199946 0.15009448 0.87925005 1.751717e-39
-0.32949948 0.14259449 0.88175005 2.6733201e-39
-0.32949948 0.14259449 0.88425004 2.5811245e-39
-0.32949948 0.14509448 0.88175005 2.9481176e-39
-0.32949948 0.14509448 0.88425004 2.5807742e-39
-0.32699949 0.14259449 0.88175005 2.3963773e-39
-0.32699949 0.14259449 0.88425004 1.6627667e-39
-0.32699949 0.14509448 0.88175005 2.3963773e-39
-0.32699949 0.14509448 0.88425004 2.1204995e-39
-0.32949948 0.14509448 0.8867501 2.0315409e-39
-0.32949948 0.14509448 0.8892501 2.5814776e-39
-0.32699949 0.14509448 0.8867501 1.751717e-39
-0.32699949 0.14509448 0.8892501 1.3861714e-39
-0.32949948 0.14759448 0.88175005 2.6726167e-39
-0.32949948 0.14759448 0.88425004 2.5811245e-39
-0.32949948 0.15009448 0.88175005 2.8580645e-39
-0.32699949 0.14759448 0.88175005 2.5814776e-39
-0.32699949 0.14759448 0.88425004 2.5814776e-39
-0.32699949 0.15009448 0.88175005 2.8587736e-39
-0.32699949 0.15009448 0.88425004 1.3832848e-39
-0.32949948 0.14759448 0.8867501 2.6736733e-39
-0.32699949 0.14759448 0.8867501 1.9361082e-39
-0.32699949 0.14759448 0.8892501 1.751717e-39
-0.32699949 0.15009448 0.8867501 1.751717e-39
-0.32699949 0.15009448 0.8892501 1.2914451e-39
-0.32449949 0.14509448 0.88175005 1.751717e-39
-0.32199946 0.14509448 0.88175005 2.2126951e-39
-0.32449949 0.14759448 0.88175005 1.4765552e-39
-0.32449949 0.14759448 0.88425004 1.5669768e-39
-0.32449949 0.15009448 0.88175005 1.5669768e-39
-0.32449949 0.15009448 0.88425004 1.2914451e-39
-0.32199946 0.14759448 0.88175005 1.9371746e-39
-0.32199946 0.15009448 0.88175005 2.3963773e-39
-0.32199946 0.15009448 0.88425004 2.6708048e-39
-0.32449949 0.14759448 0.8867501 2.3981388e-39
-0.32449949 0.15009448 0.8867501 1.7556616e-39
-0.32449949 0.15009448 0.8892501 2.2126951e-39
-0.32199946 0.15009448 0.8867501 2.6711551e-39
-0.32949948 0.15259449 0.87175006 2.0254368e-39
-0.32949948 0.15259449 0.87425005 2.4885786e-39
-0.32949948 0.15509449 0.87175006 4.6058551e-39
-0.32949948 0.15509449 0.87425005 4.3296199e-39
-0.32699949 0.15509449 0.87175006 5.7168297e-39
-0.32699949 0.15509449 0.87425005 9.1262687e-39
-0.32949948 0.15259449 0.87675005 1.9357579e-39
-0.32949948 0.15259449 0.87925005 1.6631171e-39
-0.32949948 0.15509449 0.87675005 5.9923656e-39
-0.32949948 0.15509449 0.87925005 1.2914451e-39
-0.32699949 0.15259449 0.87675005 2.1201492e-39
-0.32699949 0.15259449 0.87925005 2.0311877e-39
-0.32699949 0.15509449 0.87675005 8.7582359e-39
-0.32699949 0.15509449 0.87925005 1.659583e-39
-0.32949948 0.15759449 0.87175006 1.3641748e-38
-0.32949948 0.15759449 0.87425005 1.336588e-38
-0.32949948 0.16009448 0.87175006 1.1250385e-38
-0.32699949 0.15759449 0.87175006 1.4011234e-38
-0.32699949 0.15759449 0.87425005 1.0690746e-38
-0.32699949 0.16009448 0.87175006 1.2630429e-38
-0.32949948 0.15759449 0.87675005 1.1516175e-38
-0.32949948 0.15759449 0.87925005 5.8994217e-39
-0.32949948 0.16009448 0.87675005 1.4287464e-38
-0.32699949 0.15759449 0.87675005 1.2811246e-38
-0.32699949 0.15759449 0.87925005 1.2355323e-38
-0.32699949 0.16009448 0.87675005 1.7053337e-38
-0.32699949 0.16009448 0.87925005 1.3825771e-38
-0.32449949 0.15509449 0.87175006 9.1259633e-39
-0.32449949 0.15509449 0.87425005 9.1277597e-39
-0.32199946 0.15509449 0.87175006 6.5444856e-39
-0.32199946 0.15509449 0.87425005 6.2696938e-39
-0.32449949 0.15259449 0.87675005 9.2449265e-40
-0.32449949 0.15259449 0.87925005 7.4010139e-40
-0.32449949 0.15509449 0.87675005 8.5742384e-39
-0.32449949 0.15509449 0.87925005 6.4472061e-40
-0.32199946 0.15259449 0.87925005 7.3869168e-40
-0.32199946 0.15509449 0.87925005 1.8369341e-40
-0.32449949 0.15759449 0.87175006 1.539271e-38
-0.32449949 0.15759449 0.87425005 1.198942e-38
-0.32449949 0.16009448 0.87175006 1.428495e-38
-0.32199946 0.15759449 0.87175006 1.5668238e-38
-0.32199946 0.15759449 0.87425005 1.0606486e-38
-0.32199946 0.16009448 0.87175006 3.3176358e-39
-0.32199946 0.16009448 0.87425005 1.1705991e-38
-0.32449949 0.15759449 0.87675005 1.1987621e-38
-0.32449949 0.15759449 0.87925005 1.0696882e-38
-0.32449949 0.16009448 0.87675005 1.566607e-38
-0.32449949 0.16009448 0.87925005 1.5761134e-38
-0.32199946 0.15759449 0.87925005 2.4125988e-39
-0.32199946 0.16009448 0.87675005 1.1154968e-38
-0.32199946 0.16009448 0.87925005 1.1706695e-38
-0.32949948 0.15259449 0.88175005 3.0424558e-39
-0.32699949 0.15259449 0.88175005 2.6736733e-39
-0.32699949 0.15259449 0.88425004 1.9361082e-39
-0.32699949 0.15509449 0.88175005 9.2484297e-40
-0.32699949 0.15259449 0.8867501 2.4867639e-39
-0.32699949 0.15509449 0.8867501 9.3629158e-41
-0.32699949 0.16009448 0.88425004 1.585333e-38
-0.32699949 0.15759449 0.8867501 3.8757449e-39
-0.32699949 0.15759449 0.8892501 3.6913565e-39
-0.32699949 0.16009448 0.8867501 1.142976e-38
-0.32449949 0.15259449 0.88175005 1.9354076e-39
-0.32449949 0.15259449 0.88425004 2.3945654e-39
-0.32449949 0.15509449 0.88175005 6.4542966e-40
-0.32449949 0.15509449 0.88425004 4.6097815e-40
-0.32199946 0.15259449 0.88175005 2.2119959e-39
-0.32199946 0.15259449 0.88425004 2.7633522e-39
-0.32199946 0.15509449 0.88175005 1.5666293e-39
-0.32449949 0.15259449 0.8867501 2.5789595e-39
-0.32449949 0.15259449 0.8892501 2.4867611e-39
-0.32449949 0.15509449 0.8867501 1.751717e-39
-0.32449949 0.15509449 0.8892501 1.9354076e-39
-0.32199946 0.15259449 0.8867501 2.7633522e-39
-0.32199946 0.15259449 0.8892501 2.6708048e-39
-0.32199946 0.15509449 0.8867501 2.4889317e-39
-0.32199946 0.15509449 0.8892501 2.947033e-39
-0.32449949 0.15759449 0.88175005 2.6891744e-39
-0.32449949 0.15759449 0.88425004 4.0608508e-39
-0.32449949 0.16009448 0.88175005 1.1522659e-38
-0.32449949 0.16009448 0.88425004 4.3454265e-42
-0.32199946 0.15759449 0.88175005 4.7097641e-42
-0.32199946 0.15759449 0.88425004 2.0276032e-39
-0.32199946 0.16009448 0.88175005 4.2038954e-45
-0.32199946 0.16009448 0.88425004 4.5918589e-40
-0.32449949 0.15759449 0.8867501 5.5747016e-40
-0.32449949 0.15759449 0.8892501 2.4889289e-39
-0.32449949 0.16009448 0.8867501 1.8368641e-40
-0.32199946 0.15759449 0.8867501 2.6729698e-39
-0.32199946 0.15759449 0.8892501 2.6733201e-39
-0.32199946 0.16009448 0.8867501 3.2239786e-39
-0.31699947 0.14759448 0.88425004 2.9484623e-39
-0.31699947 0.15009448 0.88425004 2.1201492e-39
-0.31699947 0.14759448 0.8867501 2.9473833e-39
-0.31699947 0.15009448 0.8867501 2.9491685e-39
-0.31699947 0.15009448 0.8892501 2.9491685e-39
-0.31199947 0.14509448 0.8892501 3.2246947e-39
-0.31449947 0.14759448 0.88425004 3.2250478e-39
-0.31449947 0.15009448 0.88425004 2.5800259e-39
-0.31199947 0.14759448 0.88425004 3.3172448e-39
-0.31199947 0.15009448 0.88175005 1.1981929e-39
-0.31199947 0.15009448 0.88425004 1.7481423e-39
-0.31449947 0.14759448 0.8867501 3.0406635e-39
-0.31449947 0.14759448 0.8892501 3.0406635e-39
-0.31449947 0.15009448 0.8867501 3.3168917e-39
-0.31449947 0.15009448 0.8892501 3.3168917e-39
-0.31199947 0.14759448 0.8867501 3.3165414e-39
-0.31199947 0.14759448 0.8892501 2.8580645e-39
-0.31199947 0.15009448 0.8867501 3.1346514e-39
-0.31199947 0.15009448 0.8892501 3.2246947e-39
-0.31949946 0.16009448 0.87175006 4.4841551e-44
-0.31949946 0.16009448 0.87925005 3.3161742e-39
-0.31699947 0.16009448 0.87925005 2.3938592e-39
-0.31199947 0.15259449 0.87925005 1.0689594e-38
-0.31199947 0.15509449 0.87925005 1.1705993e-38
-0.31449947 0.15759449 0.87925005 8.0934151e-39
-0.31449947 0.16009448 0.87925005 2.1523944e-42
-0.31199947 0.15759449 0.87675005 1.9064342e-38
-0.31199947 0.15759449 0.87925005 1.7972384e-38
-0.31199947 0.16009448 0.87675005 1.793662e-42
-0.31199947 0.16009448 0.87925005 1.5626384e-39
-0.31699947 0.15259449 0.88425004 1.3800674e-39
-0.31699947 0.15509449 0.88425004 1.7463094e-39
-0.31949946 0.15259449 0.8892501 3.1296151e-39
-0.31949946 0.15509449 0.8867501 2.6733201e-39
-0.31949946 0.15509449 0.8892501 1.1056385e-39
-0.31699947 0.15259449 0.8867501 2.3020139e-39
-0.31699947 0.15259449 0.8892501 1.7484898e-39
-0.31699947 0.15509449 0.8867501 0
-0.31699947 0.15509449 0.8892501 6.4501908e-40
-0.31949946 0.15759449 0.88175005 2.8577142e-39
-0.31949946 0.15759449 0.88425004 2.6729726e-39
-0.31949946 0.16009448 0.88175005 2.7658689e-39
-0.31949946 0.16009448 0.88425004 3.0392342e-39
-0.31699947 0.15759449 0.88175005 3.0421027e-39
-0.31699947 0.15759449 0.88425004 5.6084393e-39
-0.31699947 0.16009448 0.88175005 6.4466596e-40
-0.31699947 0.16009448 0.88425004 6.4286529e-40
-0.31949946 0.15759449 0.8867501 2.7651654e-39
-0.31949946 0.15759449 0.8892501 4.2038954e-45
-0.31949946 0.16009448 0.8867501 2.9481176e-39
-0.31699947 0.15759449 0.8867501 4.9645188e-39
-0.31699947 0.15759449 0.8892501 5.6077414e-39
-0.31699947 0.16009448 0.8867501 9.1846707e-41
-0.31449947 0.15259449 0.88425004 2.1179828e-39
-0.31449947 0.15509449 0.88425004 1.0233715e-38
-0.31199947 0.15259449 0.88175005 1.1063476e-39
-0.31199947 0.15259449 0.88425004 7.3504691e-40
-0.31199947 0.15509449 0.88175005 1.1339359e-38
-0.31199947 0.15509449 0.88425004 1.0048525e-38
-0.31449947 0.15259449 0.8867501 1.6562941e-39
-0.31449947 0.15259449 0.8892501 2.6718614e-39
-0.31449947 0.15509449 0.8867501 5.90017e-39
-0.31199947 0.15259449 0.8867501 1.2907388e-39
-0.31449947 0.15759449 0.88175005 7.6331334e-39
-0.31449947 0.15759449 0.88425004 1.7964103e-38
-0.31449947 0.16009448 0.88175005 4.5031903e-39
-0.31449947 0.16009448 0.88425004 1.9156891e-38
-0.31199947 0.15759449 0.88175005 1.9156891e-38
-0.31199947 0.15759449 0.88425004 1.7784771e-38
-0.31199947 0.16009448 0.88175005 1.0772493e-38
-0.31199947 0.16009448 0.88425004 1.7972737e-38
-0.31449947 0.15759449 0.8892501 1.8238544e-38
-0.32949948 0.14259449 0.8917501 2.3963773e-39
-0.32949948 0.14509448 0.8917501 1.7549638e-39
-0.32949948 0.14509448 0.89675009 1.7510079e-39
-0.32949948 0.14759448 0.89425009 1.1102922e-39
-0.32699949 0.14759448 0.8917501 2.1179828e-39
-0.32699949 0.15009448 0.8917501 2.0283039e-39
-0.32699949 0.15009448 0.89425009 2.3970864e-39
-0.32949948 0.14759448 0.89675009 2.2134014e-39
-0.32949948 0.15009448 0.89675009 2.2126951e-39
-0.32699949 0.14759448 0.89675009 2.3970864e-39
-0.32699949 0.15009448 0.89675009 2.5814776e-39
-0.32449949 0.14759448 0.8917501 3.0399348e-39
-0.32449949 0.15009448 0.8917501 2.3970864e-39
-0.32449949 0.15009448 0.89425009 2.7633522e-39
-0.32199946 0.15009448 0.8917501 2.6711551e-39
-0.32199946 0.15009448 0.89425009 2.7630018e-39
-0.32449949 0.14759448 0.89675009 2.2123448e-39
-0.32449949 0.15009448 0.89675009 2.3970864e-39
-0.32199946 0.14759448 0.89675009 2.6708048e-39
-0.32199946 0.15009448 0.89675009 2.7630018e-39
-0.32949948 0.14509448 0.90675008 2.9473833e-39
-0.32949948 0.14509448 0.90925008 2.6711551e-39
-0.32699949 0.14259449 0.90675008 2.7647773e-39
-0.32699949 0.14259449 0.90925008 2.6708048e-39
-0.32699949 0.14509448 0.90675008 2.6708048e-39
-0.32699949 0.14509448 0.90925008 2.2126951e-39
-0.32949948 0.14759448 0.90175009 2.7633522e-39
-0.32949948 0.15009448 0.90175009 2.2126951e-39
-0.32699949 0.14759448 0.90175009 2.6711551e-39
-0.32699949 0.15009448 0.90175009 2.3970864e-39
-0.32949948 0.14759448 0.90675008 2.7633522e-39
-0.32949948 0.14759448 0.90925008 2.3970864e-39
-0.32949948 0.15009448 0.90675008 2.7633522e-39
-0.32699949 0.14759448 0.90675008 2.9473833e-39
-0.32449949 0.14259449 0.90175009 2.7630018e-39
-0.32449949 0.14509448 0.90175009 2.947033e-39
-0.32199946 0.14259449 0.90175009 2.8562667e-39
-0.32199946 0.14509448 0.90175009 3.0410167e-39
-0.32449949 0.14259449 0.90675008 2.947033e-39
-0.32449949 0.14509448 0.90675008 2.6736733e-39
-0.32199946 0.14259449 0.90675008 3.3172448e-39
-0.32449949 0.14759448 0.90175009 2.947033e-39
-0.32449949 0.15009448 0.90175009 2.3963773e-39
-0.32199946 0.14759448 0.90175009 2.7630018e-39
-0.32199946 0.15009448 0.90175009 2.1201492e-39
-0.32449949 0.14759448 0.90675008 2.5814776e-39
-0.32699949 0.15259449 0.89675009 2.3963773e-39
-0.32449949 0.15259449 0.8917501 2.5814776e-39
-0.32449949 0.15259449 0.89425009 2.9473833e-39
-0.32449949 0.15509449 0.8917501 2.6711551e-39
-0.32449949 0.15509449 0.89425009 2.9473833e-39
-0.32199946 0.15259449 0.8917501 2.6708048e-39
-0.32199946 0.15259449 0.89425009 2.9473833e-39
-0.32199946 0.15509449 0.8917501 2.7633522e-39
-0.32199946 0.15509449 0.89425009 2.8562667e-39
-0.32449949 0.15259449 0.89675009 2.4889317e-39
-0.32199946 0.15259449 0.89675009 2.4889289e-39
-0.32449949 0.15759449 0.8917501 2.947033e-39
-0.32199946 0.15759449 0.8917501 3.1314242e-39
-0.32699949 0.15259449 0.90175009 2.3970864e-39
-0.31699947 0.14509448 0.89425009 3.2246947e-39
-0.31949946 0.14259449 0.89675009 3.3172448e-39
-0.31949946 0.14509448 0.89675009 3.4094404e-39
-0.31699947 0.14259449 0.89675009 3.3168917e-39
-0.31699947 0.14509448 0.89675009 3.4094404e-39
-0.31949946 0.15009448 0.8917501 2.3967332e-39
-0.31949946 0.15009448 0.89425009 2.6708048e-39
-0.31699947 0.14759448 0.8917501 3.4094404e-39
-0.31699947 0.14759448 0.89425009 2.8580701e-39
-0.31699947 0.15009448 0.8917501 2.9484679e-39
-0.31949946 0.14759448 0.89675009 2.5811245e-39
-0.31949946 0.15009448 0.89675009 2.7633522e-39
-0.31699947 0.14759448 0.89675009 2.8580645e-39
-0.31449947 0.14259449 0.89425009 3.3172448e-39
-0.31449947 0.14509448 0.8917501 3.0406635e-39
-0.31449947 0.14509448 0.89425009 3.4094404e-39
-0.31199947 0.14259449 0.89425009 3.0410167e-39
-0.31199947 0.14509448 0.8917501 3.0410167e-39
-0.31199947 0.14509448 0.89425009 3.4097964e-39
-0.31449947 0.14259449 0.89675009 3.3168917e-39
-0.31449947 0.14509448 0.89675009 3.0424558e-39
-0.31199947 0.14259449 0.89675009 3.3168917e-39
-0.31199947 0.14509448 0.89675009 3.3165414e-39
-0.31449947 0.14759448 0.8917501 2.8580701e-39
-0.31449947 0.14759448 0.89425009 3.317242e-39
-0.31449947 0.15009448 0.8917501 3.3172448e-39
-0.31199947 0.14759448 0.8917501 3.4090873e-39
-0.31199947 0.14759448 0.89425009 3.3175951e-39
-0.31199947 0.15009448 0.8917501 3.4094404e-39
-0.31449947 0.14759448 0.89675009 3.4097908e-39
-0.31199947 0.14759448 0.89675009 3.2243457e-39
-0.31949946 0.14259449 0.90175009 3.3168917e-39
-0.31949946 0.14509448 0.90175009 2.8580701e-39
-0.31699947 0.14259449 0.90175009 3.3172448e-39
-0.31699947 0.14509448 0.90175009 3.317242e-39
-0.31949946 0.14759448 0.90175009 3.2250478e-39
-0.31449947 0.14259449 0.90175009 2.8580645e-39
-0.31449947 0.14509448 0.90175009 3.3168917e-39
-0.31199947 0.14259449 0.90175009 3.0392342e-39
-0.31199947 0.14509448 0.90175009 3.3165414e-39
-0.31199947 0.14259449 0.90675008 7.34712e-40
-0.31949946 0.15259449 0.8917501 2.7630018e-39
-0.31949946 0.15259449 0.89425009 2.4864135e-39
-0.31949946 0.15509449 0.8917501 2.3945682e-39
-0.31949946 0.15509449 0.89425009 2.5796784e-39
-0.31699947 0.15259449 0.8917501 2.7633522e-39
-0.31699947 0.15509449 0.8917501 7.0000562e-39
-0.31949946 0.15759449 0.8917501 4.6062502e-40
-0.34949946 0.13009448 0.91425008 3.2246947e-39
-0.34949946 0.12759449 0.91925007 3.225045e-39
-0.34949946 0.13009448 0.91675007 2.8580701e-39
-0.34949946 0.13009448 0.91925007 3.3168917e-39
-0.34699947 0.13009448 0.91925007 3.2246947e-39
-0.34199947 0.13009448 0.91925007 2.7658689e-39
-0.34949946 0.12509449 0.92675006 2.9484623e-39
-0.34949946 0.12509449 0.92925006 1.2903857e-39
-0.34699947 0.12509449 0.92675006 4.9659439e-39
-0.34699947 0.12509449 0.92925006 6.9841865e-39
-0.34949946 0.12759449 0.92175007 3.3168917e-39
-0.34949946 0.12759449 0.92425007 3.4090873e-39
-0.34949946 0.13009448 0.92175007 3.2246947e-39
-0.34949946 0.13009448 0.92425007 3.0424558e-39
-0.34699947 0.12759449 0.92175007 3.3168917e-39
-0.34699947 0.12759449 0.92425007 2.5814776e-39
-0.34699947 0.13009448 0.92175007 3.3168917e-39
-0.34699947 0.13009448 0.92425007 3.3168917e-39
-0.34949946 0.12759449 0.92675006 3.4090873e-39
-0.34949946 0.12759449 0.92925006 3.4090873e-39
-0.34949946 0.13009448 0.92675006 3.3168917e-39
-0.34949946 0.13009448 0.92925006 3.1342983e-39
-0.34699947 0.12759449 0.92675006 2.5786092e-39
-0.34699947 0.12759449 0.92925006 1.2878704e-39
-0.34699947 0.13009448 0.92675006 2.7651654e-39
-0.34699947 0.13009448 0.92925006 3.1346514e-39
-0.34449947 0.12509449 0.92675006 3.4908251e-39
-0.34449947 0.12509449 0.92925006 1.4104855e-38
-0.34449947 0.12759449 0.92175007 2.9484679e-39
-0.34449947 0.12759449 0.92425007 5.5317378e-40
-0.34449947 0.13009448 0.92175007 2.8555632e-39
-0.34449947 0.13009448 0.92425007 2.3963829e-39
-0.34199947 0.12759449 0.92175007 2.9484623e-39
-0.34199947 0.12759449 0.92425007 7.1746481e-43
-0.34199947 0.13009448 0.92175007 2.9473833e-39
-0.34199947 0.13009448 0.92425007 2.7633522e-39
-0.34449947 0.12759449 0.92675006 0
-0.34449947 0.12759449 0.92925006 6.4284847e-40
-0.34449947 0.13009448 0.92675006 2.6736733e-39
-0.34199947 0.12759449 0.92675006 0
-0.34199947 0.12759449 0.92925006 7.0064923e-45
-0.34199947 0.13009448 0.92675006 3.0399377e-39
-0.34199947 0.13009448 0.92925006 3.2250478e-39
-0.34949946 0.13259448 0.91175008 2.9502826e-39
-0.34949946 0.13259448 0.91425008 3.3172448e-39
-0.34949946 0.13509449 0.91175008 2.7655186e-39
-0.34949946 0.13509449 0.91425008 3.4094404e-39
-0.34699947 0.13259448 0.91175008 3.3168917e-39
-0.34699947 0.13259448 0.91425008 3.2250478e-39
-0.34699947 0.13509449 0.91175008 3.2246947e-39
-0.34699947 0.13509449 0.91425008 3.3172448e-39
-0.34949946 0.13259448 0.91675007 3.2246947e-39
-0.34949946 0.13259448 0.91925007 3.0417523e-39
-0.34949946 0.13509449 0.91675007 2.6729698e-39
-0.34949946 0.13509449 0.91925007 3.4090873e-39
-0.34699947 0.13259448 0.91675007 2.7655158e-39
-0.34699947 0.13259448 0.91925007 2.8580701e-39
-0.34699947 0.13509449 0.91675007 2.6733201e-39
-0.34699947 0.13509449 0.91925007 2.8580701e-39
-0.34949946 0.13759449 0.91175008 3.1335948e-39
-0.34949946 0.13759449 0.91425008 3.4090873e-39
-0.34949946 0.14009449 0.91175008 1.8471594e-39
-0.34949946 0.14009449 0.91425008 3.3168917e-39
-0.34699947 0.13759449 0.91175008 3.0421027e-39
-0.34699947 0.13759449 0.91425008 3.2246947e-39
-0.34699947 0.14009449 0.91175008 3.0417523e-39
-0.34699947 0.14009449 0.91425008 3.2246947e-39
-0.34949946 0.13759449 0.91675007 3.0406635e-39
-0.34949946 0.13759449 0.91925007 3.1342983e-39
-0.34949946 0.14009449 0.91675007 2.8573625e-39
-0.34699947 0.13759449 0.91675007 2.6736733e-39
-0.34699947 0.14009449 0.91675007 2.8580701e-39
-0.34449947 0.13509449 0.91425008 3.2250478e-39
-0.34199947 0.13509449 0.91425008 2.4889289e-39
-0.34449947 0.13259448 0.91675007 2.6729698e-39
-0.34449947 0.13259448 0.91925007 2.8573625e-39
-0.34449947 0.13509449 0.91675007 2.6733201e-39
-0.34449947 0.13509449 0.91925007 2.6733201e-39
-0.34199947 0.13259448 0.91675007 2.3963829e-39
-0.34199947 0.13259448 0.91925007 2.7633522e-39
-0.34199947 0.13509449 0.91675007 2.5811245e-39
-0.34199947 0.13509449 0.91925007 2.2126951e-39
-0.34449947 0.13759449 0.91175008 3.2250478e-39
-0.34449947 0.13759449 0.91425008 3.2250478e-39
-0.34449947 0.14009449 0.91175008 2.7655158e-39
-0.34449947 0.14009449 0.91425008 3.3168917e-39
-0.34199947 0.13759449 0.91175008 2.7658689e-39
-0.34199947 0.13759449 0.91425008 2.5814776e-39
-0.34199947 0.14009449 0.91175008 2.8573625e-39
-0.34199947 0.14009449 0.91425008 2.764071e-39
-0.34449947 0.13759449 0.91675007 2.9484623e-39
-0.34449947 0.13759449 0.91925007 2.7658689e-39
-0.34449947 0.14009449 0.91675007 2.9484623e-39
-0.34199947 0.13759449 0.91675007 2.764071e-39
-0.34199947 0.13759449 0.91925007 1.751717e-39
-0.34199947 0.14009449 0.91675007 2.9484623e-39
-0.34199947 0.14009449 0.91925007 2.5814776e-39
-0.34949946 0.13259448 0.92175007 3.2246947e-39
-0.34949946 0.13259448 0.92425007 3.408737e-39
-0.34949946 0.13509449 0.92175007 3.1346514e-39
-0.34699947 0.13259448 0.92175007 3.0417523e-39
-0.34699947 0.13259448 0.92425007 3.0417523e-39
-0.34699947 0.13509449 0.92175007 3.1346514e-39
-0.34449947 0.13259448 0.92175007 2.6729698e-39
-0.34449947 0.13259448 0.92425007 2.5807742e-39
-0.34449947 0.13509449 0.92175007 3.0424558e-39
-0.34199947 0.13259448 0.92175007 2.7633522e-39
-0.34199947 0.13259448 0.92425007 2.5814776e-39
-0.34199947 0.13509449 0.92425007 2.4889317e-39
-0.34199947 0.13259448 0.92675006 2.7658689e-39
-0.34199947 0.13259448 0.92925006 3.3172448e-39
-0.34199947 0.13509449 0.92675006 2.8562667e-39
-0.34199947 0.13509449 0.92925006 2.4889289e-39
-0.33949947 0.13009448 0.92175007 3.1321333e-39
-0.33949947 0.13009448 0.92925006 2.8580645e-39
-0.33699948 0.13009448 0.92675006 2.8580645e-39
-0.33699948 0.13009448 0.92925006 2.6736733e-39
-0.33449948 0.13009448 0.92425007 2.8587736e-39
-0.33199948 0.12759449 0.92175007 3.4094404e-39
-0.33199948 0.12759449 0.92425007 3.2264939e-39
-0.33199948 0.13009448 0.92175007 3.0424558e-39
-0.33199948 0.13009448 0.92425007 3.0410167e-39
-0.33449948 0.12759449 0.92925006 3.2253953e-39
-0.33449948 0.13009448 0.92675006 2.6736733e-39
-0.33449948 0.13009448 0.92925006 3.3172448e-39
-0.33199948 0.12759449 0.92675006 3.1346514e-39
-0.33199948 0.12759449 0.92925006 3.2246947e-39
-0.33199948 0.13009448 0.92675006 3.4094404e-39
-0.33949947 0.13509449 0.91425008 2.2126951e-39
-0.33949947 0.13259448 0.91675007 2.3063173e-39
-0.33949947 0.13259448 0.91925007 2.5814776e-39
-0.33949947 0.13509449 0.91675007 2.1204995e-39
-0.33949947 0.13509449 0.91925007 2.2126951e-39
-0.33699948 0.13259448 0.91925007 2.6736733e-39
-0.33699948 0.13509449 0.91925007 2.7633522e-39
-0.33949947 0.13759449 0.91175008 2.6736733e-39
-0.33949947 0.13759449 0.91425008 2.2123448e-39
-0.33949947 0.14009449 0.91175008 2.5807742e-39
-0.33949947 0.14009449 0.91425008 1.5702124e-39
-0.33949947 0.13759449 0.91675007 1.7520645e-39
-0.33949947 0.13759449 0.91925007 1.8442601e-39
-0.33949947 0.14009449 0.91675007 1.9357579e-39
-0.33949947 0.14009449 0.91925007 1.7510079e-39
-0.33699948 0.13759449 0.91925007 2.9473833e-39
-0.33699948 0.14009449 0.91675007 2.1204995e-39
-0.33699948 0.14009449 0.91925007 2.3970864e-39
-0.33199948 0.13509449 0.91675007 2.9484623e-39
-0.33199948 0.13509449 0.91925007 2.9484623e-39
-0.33449948 0.13759449 0.91925007 2.8562667e-39
-0.33449948 0.14009449 0.91925007 2.8562667e-39
-0.33199948 0.13759449 0.91675007 2.9484371e-39
-0.33199948 0.13759449 0.91925007 2.5786092e-39
-0.33199948 0.14009449 0.91675007 2.8562667e-39
-0.33199948 0.14009449 0.91925007 2.6711551e-39
-0.33949947 0.13259448 0.92175007 2.9473833e-39
-0.33949947 0.13259448 0.92425007 2.9484623e-39
-0.33949947 0.13509449 0.92175007 2.9473833e-39
-0.33949947 0.13509449 0.92425007 2.9484623e-39
-0.33699948 0.13259448 0.92175007 2.7655158e-39
-0.33699948 0.13259448 0.92425007 2.6736733e-39
-0.33699948 0.13509449 0.92175007 3.0406635e-39
-0.33699948 0.13509449 0.92425007 2.764071e-39
-0.33949947 0.13259448 0.92925006 3.0410167e-39
-0.33949947 0.13509449 0.92675006 3.0399377e-39
-0.33949947 0.13509449 0.92925006 2.9484623e-39
-0.33699948 0.13259448 0.92675006 2.9484623e-39
-0.33699948 0.13259448 0.92925006 2.9484623e-39
-0.33699948 0.13509449 0.92675006 2.6718754e-39
-0.33699948 0.13509449 0.92925006 2.8562667e-39
-0.33949947 0.13759449 0.92175007 2.5821839e-39
-0.33949947 0.13759449 0.92425007 2.8569729e-39
-0.33949947 0.14009449 0.92175007 2.2126951e-39
-0.33949947 0.14009449 0.92425007 2.2126951e-39
-0.33699948 0.13759449 0.92175007 3.3165245e-39
-0.33699948 0.13759449 0.92425007 2.9484679e-39
-0.33699948 0.14009449 0.92175007 2.5814776e-39
-0.33699948 0.14009449 0.92425007 2.947033e-39
-0.33949947 0.13759449 0.92675006 2.5811273e-39
-0.33949947 0.14009449 0.92675006 2.5814776e-39
-0.33699948 0.13759449 0.92675006 2.7637179e-39
-0.33699948 0.14009449 0.92675006 2.5811245e-39
-0.33449948 0.13259448 0.92175007 2.6733201e-39
-0.33449948 0.13259448 0.92425007 2.8569729e-39
-0.33449948 0.13509449 0.92175007 2.9481176e-39
-0.33449948 0.13509449 0.92425007 2.9473833e-39
-0.33199948 0.13259448 0.92175007 3.3172448e-39
-0.33199948 0.13259448 0.92425007 3.3161742e-39
-0.33199948 0.13509449 0.92175007 3.4087216e-39
-0.33449948 0.13259448 0.92675006 2.947033e-39
-0.33449948 0.13259448 0.92925006 2.9484623e-39
-0.33449948 0.13509449 0.92675006 2.8562667e-39
-0.33199948 0.13259448 0.92675006 3.3172448e-39
-0.33199948 0.13509449 0.92675006 3.3172448e-39
-0.33449948 0.13759449 0.92175007 2.6715223e-39
-0.33449948 0.13759449 0.92425007 2.8562667e-39
-0.33449948 0.14009449 0.92175007 2.6708048e-39
-0.33449948 0.14009449 0.92425007 2.4889289e-39
-0.33199948 0.13759449 0.92175007 3.3172448e-39
-0.33199948 0.14009449 0.92175007 2.1204995e-39
-0.34949946 0.12259448 0.93425006 6.4320721e-39
-0.34949946 0.12509449 0.93175006 6.9848801e-39
-0.34949946 0.12509449 0.93425006 1.7310432e-38
-0.34699947 0.12509449 0.93175006 1.7587378e-38
-0.34699947 0.12509449 0.93425006 1.3552407e-38
-0.34949946 0.12509449 0.93675005 1.7958675e-38
-0.34949946 0.12509449 0.93925005 1.7866829e-38
-0.34699947 0.12259448 0.93925005 1.8337579e-38
-0.34699947 0.12509449 0.93675005 1.8062067e-38
-0.34699947 0.12509449 0.93925005 1.2630804e-38
-0.34949946 0.12759449 0.93175006 5.2421833e-39
-0.34949946 0.12759449 0.93425006 5.1499877e-39
-0.34699947 0.12759449 0.93175006 3.9489263e-39
-0.34699947 0.12759449 0.93425006 3.6734212e-39
-0.34949946 0.12759449 0.93675005 4.9652377e-39
-0.34699947 0.12759449 0.93675005 2.6632294e-39
-0.34699947 0.12759449 0.93925005 2.2958874e-39
-0.34449947 0.12259448 0.93925005 1.8525208e-38
-0.34449947 0.12509449 0.93675005 1.2718684e-38
-0.34449947 0.12509449 0.93925005 1.4747694e-38
-0.34199947 0.12259448 0.93925005 1.8434813e-38
-0.34199947 0.12509449 0.93675005 1.0050412e-38
-0.34199947 0.12509449 0.93925005 1.4655849e-38
-0.34449947 0.12759449 0.93175006 4.5917748e-40
-0.34449947 0.12759449 0.93425006 2.7658689e-40
-0.34199947 0.12759449 0.93175006 1.0119841e-39
-0.34199947 0.12759449 0.93425006 6.4285128e-40
-0.34199947 0.13009448 0.93175006 3.1342983e-39
-0.34449947 0.12759449 0.93675005 3.6734198e-40
-0.34449947 0.12759449 0.93925005 7.350441e-40
-0.34449947 0.13009448 0.93675005 7.0064923e-45
-0.34449947 0.13009448 0.93925005 2.7658689e-40
-0.34199947 0.12759449 0.93675005 1.3811226e-39
-0.34199947 0.12759449 0.93925005 6.4536941e-40
-0.34199947 0.13009448 0.93675005 3.1342983e-39
-0.34199947 0.13009448 0.93925005 8.2976067e-40
-0.34699947 0.12259448 0.94175005 1.8247895e-38
-0.34699947 0.12509449 0.94175005 1.7785462e-38
-0.34699947 0.12759449 0.94175005 1.3275095e-38
-0.34449947 0.12259448 0.94175005 1.8708873e-38
-0.34449947 0.12509449 0.94175005 1.6128096e-38
-0.34199947 0.12259448 0.94175005 9.3985592e-39
-0.34199947 0.12509449 0.94175005 1.5484878e-38
-0.34449947 0.12259448 0.94675004 1.8251851e-38
-0.34199947 0.12259448 0.94675004 7.4080204e-40
-0.34199947 0.12509449 0.94675004 3.8683082e-39
-0.34199947 0.13259448 0.93175006 2.7658689e-39
-0.34199947 0.13259448 0.93425006 2.8580645e-39
-0.34199947 0.13509449 0.93425006 2.6733201e-39
-0.34199947 0.13259448 0.93675005 2.8580701e-39
-0.34199947 0.13509449 0.93675005 3.2250478e-39
-0.33949947 0.12259448 0.93925005 4.0544567e-39
-0.33949947 0.12509449 0.93675005 6.5430213e-39
-0.33949947 0.12509449 0.93925005 1.6670841e-39
-0.33699948 0.12259448 0.93675005 2.4853163e-39
-0.33699948 0.12259448 0.93925005 2.3005747e-39
-0.33699948 0.12509449 0.93675005 3.8318086e-40
-0.33699948 0.12509449 0.93925005 1.2979415e-39
-0.33949947 0.13009448 0.93175006 3.1342983e-39
-0.33949947 0.13009448 0.93425006 3.3172448e-39
-0.33699948 0.12759449 0.93175006 3.0406635e-39
-0.33699948 0.13009448 0.93175006 2.9484679e-39
-0.33949947 0.12759449 0.93675005 1.1963726e-39
-0.33949947 0.12759449 0.93925005 1.841742e-39
-0.33949947 0.13009448 0.93675005 3.0421027e-39
-0.33949947 0.13009448 0.93925005 3.2250478e-39
-0.33699948 0.12759449 0.93675005 3.0410433e-39
-0.33699948 0.12759449 0.93925005 3.0402852e-39
-0.33699948 0.13009448 0.93675005 3.3168917e-39
-0.33699948 0.13009448 0.93925005 3.3161742e-39
-0.33449948 0.12259448 0.93425006 3.4083839e-39
-0.33449948 0.12509449 0.93425006 3.2243457e-39
-0.33199948 0.12509449 0.93175006 3.408737e-39
-0.33199948 0.12509449 0.93425006 3.0417523e-39
-0.33449948 0.12259448 0.93675005 2.9481176e-39
-0.33449948 0.12259448 0.93925005 3.1335976e-39
-0.33449948 0.12509449 0.93675005 3.0403132e-39
-0.33449948 0.12509449 0.93925005 3.2243457e-39
-0.33199948 0.12259448 0.93675005 2.8580645e-39
-0.33199948 0.12509449 0.93675005 3.3165414e-39
-0.33449948 0.12759449 0.93175006 2.8580701e-39
-0.33449948 0.12759449 0.93425006 3.1346514e-39
-0.33199948 0.12759449 0.93175006 3.3168917e-39
-0.33199948 0.12759449 0.93425006 3.3172448e-39
-0.33449948 0.12759449 0.93675005 3.2246947e-39
-0.33449948 0.13009448 0.93675005 3.2246947e-39
-0.33199948 0.12759449 0.93675005 3.4090873e-39
-0.33949947 0.12259448 0.94175005 3.8700641e-39
-0.33949947 0.12509449 0.94175005 3.593487e-39
-0.33699948 0.12259448 0.94175005 2.0261529e-39
-0.33699948 0.12509449 0.94175005 2.5793252e-39
-0.33949947 0.12259448 0.94675004 1.5669768e-39
-0.33699948 0.12259448 0.94675004 3.0413992e-39
-0.33949947 0.12759449 0.94175005 2.1194457e-39
-0.33449948 0.12259448 0.94175005 3.1335948e-39
-0.33949947 0.13259448 0.93175006 3.2250478e-39
-0.33949947 0.13509449 0.93175006 2.6733201e-39
-0.33699948 0.13259448 0.93175006 2.8562667e-39
-0.33699948 0.13509449 0.93175006 2.5811245e-39
-0.33949947 0.13259448 0.93675005 2.7655158e-39
-0.33949947 0.13509449 0.93675005 2.8562667e-39
-0.33699948 0.13259448 0.93675005 3.2250478e-39
-0.33699948 0.13509449 0.93675005 3.0392286e-39
-0.34949946 0.14259449 0.91175008 1.8468035e-39
-0.34949946 0.14259449 0.91425008 3.0406635e-39
-0.34699947 0.14259449 0.91175008 3.3168917e-39
-0.34949946 0.14259449 0.91675007 3.2246947e-39
-0.34949946 0.14509448 0.91675007 3.0403132e-39
-0.34449947 0.14259449 0.91175008 3.2246947e-39
-0.34449947 0.14259449 0.91425008 2.7658689e-39
-0.34199947 0.14259449 0.91175008 2.7655158e-39
-0.34199947 0.14259449 0.91425008 2.6733201e-39
-0.34199947 0.14509448 0.91425008 2.5811245e-39
-0.34199947 0.14259449 0.91925007 2.4889289e-39
-0.33949947 0.14259449 0.91175008 1.3854708e-39
-0.33949947 0.14259449 0.91425008 2.2123448e-39
-0.33949947 0.14509448 0.91175008 1.5702124e-39
-0.33949947 0.14509448 0.91425008 2.1201492e-39
-0.33699948 0.14259449 0.91175008 1.8435623e-39
-0.33699948 0.14259449 0.91425008 2.5789595e-39
-0.33699948 0.14509448 0.91175008 1.5669768e-39
-0.33699948 0.14509448 0.91425008 2.3020139e-39
-0.33949947 0.14259449 0.91675007 1.0173987e-39
-0.33949947 0.14259449 0.91925007 1.1095944e-39
-0.33949947 0.14509448 0.91675007 1.8435623e-39
-0.33949947 0.14509448 0.91925007 1.5669768e-39
-0.33699948 0.14259449 0.91675007 2.7633522e-39
-0.33699948 0.14259449 0.91925007 3.3165245e-39
-0.33699948 0.14509448 0.91675007 2.5789595e-39
-0.33699948 0.14509448 0.91925007 2.7633522e-39
-0.33949947 0.14759448 0.91425008 1.7549638e-39
-0.33699948 0.14759448 0.91175008 1.8762826e-40
-0.33699948 0.14759448 0.91425008 2.1179828e-39
-0.33949947 0.14759448 0.91675007 1.7513638e-39
-0.33949947 0.14759448 0.91925007 1.8439126e-39
-0.33699948 0.14759448 0.91675007 2.0283039e-39
-0.33699948 0.14759448 0.91925007 2.2126951e-39
-0.33449948 0.14259449 0.91175008 1.8428532e-39
-0.33449948 0.14259449 0.91425008 3.2239786e-39
-0.33449948 0.14509448 0.91175008 1.5669768e-39
-0.33449948 0.14509448 0.91425008 2.6736733e-39
-0.33199948 0.14259449 0.91425008 2.8562723e-39
-0.33199948 0.14509448 0.91175008 3.0392286e-39
-0.33199948 0.14509448 0.91425008 2.947033e-39
-0.33449948 0.14259449 0.91675007 1.8475097e-39
-0.33449948 0.14259449 0.91925007 2.6733201e-39
-0.33449948 0.14509448 0.91675007 2.7633522e-39
-0.33449948 0.14509448 0.91925007 2.7633522e-39
-0.33199948 0.14259449 0.91675007 2.3963773e-39
-0.33199948 0.14259449 0.91925007 2.6711551e-39
-0.33199948 0.14509448 0.91675007 2.8562667e-39
-0.33199948 0.14509448 0.91925007 2.6718754e-39
-0.33449948 0.14759448 0.91175008 2.3970864e-39
-0.33449948 0.14759448 0.91425008 2.3974339e-39
-0.33199948 0.14759448 0.91175008 2.7633522e-39
-0.33199948 0.14759448 0.91425008 2.8569729e-39
-0.33449948 0.14759448 0.91675007 2.2126951e-39
-0.33449948 0.14759448 0.91925007 2.5814776e-39
-0.33199948 0.14759448 0.91675007 2.9473833e-39
-0.33949947 0.14259449 0.92175007 2.1201492e-39
-0.33949947 0.14259449 0.92425007 2.489282e-39
-0.33699948 0.14259449 0.92175007 2.4889289e-39
-0.33699948 0.14259449 0.92425007 2.9484623e-39
-0.33699948 0.14509448 0.92175007 2.7633522e-39
-0.33699948 0.14509448 0.92425007 2.7633522e-39
-0.33949947 0.14259449 0.92675006 3.0402852e-39
-0.33949947 0.14509448 0.92675006 2.5814776e-39
-0.33699948 0.14259449 0.92675006 2.6733201e-39
-0.33699948 0.14509448 0.92675006 2.7633522e-39
-0.33699948 0.14759448 0.92175007 2.947033e-39
-0.33699948 0.14759448 0.92425007 3.2246764e-39
-0.33449948 0.14259449 0.92175007 2.6718754e-39
-0.33449948 0.14259449 0.92425007 2.489282e-39
-0.33449948 0.14509448 0.92175007 2.7647773e-39
-0.33449948 0.14509448 0.92425007 2.4871114e-39
-0.33199948 0.14259449 0.92175007 3.1321333e-39
-0.33199948 0.14259449 0.92425007 2.9480895e-39
-0.33199948 0.14509448 0.92175007 2.7655158e-39
-0.33199948 0.14509448 0.92425007 2.8580645e-39
-0.33449948 0.14509448 0.92675006 2.3963773e-39
-0.33199948 0.14509448 0.92675006 2.7633522e-39
-0.33449948 0.14759448 0.92175007 2.947033e-39
-0.33199948 0.14759448 0.92675006 2.9484623e-39
-0.32699949 0.13009448 0.91175008 3.4105349e-39
-0.32949948 0.12759449 0.91925007 3.4094404e-39
-0.32949948 0.13009448 0.91675007 3.3161742e-39
-0.32949948 0.13009448 0.91925007 3.3172448e-39
-0.32699949 0.12759449 0.91675007 3.4094404e-39
-0.32699949 0.12759449 0.91925007 3.4094404e-39
-0.32699949 0.13009448 0.91675007 3.1346514e-39
-0.32699949 0.13009448 0.91925007 3.4094404e-39
-0.32449949 0.13009448 0.91175008 3.133948e-39
-0.32449949 0.13009448 0.91425008 3.1342983e-39
-0.32199946 0.13009448 0.91175008 3.4097964e-39
-0.32199946 0.13009448 0.91425008 3.0421027e-39
-0.32449949 0.12759449 0.91675007 3.4097964e-39
-0.32449949 0.12759449 0.91925007 3.4097908e-39
-0.32449949 0.13009448 0.91675007 3.1342983e-39
-0.32449949 0.13009448 0.91925007 2.8580701e-39
-0.32199946 0.12759449 0.91675007 3.4097964e-39
-0.32199946 0.12759449 0.91925007 3.2246947e-39
