# .PCD v0.7 - Point Cloud Data file format
VERSION 0.7
FIELDS x y z rgb
SIZE 4 4 4 4
TYPE F F F F
COUNT 1 1 1 1
WIDTH 1171
HEIGHT 1
VIEWPOINT 0 0 0 1 0 0 0
POINTS 1171
DATA ascii
0.22473118 0.1658064 0.83125007 0
0.22723117 0.1658064 0.83125007 0
0.23223118 0.1658064 0.83625007 1.9618179e-44
0.22973119 0.1658064 0.83875006 5.6051939e-45
0.23223118 0.1658064 0.83875006 1.8369341e-40
0.22473118 0.1683064 0.82625008 8.4077908e-45
0.22473118 0.17080639 0.82625008 8.4077908e-45
0.22473118 0.1683064 0.82875007 7.0064923e-45
0.22473118 0.1683064 0.83125007 0
0.22473118 0.17080639 0.82875007 1.9618179e-44
0.22473118 0.17080639 0.83125007 0
0.22723117 0.1683064 0.82875007 9.1845305e-41
0.22723117 0.1683064 0.83125007 0
0.22723117 0.17080639 0.82875007 1.821688e-44
0.22723117 0.17080639 0.83125007 0
0.22473118 0.17580639 0.82625008 0
0.22473118 0.17330639 0.82875007 4.2038954e-45
0.22473118 0.17330639 0.83125007 0
0.22473118 0.17580639 0.82875007 1.8439126e-40
0.22473118 0.17580639 0.83125007 1.8439126e-40
0.22723117 0.17330639 0.82875007 4.2038954e-45
0.22723117 0.17330639 0.83125007 1.8367099e-40
0.22723117 0.17580639 0.82875007 7.3504691e-40
0.22723117 0.17580639 0.83125007 7.3504691e-40
0.22973119 0.1683064 0.83125007 3.6734899e-40
0.22973119 0.17080639 0.83125007 0
0.23223118 0.17080639 0.83125007 0
0.22973119 0.17330639 0.82875007 3.6734198e-40
0.22973119 0.17330639 0.83125007 1.8439126e-40
0.22973119 0.17580639 0.82875007 4.6097815e-40
0.22973119 0.17580639 0.83125007 1.8439126e-40
0.23223118 0.17330639 0.82875007 1.8439126e-40
0.23223118 0.17330639 0.83125007 1.8439126e-40
0.23223118 0.17580639 0.83125007 2.7658689e-40
0.22473118 0.1683064 0.83375007 7.0064923e-45
0.22473118 0.1683064 0.83625007 0
0.22473118 0.17080639 0.83375007 0
0.22723117 0.1683064 0.83375007 1.9618179e-44
0.22723117 0.1683064 0.83625007 7.0064923e-45
0.22473118 0.17080639 0.83875006 0
0.22973119 0.1683064 0.83375007 0
0.22973119 0.1683064 0.83625007 8.4077908e-45
0.22973119 0.17080639 0.83375007 0
0.23223118 0.1683064 0.83375007 0
0.23223118 0.1683064 0.83625007 7.258726e-43
0.23223118 0.17080639 0.83375007 0
0.23223118 0.17080639 0.83625007 8.4077908e-45
0.22973119 0.1683064 0.83875006 0
0.22973119 0.1683064 0.84125006 1.8439126e-40
0.23223118 0.1683064 0.83875006 0
0.23223118 0.1683064 0.84125006 8.4077908e-45
0.21473119 0.16080639 0.84625006 0
0.21473119 0.15830639 0.84875005 0
0.21473119 0.15830639 0.85125005 0
0.21473119 0.16080639 0.84875005 0
0.21473119 0.16080639 0.85125005 0
0.21723118 0.15830639 0.85125005 0
0.21723118 0.16080639 0.84875005 0
0.21723118 0.16080639 0.85125005 4.5918589e-40
0.21473119 0.1633064 0.84625006 0
0.21473119 0.1658064 0.84625006 0
0.21723118 0.1633064 0.84625006 0
0.21723118 0.1658064 0.84625006 0
0.21473119 0.1633064 0.84875005 0
0.21473119 0.1658064 0.84875005 0
0.21723118 0.1633064 0.84875005 0
0.21723118 0.1633064 0.85125005 0
0.21723118 0.1658064 0.84875005 0
0.21973118 0.16080639 0.85125005 1.8439126e-40
0.22223118 0.16080639 0.85125005 8.2724394e-40
0.21973118 0.1633064 0.84875005 0
0.21973118 0.1633064 0.85125005 0
0.21973118 0.1658064 0.84875005 0
0.21973118 0.1658064 0.85125005 0
0.22223118 0.1633064 0.84875005 0
0.22223118 0.1633064 0.85125005 0
0.22223118 0.1658064 0.84875005 0
0.22223118 0.1658064 0.85125005 0
0.21473119 0.15830639 0.85375005 0
0.21473119 0.16080639 0.85375005 9.1857917e-41
0.21723118 0.15830639 0.85375005 0
0.21723118 0.15830639 0.85625005 0
0.21723118 0.16080639 0.85375005 2.7658689e-40
0.21723118 0.16080639 0.85625005 2.7658689e-40
0.21723118 0.1633064 0.85375005 0
0.21723118 0.1633064 0.85625005 0
0.21973118 0.15830639 0.85375005 0
0.21973118 0.15830639 0.85625005 0
0.21973118 0.16080639 0.85375005 2.8768657e-42
0.21973118 0.16080639 0.85625005 1.1038294e-39
0.22223118 0.15830639 0.85375005 0
0.22223118 0.15830639 0.85625005 0
0.22223118 0.16080639 0.85375005 2.7801762e-40
0.22223118 0.16080639 0.85625005 1.011631e-39
0.21973118 0.15830639 0.85875005 0
0.22223118 0.15830639 0.85875005 0
0.21973118 0.1633064 0.85375005 9.1835496e-41
0.21973118 0.1633064 0.85625005 6.4284847e-40
0.22223118 0.1633064 0.85375005 0
0.22223118 0.1633064 0.85625005 1.011631e-39
0.21473119 0.1683064 0.84375006 0
0.21473119 0.1683064 0.84625006 0
0.21473119 0.17080639 0.84375006 5.6051939e-45
0.21723118 0.1683064 0.84375006 0
0.21723118 0.1683064 0.84625006 0
0.21723118 0.17080639 0.84375006 0
0.21473119 0.1683064 0.84875005 0
0.21723118 0.1683064 0.84875005 0
0.21973118 0.1683064 0.84625006 0
0.21973118 0.17080639 0.84375006 0
0.21973118 0.17080639 0.84625006 1.8439126e-40
0.22223118 0.17080639 0.84375006 8.4077908e-45
0.22223118 0.17080639 0.84625006 0
0.21973118 0.1683064 0.84875005 0
0.21973118 0.1683064 0.85125005 0
0.22223118 0.1683064 0.84875005 0
0.22223118 0.1683064 0.85125005 0
0.22223118 0.17080639 0.84875005 0
0.22473118 0.1633064 0.85125005 0
0.22473118 0.1658064 0.85125005 0
0.22723117 0.1658064 0.85125005 0
0.23223118 0.1658064 0.84375006 0
0.22473118 0.15830639 0.85375005 0
0.22473118 0.15830639 0.85625005 8.4077908e-45
0.22473118 0.16080639 0.85375005 7.1746481e-43
0.22473118 0.16080639 0.85625005 9.18397e-41
0.22723117 0.15830639 0.85375005 0
0.22723117 0.15830639 0.85625005 2.7623797e-40
0.22723117 0.16080639 0.85375005 0
0.22723117 0.16080639 0.85625005 9.18397e-41
0.22473118 0.15830639 0.85875005 1.821688e-44
0.22723117 0.15830639 0.85875005 0
0.22473118 0.1633064 0.85375005 0
0.22473118 0.1633064 0.85625005 0
0.22473118 0.1658064 0.85375005 0
0.22723117 0.1633064 0.85375005 0
0.22723117 0.1633064 0.85625005 0
0.22723117 0.1658064 0.85375005 0
0.22973119 0.15830639 0.85375005 0
0.22973119 0.15830639 0.85625005 4.6097815e-40
0.22973119 0.16080639 0.85375005 0
0.22973119 0.16080639 0.85625005 0
0.23223118 0.15830639 0.85375005 0
0.23223118 0.15830639 0.85625005 4.6097815e-40
0.23223118 0.16080639 0.85375005 0
0.23223118 0.16080639 0.85625005 0
0.22973119 0.15830639 0.85875005 0
0.23223118 0.15830639 0.85875005 0
0.23223118 0.16080639 0.85875005 3.6734198e-40
0.22973119 0.1633064 0.85375005 0
0.22973119 0.1633064 0.85625005 0
0.22973119 0.1658064 0.85375005 0
0.23223118 0.1633064 0.85375005 0
0.23223118 0.1633064 0.85625005 0
0.23223118 0.1658064 0.85375005 0
0.23223118 0.1658064 0.85625005 0
0.22473118 0.17080639 0.84375006 1.821688e-44
0.22473118 0.17080639 0.84625006 0
0.22723117 0.17080639 0.84625006 0
0.22473118 0.1683064 0.84875005 0
0.22473118 0.1683064 0.85125005 0
0.22473118 0.17080639 0.84875005 0
0.22473118 0.17080639 0.85125005 0
0.22723117 0.1683064 0.84875005 0
0.22723117 0.1683064 0.85125005 0
0.22723117 0.17080639 0.84875005 3.6734899e-40
0.22723117 0.17080639 0.85125005 0
0.22973119 0.17080639 0.84375006 1.8404094e-40
0.22973119 0.17080639 0.84625006 8.4077908e-45
0.23223118 0.1683064 0.84375006 0
0.23223118 0.1683064 0.84625006 5.6051939e-45
0.23223118 0.17080639 0.84375006 0
0.22973119 0.1683064 0.85125005 4.5917748e-40
0.22973119 0.17080639 0.84875005 7.3469798e-40
0.22973119 0.17080639 0.85125005 0
0.23223118 0.1683064 0.84875005 1.4012985e-45
0.23223118 0.1683064 0.85125005 0
0.23223118 0.17080639 0.84875005 7.0064923e-45
0.23223118 0.17080639 0.85125005 4.5917748e-40
0.22973119 0.17330639 0.85125005 1.8439126e-40
0.22473118 0.1683064 0.85375005 0
0.22473118 0.17080639 0.85375005 0
0.22723117 0.1683064 0.85375005 0
0.22723117 0.17080639 0.85375005 0
0.22973119 0.1683064 0.85375005 0
0.22973119 0.17080639 0.85375005 0
0.23223118 0.1683064 0.85375005 0
0.23223118 0.1683064 0.85625005 0
0.23223118 0.17080639 0.85375005 0
0.23473118 0.15580639 0.85625005 9.1835496e-41
0.23723118 0.15580639 0.85625005 1.011631e-39
0.23473118 0.15330639 0.85875005 8.2652507e-40
0.23473118 0.15580639 0.85875005 0
0.23473118 0.15580639 0.8612501 0
0.23723118 0.15330639 0.85875005 0
0.23723118 0.15330639 0.8612501 3.4037021e-39
0.23723118 0.15580639 0.85875005 4.6097815e-40
0.23723118 0.15580639 0.8612501 0
0.23973118 0.15580639 0.85625005 8.2724394e-40
0.24223118 0.15580639 0.85625005 7.3504691e-40
0.23973118 0.15330639 0.85875005 0
0.23973118 0.15330639 0.8612501 5.5101298e-40
0.23973118 0.15580639 0.85875005 8.2976067e-40
0.23973118 0.15580639 0.8612501 0
0.24223118 0.15330639 0.85875005 0
0.24223118 0.15330639 0.8612501 0
0.24223118 0.15580639 0.85875005 8.2759987e-40
0.24223118 0.15580639 0.8612501 0
0.24473119 0.15330639 0.85875005 0
0.24473119 0.15580639 0.85875005 0
0.24473119 0.15580639 0.8612501 0
0.24723119 0.15330639 0.85875005 0
0.24723119 0.15580639 0.85875005 2.2958874e-39
0.24723119 0.15580639 0.8612501 0
0.24973118 0.15580639 0.8612501 2.4795584e-39
0.23473118 0.1658064 0.83625007 1.9618179e-44
0.23723118 0.1658064 0.83625007 1.8439126e-40
0.23473118 0.1658064 0.83875006 1.8439126e-40
0.23723118 0.1658064 0.83875006 9.1845305e-41
0.23723118 0.1658064 0.84125006 0
0.23973118 0.1658064 0.83625007 1.8439126e-40
0.24223118 0.1658064 0.83625007 2.7658689e-40
0.23973118 0.1633064 0.83875006 5.6051939e-45
0.23973118 0.1633064 0.84125006 7.0064923e-45
0.23973118 0.1658064 0.83875006 1.8404094e-40
0.23973118 0.1658064 0.84125006 9.1845305e-41
0.24223118 0.1633064 0.83875006 0
0.24223118 0.1633064 0.84125006 9.1835496e-41
0.24223118 0.1658064 0.83875006 2.7658689e-40
0.24223118 0.1658064 0.84125006 2.7658689e-40
0.23473118 0.17080639 0.83125007 0
0.23473118 0.17330639 0.82875007 1.8439126e-40
0.23473118 0.17330639 0.83125007 1.8439126e-40
0.23473118 0.17580639 0.83125007 7.3576017e-40
0.23723118 0.17330639 0.83125007 0
0.23723118 0.17580639 0.83125007 1.8439126e-40
0.23973118 0.17330639 0.83125007 4.5917748e-40
0.23973118 0.17580639 0.83125007 8.279544e-40
0.24223118 0.17580639 0.83125007 1.8582339e-40
0.23473118 0.1683064 0.83375007 1.8439126e-40
0.23473118 0.1683064 0.83625007 8.4077908e-45
0.23473118 0.17080639 0.83375007 0
0.23473118 0.17080639 0.83625007 4.5917748e-40
0.23723118 0.1683064 0.83375007 4.5917748e-40
0.23723118 0.1683064 0.83625007 0
0.23723118 0.17080639 0.83375007 0
0.23723118 0.17080639 0.83625007 3.6734198e-40
0.23473118 0.1683064 0.83875006 1.8404094e-40
0.23473118 0.1683064 0.84125006 1.8439126e-40
0.23723118 0.1683064 0.83875006 8.4077908e-45
0.23473118 0.17330639 0.83375007 0
0.23473118 0.17580639 0.83375007 2.7623797e-40
0.23723118 0.17330639 0.83375007 6.4284847e-40
0.23723118 0.17330639 0.83625007 1.8367099e-40
0.23723118 0.17580639 0.83375007 7.3504691e-40
0.23973118 0.1683064 0.83375007 0
0.23973118 0.1683064 0.83625007 0
0.23973118 0.17080639 0.83375007 3.6734198e-40
0.23973118 0.17080639 0.83625007 3.6734198e-40
0.24223118 0.1683064 0.83375007 0
0.24223118 0.1683064 0.83625007 0
0.24223118 0.17080639 0.83375007 4.5917748e-40
0.24223118 0.17080639 0.83625007 0
0.23973118 0.1683064 0.83875006 9.1845305e-41
0.24223118 0.1683064 0.83875006 7.3504691e-40
0.23973118 0.17330639 0.83375007 6.4284847e-40
0.23973118 0.17330639 0.83625007 1.8367099e-40
0.23973118 0.17580639 0.83375007 8.279544e-40
0.24223118 0.17330639 0.83375007 7.3504691e-40
0.24223118 0.17580639 0.83375007 2.7730015e-40
0.24473119 0.1658064 0.83625007 4.6026909e-40
0.24723119 0.1658064 0.83625007 7.3504691e-40
0.24473119 0.1633064 0.83875006 0
0.24473119 0.1633064 0.84125006 0
0.24473119 0.1658064 0.83875006 2.7730015e-40
0.24473119 0.1658064 0.84125006 0
0.24723119 0.1633064 0.84125006 0
0.24723119 0.1658064 0.83875006 7.3504691e-40
0.24723119 0.1658064 0.84125006 0
0.24973118 0.1633064 0.84125006 0
0.24973118 0.1658064 0.83875006 7.3504691e-40
0.24973118 0.1658064 0.84125006 2.7658689e-40
0.25223118 0.1633064 0.84125006 1.8369341e-40
0.25223118 0.1658064 0.83875006 7.3504691e-40
0.25223118 0.1658064 0.84125006 1.1960223e-39
0.24473119 0.17580639 0.83125007 0
0.24473119 0.1683064 0.83375007 0
0.24473119 0.1683064 0.83625007 1.8367099e-40
0.24473119 0.17080639 0.83375007 6.4285128e-40
0.24473119 0.17080639 0.83625007 0
0.24723119 0.1683064 0.83375007 0
0.24723119 0.1683064 0.83625007 0
0.24723119 0.17080639 0.83375007 2.7658689e-40
0.24723119 0.17080639 0.83625007 0
0.24473119 0.1683064 0.83875006 6.4284847e-40
0.24723119 0.1683064 0.83875006 4.5917748e-40
0.24723119 0.1683064 0.84125006 2.7658689e-40
0.24473119 0.17330639 0.83375007 7.3504691e-40
0.24473119 0.17330639 0.83625007 2.7658689e-40
0.24473119 0.17580639 0.83375007 7.1746481e-43
0.24723119 0.17330639 0.83375007 8.279544e-40
0.24723119 0.17330639 0.83625007 1.8439126e-40
0.24723119 0.17580639 0.83375007 4.5917748e-40
0.24723119 0.17580639 0.83625007 4.5917748e-40
0.24973118 0.1683064 0.83625007 3.6734198e-40
0.24973118 0.17080639 0.83375007 7.3504691e-40
0.24973118 0.17080639 0.83625007 6.4320721e-40
0.25223118 0.1683064 0.83625007 6.4284847e-40
0.25223118 0.17080639 0.83625007 8.2724394e-40
0.24973118 0.1683064 0.83875006 6.4320721e-40
0.24973118 0.1683064 0.84125006 7.3504691e-40
0.24973118 0.17080639 0.83875006 0
0.25223118 0.1683064 0.83875006 6.4320721e-40
0.25223118 0.1683064 0.84125006 6.4285968e-40
0.25223118 0.17080639 0.83875006 7.350441e-40
0.24973118 0.17330639 0.83375007 0
0.24973118 0.17330639 0.83625007 8.279544e-40
0.24973118 0.17580639 0.83375007 0
0.24973118 0.17580639 0.83625007 0
0.25223118 0.17330639 0.83625007 0
0.25223118 0.17580639 0.83375007 0
0.25223118 0.17580639 0.83625007 0
0.25223118 0.17330639 0.83875006 6.4285128e-40
0.25223118 0.17580639 0.83875006 0
0.24223118 0.1658064 0.84375006 8.2651947e-40
0.23473118 0.15830639 0.85625005 1.8582339e-40
0.23473118 0.16080639 0.85625005 0
0.23723118 0.15830639 0.85625005 4.5917748e-40
0.23723118 0.16080639 0.85625005 0
0.23473118 0.15830639 0.85875005 2.7658689e-40
0.23473118 0.16080639 0.85875005 0
0.23723118 0.15830639 0.85875005 4.5917748e-40
0.23723118 0.16080639 0.85875005 0
0.23473118 0.1633064 0.85625005 0
0.23473118 0.1658064 0.85375005 0
0.23473118 0.1658064 0.85625005 0
0.23723118 0.1633064 0.85625005 0
0.23723118 0.1658064 0.85375005 0
0.23723118 0.1658064 0.85625005 0
0.23473118 0.1633064 0.85875005 0
0.23473118 0.1658064 0.85875005 0
0.23723118 0.1633064 0.85875005 0
0.23723118 0.1658064 0.85875005 0
0.23973118 0.15830639 0.85625005 0
0.23973118 0.16080639 0.85625005 0
0.24223118 0.15830639 0.85625005 0
0.23973118 0.15830639 0.85875005 3.6734198e-40
0.23973118 0.16080639 0.85875005 0
0.24223118 0.15830639 0.85875005 3.6734198e-40
0.24223118 0.16080639 0.85875005 0
0.23973118 0.1633064 0.85625005 0
0.23973118 0.1658064 0.85625005 0
0.23973118 0.1633064 0.85875005 0
0.23973118 0.1658064 0.85875005 0
0.24223118 0.1633064 0.85875005 0
0.24223118 0.1658064 0.85875005 0
0.23473118 0.1683064 0.84875005 0
0.23473118 0.1683064 0.85125005 0
0.23473118 0.17080639 0.85125005 0
0.23723118 0.1683064 0.84875005 1.8439126e-40
0.23723118 0.1683064 0.85125005 0
0.23723118 0.17080639 0.85125005 1.8404094e-40
0.23473118 0.1683064 0.85375005 0
0.23473118 0.1683064 0.85625005 0
0.23473118 0.17080639 0.85375005 0
0.23723118 0.1683064 0.85375005 0
0.23723118 0.1683064 0.85625005 0
0.23723118 0.17080639 0.85375005 5.6051939e-45
0.23723118 0.1683064 0.85875005 1.4012985e-45
0.23973118 0.1683064 0.85375005 0
0.23973118 0.1683064 0.85625005 0
0.23973118 0.17080639 0.85375005 1.8439126e-40
0.23973118 0.17080639 0.85625005 0
0.23973118 0.1683064 0.85875005 0
0.23973118 0.17080639 0.85875005 8.4077908e-45
0.24223118 0.1683064 0.85875005 4.2038954e-45
0.24223118 0.17080639 0.85875005 6.4284847e-40
0.24723119 0.16080639 0.84375006 1.2251566e-38
0.24473119 0.1633064 0.84375006 7.1840537e-39
0.24473119 0.1658064 0.84375006 7.3468397e-40
0.24723119 0.1633064 0.84375006 2.1169024e-39
0.24723119 0.1633064 0.84625006 1.2895497e-38
0.24723119 0.1658064 0.84375006 0
0.24973118 0.16080639 0.84375006 3.1224391e-39
0.25223118 0.16080639 0.84375006 0
0.24973118 0.1633064 0.84375006 4.5917748e-40
0.24973118 0.1633064 0.84625006 1.2617108e-38
0.24973118 0.1658064 0.84375006 0
0.25223118 0.1633064 0.84375006 0
0.25223118 0.1658064 0.84375006 9.1845305e-41
0.24473119 0.15830639 0.85875005 3.6734198e-40
0.24473119 0.15830639 0.8612501 1.4693749e-39
0.24473119 0.16080639 0.85875005 9.1835496e-41
0.24723119 0.15830639 0.85875005 0
0.24723119 0.15830639 0.8612501 4.5917748e-40
0.24723119 0.16080639 0.85875005 0
0.24473119 0.1633064 0.85875005 0
0.24473119 0.1633064 0.8612501 0
0.24473119 0.1658064 0.85875005 0
0.24473119 0.1658064 0.8612501 0
0.24723119 0.1633064 0.85875005 1.4693679e-39
0.24723119 0.1633064 0.8612501 0
0.24723119 0.1658064 0.85875005 1.5612034e-39
0.24723119 0.1658064 0.8612501 0
0.24973118 0.15830639 0.85875005 0
0.24973118 0.15830639 0.8612501 0
0.24973118 0.16080639 0.85875005 0
0.25223118 0.16080639 0.85875005 1.5637146e-39
0.25223118 0.16080639 0.8612501 2.7837635e-40
0.24973118 0.1633064 0.85875005 1.2526358e-38
0.24973118 0.1633064 0.8612501 1.2984095e-38
0.24973118 0.1658064 0.85875005 1.0960477e-38
0.24973118 0.1658064 0.8612501 1.1145225e-38
0.25223118 0.1633064 0.85875005 1.7689692e-38
0.25223118 0.1633064 0.8612501 1.7872283e-38
0.25223118 0.1658064 0.85875005 1.2895882e-38
0.24473119 0.1683064 0.85875005 7.0064923e-45
0.24473119 0.1683064 0.8612501 0
0.24723119 0.1683064 0.85875005 0
0.24723119 0.1683064 0.8612501 7.0064923e-45
0.25723118 0.1658064 0.83625007 0
0.25473118 0.1633064 0.83875006 0
0.25473118 0.1633064 0.84125006 9.1835496e-40
0.25473118 0.1658064 0.83875006 6.4284847e-40
0.25473118 0.1658064 0.84125006 0
0.25723118 0.1633064 0.83875006 6.9038052e-39
0.25723118 0.1633064 0.84125006 6.2566519e-39
0.25723118 0.1658064 0.83875006 0
0.25723118 0.1658064 0.84125006 0
0.25973117 0.1658064 0.83625007 2.2040533e-39
0.25973117 0.1658064 0.83875006 8.2651947e-40
0.25473118 0.1683064 0.83625007 4.5917748e-40
0.25473118 0.17080639 0.83625007 4.5917748e-40
0.25723118 0.1683064 0.83625007 0
0.25723118 0.17080639 0.83625007 0
0.25473118 0.1683064 0.83875006 4.5917748e-40
0.25473118 0.1683064 0.84125006 1.8367099e-40
0.25473118 0.17080639 0.83875006 4.5917748e-40
0.25723118 0.1683064 0.83875006 0
0.25723118 0.17080639 0.83875006 0
0.25473118 0.17330639 0.83625007 0
0.25473118 0.17580639 0.83625007 3.7756824e-39
0.25723118 0.17330639 0.83625007 7.3971743e-40
0.25723118 0.17580639 0.83625007 8.7531716e-39
0.25473118 0.17330639 0.83875006 0
0.25473118 0.17580639 0.83875006 0
0.25473118 0.17580639 0.84125006 0
0.25723118 0.17330639 0.83875006 7.404363e-40
0.25723118 0.17580639 0.83875006 5.8101197e-39
0.25723118 0.17580639 0.84125006 0
0.25973117 0.1683064 0.83625007 1.7510079e-39
0.25973117 0.17080639 0.83625007 5.2490356e-39
0.25973117 0.1683064 0.83875006 0
0.25973117 0.17080639 0.83875006 4.9717467e-39
0.26223117 0.1683064 0.83875006 1.3003884e-38
0.26223117 0.17080639 0.83875006 1.6035222e-38
0.26223117 0.17080639 0.84125006 1.520761e-38
0.25973117 0.17330639 0.83625007 8.6602753e-39
0.25973117 0.17580639 0.83625007 8.3869759e-39
0.25973117 0.17330639 0.83875006 7.9256012e-39
0.25973117 0.17580639 0.83875006 8.845796e-39
0.25973117 0.17580639 0.84125006 7.9260132e-39
0.26223117 0.17330639 0.83875006 1.5485641e-38
0.26223117 0.17330639 0.84125006 1.4842793e-38
0.26223117 0.17580639 0.83875006 1.4656625e-38
0.26223117 0.17580639 0.84125006 1.4840327e-38
0.25473118 0.1633064 0.84375006 0
0.25473118 0.1658064 0.84375006 2.7550649e-40
0.25723118 0.1633064 0.84375006 7.1854942e-39
0.25723118 0.1658064 0.84375006 0
0.25973117 0.17580639 0.84375006 8.8479512e-39
0.26223117 0.17580639 0.84375006 1.4932866e-38
0.17223118 0.1783064 0.81625009 1.0970221e-38
0.17223118 0.1808064 0.81625009 1.381747e-38
0.17223118 0.1783064 0.81875008 1.1522328e-38
0.17223118 0.1783064 0.82125008 1.1614889e-38
0.17223118 0.1808064 0.81875008 1.4644359e-38
0.17223118 0.1808064 0.82125008 1.335833e-38
0.17223118 0.1833064 0.81625009 9.2126714e-39
0.16973118 0.1833064 0.81875008 1.0691449e-38
0.16973118 0.1833064 0.82125008 9.0272628e-39
0.16973118 0.18580639 0.81875008 1.1517614e-38
0.16973118 0.18580639 0.82125008 1.1887476e-38
0.17223118 0.1833064 0.81875008 5.9944732e-39
0.17223118 0.1833064 0.82125008 1.25271e-38
0.17223118 0.18580639 0.81875008 1.0784698e-38
0.17223118 0.18580639 0.82125008 1.0600304e-38
0.17223118 0.18830639 0.81375009 7.928394e-39
0.17223118 0.18830639 0.81625009 1.1425697e-38
0.17223118 0.19080639 0.81625009 7.3773558e-39
0.16973118 0.18830639 0.82125008 9.309595e-39
0.17223118 0.18830639 0.81875008 1.1426062e-38
0.17223118 0.18830639 0.82125008 1.2071474e-38
0.17223118 0.19080639 0.81875008 1.0039851e-38
0.17223118 0.19080639 0.82125008 9.9469322e-39
0.17223118 0.19330639 0.82125008 6.4385292e-39
0.15973118 0.1783064 0.83625007 1.6957512e-38
0.16223118 0.1783064 0.83375007 1.3087445e-38
0.16223118 0.1783064 0.83625007 1.3641688e-38
0.16223118 0.1808064 0.83375007 1.7512133e-38
0.16223118 0.1808064 0.83625007 1.5391628e-38
0.16223118 0.1783064 0.83875006 1.4746256e-38
0.17223118 0.1783064 0.82375008 1.2442779e-38
0.17223118 0.1783064 0.82625008 1.2168706e-38
0.17223118 0.1808064 0.82375008 1.1330667e-38
0.17223118 0.1808064 0.82625008 1.2992381e-38
0.17223118 0.1783064 0.82875007 1.2258021e-38
0.17223118 0.1808064 0.82875007 1.35434e-38
0.17223118 0.1833064 0.82875007 1.1699081e-38
0.16473117 0.1783064 0.83375007 7.8449298e-39
0.16473117 0.1783064 0.83625007 9.403929e-39
0.16473117 0.1808064 0.83375007 1.5577469e-38
0.16473117 0.1808064 0.83625007 1.5302682e-38
0.16723119 0.1783064 0.83375007 5.6051939e-45
0.16723119 0.1783064 0.83625007 0
0.16723119 0.1808064 0.83625007 5.465064e-44
0.16473117 0.1833064 0.83625007 1.6494401e-38
0.16723119 0.1833064 0.83625007 7.6475906e-39
0.16723119 0.18580639 0.83625007 7.4623936e-39
0.16473117 0.1833064 0.83875006 1.6861742e-38
0.16473117 0.18580639 0.83875006 7.6490003e-39
0.16473117 0.18580639 0.84125006 6.3629404e-39
0.16723119 0.1833064 0.83875006 1.1053418e-38
0.16723119 0.18580639 0.83875006 7.6468044e-39
0.16723119 0.18580639 0.84125006 6.5476918e-39
0.16973118 0.1783064 0.83375007 0
0.16973118 0.1783064 0.83625007 0
0.16973118 0.1808064 0.83375007 0
0.16973118 0.1808064 0.83625007 0
0.17223118 0.1783064 0.83375007 0
0.17223118 0.1783064 0.83625007 0
0.17223118 0.1808064 0.83375007 6.8235528e-39
0.17223118 0.1808064 0.83625007 7.0079441e-39
0.16973118 0.1833064 0.83375007 3.7806808e-39
0.16973118 0.1833064 0.83625007 3.8728751e-39
0.16973118 0.18580639 0.83375007 8.2933131e-39
0.16973118 0.18580639 0.83625007 6.8174319e-39
0.17223118 0.1833064 0.83375007 5.3479925e-39
0.17223118 0.1833064 0.83625007 4.7026231e-39
0.17223118 0.18580639 0.83375007 8.1989497e-39
0.17223118 0.18580639 0.83625007 4.2359543e-39
0.16973118 0.18580639 0.83875006 8.5691195e-39
0.17223118 0.18830639 0.82375008 9.5851029e-39
0.17223118 0.19080639 0.82375008 2.9480867e-39
0.16973118 0.19080639 0.82875007 8.5670203e-39
0.17223118 0.19330639 0.82375008 0
0.17223118 0.19330639 0.82625008 0
0.17223118 0.1958064 0.82625008 0
0.16973118 0.19330639 0.82875007 8.4797923e-39
0.17223118 0.19330639 0.82875007 6.2699713e-39
0.17223118 0.19330639 0.83125007 6.5462008e-39
0.17223118 0.1958064 0.82875007 4.8856299e-39
0.16473117 0.18830639 0.84125006 6.2703944e-39
0.16723119 0.18830639 0.83875006 4.0468603e-39
0.16723119 0.18830639 0.84125006 2.4889261e-39
0.16723119 0.1958064 0.84125006 5.8024967e-39
0.16973118 0.18830639 0.83375007 8.38295e-39
0.16973118 0.18830639 0.83625007 8.1956874e-39
0.16973118 0.19080639 0.83625007 1.2871319e-39
0.17223118 0.18830639 0.83375007 1.0872232e-38
0.17223118 0.18830639 0.83625007 1.1422534e-38
0.17223118 0.19080639 0.83625007 9.4003193e-39
0.16973118 0.18830639 0.83875006 3.8653417e-39
0.16973118 0.18830639 0.84125006 2.2983985e-39
0.16973118 0.19080639 0.84125006 0
0.17223118 0.19080639 0.83875006 9.9517008e-39
0.17223118 0.19080639 0.84125006 1.1055177e-38
0.16973118 0.19330639 0.83625007 2.7633522e-39
0.16973118 0.1958064 0.83375007 9.0287103e-39
0.16973118 0.1958064 0.83625007 7.1883444e-39
0.17223118 0.19330639 0.83375007 6.361832e-39
0.17223118 0.19330639 0.83625007 8.2929179e-39
0.17223118 0.1958064 0.83375007 9.1191053e-39
0.17223118 0.1958064 0.83625007 8.3872393e-39
0.16973118 0.19330639 0.84125006 0
0.16973118 0.1958064 0.83875006 6.7284859e-39
0.16973118 0.1958064 0.84125006 3.1321333e-39
0.17223118 0.19330639 0.83875006 7.8320043e-39
0.17223118 0.19330639 0.84125006 8.6595691e-39
0.17223118 0.1958064 0.83875006 3.2221597e-39
0.17223118 0.1958064 0.84125006 2.6708048e-39
0.16223118 0.19080639 0.84875005 1.0043192e-38
0.16473117 0.1833064 0.84375006 1.6957865e-38
0.16473117 0.18580639 0.84375006 1.5849008e-39
0.16723119 0.18580639 0.84375006 6.2711007e-39
0.16473117 0.18830639 0.84375006 4.4328704e-39
0.16473117 0.18830639 0.84625006 1.5737871e-39
0.16473117 0.19080639 0.84375006 6.2699713e-39
0.16473117 0.19080639 0.84625006 6.7284285e-39
0.16723119 0.18830639 0.84375006 2.7655214e-39
0.16723119 0.19080639 0.84375006 3.3165245e-39
0.16723119 0.19080639 0.84625006 7.5589655e-39
0.16473117 0.19080639 0.84875005 5.9908634e-39
0.16473117 0.19330639 0.84625006 1.1607642e-38
0.16723119 0.19330639 0.84375006 3.223973e-39
0.16723119 0.19330639 0.84625006 9.6776671e-39
0.16723119 0.1958064 0.84375006 9.2098198e-39
0.16473117 0.19330639 0.84875005 8.2021685e-39
0.16973118 0.19080639 0.84375006 0
0.17223118 0.19080639 0.84375006 2.9430407e-39
0.16973118 0.19330639 0.84375006 8.2905722e-40
0.16973118 0.1958064 0.84375006 7.188741e-39
0.17223118 0.19330639 0.84375006 3.0345875e-39
0.17223118 0.1958064 0.84375006 4.602747e-40
0.17223118 0.1983064 0.82875007 3.4115886e-39
0.17223118 0.1983064 0.83125007 3.5970589e-39
0.17223118 0.20080639 0.82875007 3.6860652e-39
0.17223118 0.20080639 0.83125007 3.9626577e-39
0.16973118 0.1983064 0.83625007 1.0318746e-38
0.17223118 0.1983064 0.83375007 9.0280069e-39
0.17223118 0.1983064 0.83625007 9.3953615e-39
0.17223118 0.20080639 0.83375007 8.1117861e-39
0.16973118 0.1983064 0.83875006 8.2060192e-39
0.17223118 0.1983064 0.83875006 9.3049273e-39
0.17723118 0.18580639 0.81125009 0
0.17973118 0.18580639 0.8037501 9.1835496e-41
0.17973118 0.18580639 0.80875009 1.8367099e-40
0.17973118 0.18580639 0.81125009 1.8439126e-40
0.18223119 0.18580639 0.80875009 7.1746481e-43
0.18223119 0.18580639 0.81125009 0
0.17473118 0.1783064 0.81375009 4.3393267e-39
0.17473118 0.1783064 0.81625009 5.6051939e-45
0.17473118 0.1808064 0.81375009 9.4029075e-39
0.17473118 0.1808064 0.81625009 1.1148504e-38
0.17723118 0.1783064 0.81375009 0
0.17723118 0.1783064 0.81625009 5.6051939e-45
0.17723118 0.1808064 0.81375009 0
0.17723118 0.1808064 0.81625009 0
0.17473118 0.1783064 0.81875008 2.8569911e-39
0.17473118 0.1783064 0.82125008 0
0.17473118 0.1808064 0.81875008 1.087043e-38
0.17473118 0.1833064 0.81375009 1.0874788e-38
0.17473118 0.1833064 0.81625009 1.0783662e-38
0.17473118 0.18580639 0.81625009 1.2440289e-38
0.17723118 0.1833064 0.81375009 2.4809933e-39
0.17723118 0.1833064 0.81625009 7.0004037e-39
0.17723118 0.18580639 0.81375009 0
0.17723118 0.18580639 0.81625009 5.1550491e-39
0.17473118 0.18580639 0.81875008 1.1983239e-38
0.17473118 0.18580639 0.82125008 1.2072921e-38
0.17973118 0.1783064 0.81375009 2.7658689e-40
0.17973118 0.1783064 0.81625009 8.4077908e-45
0.17973118 0.1808064 0.81375009 6.4285968e-40
0.18223119 0.1783064 0.81375009 1.8439126e-40
0.18223119 0.1783064 0.81625009 8.4077908e-45
0.18223119 0.1808064 0.81375009 6.4285968e-40
0.17973118 0.1783064 0.81875008 5.6051939e-45
0.18223119 0.1783064 0.81875008 5.6051939e-45
0.17973118 0.1833064 0.81375009 5.6051939e-45
0.17973118 0.18580639 0.81375009 9.1845305e-41
0.18223119 0.1833064 0.81375009 1.8404094e-40
0.18223119 0.18580639 0.81375009 4.5917748e-40
0.17723118 0.18830639 0.81125009 9.1835496e-41
0.17723118 0.19080639 0.81125009 0
0.17973118 0.18830639 0.8037501 0
0.17973118 0.18830639 0.8062501 0
0.17973118 0.19080639 0.8037501 0
0.17973118 0.18830639 0.80875009 0
0.17973118 0.18830639 0.81125009 1.8367099e-40
0.17973118 0.19080639 0.80875009 0
0.17973118 0.19080639 0.81125009 0
0.18223119 0.18830639 0.80875009 0
0.18223119 0.18830639 0.81125009 0
0.18223119 0.19080639 0.80875009 0
0.18223119 0.19080639 0.81125009 0
0.17473118 0.18830639 0.81375009 1.4741965e-38
0.17473118 0.18830639 0.81625009 1.4833773e-38
0.17473118 0.19080639 0.81375009 1.3174582e-38
0.17473118 0.19080639 0.81625009 1.3082381e-38
0.17723118 0.18830639 0.81375009 0
0.17723118 0.18830639 0.81625009 4.6893794e-39
0.17723118 0.19080639 0.81375009 0
0.17723118 0.19080639 0.81625009 3.1224279e-39
0.17473118 0.18830639 0.81875008 1.4741577e-38
0.17473118 0.18830639 0.82125008 1.6312783e-38
0.17473118 0.19080639 0.81875008 1.3174216e-38
0.17473118 0.19080639 0.82125008 1.594218e-38
0.17723118 0.18830639 0.81875008 3.6781016e-39
0.17723118 0.19080639 0.81875008 1.5612034e-39
0.17473118 0.19330639 0.81625009 9.3956754e-39
0.17723118 0.19330639 0.81375009 0
0.17723118 0.19330639 0.81625009 0
0.17473118 0.19330639 0.81875008 9.487871e-39
0.17473118 0.19330639 0.82125008 8.8410541e-39
0.17473118 0.1958064 0.82125008 0
0.17723118 0.19330639 0.81875008 6.4284847e-40
0.17723118 0.19330639 0.82125008 9.6715364e-39
0.17723118 0.1958064 0.81875008 3.6734198e-40
0.17723118 0.1958064 0.82125008 1.8367099e-40
0.17973118 0.18830639 0.81375009 3.6734198e-40
0.17973118 0.19080639 0.81375009 0
0.18223119 0.18830639 0.81375009 0
0.18223119 0.19080639 0.81375009 0
0.17973118 0.18830639 0.81875008 0
0.17973118 0.19080639 0.81875008 0
0.17973118 0.19330639 0.81375009 0
0.17973118 0.19330639 0.81625009 0
0.18223119 0.19330639 0.81375009 0
0.18223119 0.19330639 0.81625009 0
0.17973118 0.19330639 0.81875008 0
0.17973118 0.1958064 0.81875008 0
0.17973118 0.1958064 0.82125008 0
0.18223119 0.1958064 0.81875008 0
0.18223119 0.1958064 0.82125008 0
0.18473119 0.18580639 0.81125009 9.1835496e-41
0.18473119 0.1783064 0.81375009 8.4077908e-45
0.18473119 0.1783064 0.81625009 8.4077908e-45
0.18473119 0.1808064 0.81375009 1.8404094e-40
0.18473119 0.1808064 0.81625009 1.8439126e-40
0.18723118 0.1783064 0.81375009 5.6051939e-45
0.18723118 0.1783064 0.81625009 1.8404094e-40
0.18723118 0.1808064 0.81375009 3.6734899e-40
0.18723118 0.1808064 0.81625009 4.5918589e-40
0.18473119 0.1783064 0.81875008 7.0064923e-45
0.18723118 0.1783064 0.81875008 7.0064923e-45
0.18473119 0.1833064 0.81375009 7.3504691e-40
0.18473119 0.18580639 0.81375009 3.6734198e-40
0.18723118 0.1833064 0.81375009 6.4284847e-40
0.18723118 0.18580639 0.81375009 3.6734198e-40
0.18723118 0.18580639 0.81625009 8.2651947e-40
0.18973118 0.1783064 0.81375009 0
0.18973118 0.1783064 0.81625009 8.4077908e-45
0.18973118 0.1808064 0.81375009 0
0.18973118 0.1808064 0.81625009 0
0.19223118 0.1783064 0.81375009 9.1835496e-41
0.19223118 0.1783064 0.81625009 1.8439126e-40
0.19223118 0.1808064 0.81375009 4.5917748e-40
0.19223118 0.1808064 0.81625009 0
0.18973118 0.1783064 0.81875008 0
0.18973118 0.1783064 0.82125008 0
0.18973118 0.1808064 0.81875008 0
0.19223118 0.1783064 0.81875008 1.8439126e-40
0.19223118 0.1808064 0.81875008 3.6734198e-40
0.18973118 0.1833064 0.81375009 1.8439126e-40
0.18973118 0.18580639 0.81375009 4.5917748e-40
0.18973118 0.18580639 0.81625009 3.6734198e-40
0.19223118 0.1833064 0.81375009 6.4284847e-40
0.19223118 0.1833064 0.81625009 4.5917748e-40
0.19223118 0.18580639 0.81375009 7.3576017e-40
0.19223118 0.18580639 0.81625009 7.3576017e-40
0.19223118 0.1833064 0.81875008 4.5917748e-40
0.18473119 0.18830639 0.80875009 0
0.18473119 0.19080639 0.81125009 0
0.18473119 0.18830639 0.81375009 0
0.18473119 0.18830639 0.81625009 9.1835496e-41
0.18473119 0.19080639 0.81375009 0
0.18473119 0.19080639 0.81625009 0
0.18723118 0.18830639 0.81375009 9.1835496e-41
0.18723118 0.18830639 0.81625009 0
0.18723118 0.19080639 0.81625009 0
0.18473119 0.19080639 0.81875008 0
0.18723118 0.18830639 0.82125008 9.1835496e-41
0.18723118 0.19080639 0.81875008 0
0.18723118 0.19080639 0.82125008 0
0.18473119 0.19330639 0.81375009 0
0.18473119 0.19330639 0.81625009 0
0.18473119 0.19330639 0.81875008 0
0.18473119 0.19330639 0.82125008 0
0.18473119 0.1958064 0.82125008 0
0.18723118 0.19330639 0.82125008 0
0.18973118 0.18830639 0.81375009 0
0.18973118 0.18830639 0.81625009 0
0.18973118 0.18830639 0.81875008 0
0.18973118 0.18830639 0.82125008 0
0.18973118 0.19080639 0.81875008 0
0.18973118 0.19080639 0.82125008 0
0.19223118 0.18830639 0.81875008 3.6734198e-40
0.19223118 0.18830639 0.82125008 0
0.19223118 0.19080639 0.82125008 0
0.18973118 0.19330639 0.82125008 0
0.17973118 0.1983064 0.82125008 0
0.19473118 0.1783064 0.81375009 3.6734198e-40
0.19473118 0.1783064 0.81625009 1.8439126e-40
0.19473118 0.1808064 0.81375009 6.4320721e-40
0.19473118 0.1808064 0.81625009 6.4284847e-40
0.19723119 0.1783064 0.81375009 1.8439126e-40
0.19723119 0.1783064 0.81625009 1.8439126e-40
0.19723119 0.1808064 0.81375009 7.3504691e-40
0.19723119 0.1808064 0.81625009 7.3576017e-40
0.19473118 0.1783064 0.81875008 2.7658689e-40
0.19473118 0.1783064 0.82125008 8.4077908e-45
0.19473118 0.1808064 0.81875008 3.6734198e-40
0.19723119 0.1783064 0.81875008 1.8439126e-40
0.19723119 0.1808064 0.81875008 4.5917748e-40
0.19473118 0.1833064 0.81375009 7.350441e-40
0.19473118 0.1833064 0.81625009 0
0.19473118 0.18580639 0.81375009 4.5917748e-40
0.19473118 0.18580639 0.81625009 9.3629158e-41
0.19723119 0.1833064 0.81375009 1.0101905e-39
0.19723119 0.1833064 0.81625009 3.6734198e-40
0.19723119 0.18580639 0.81375009 3.6734198e-40
0.19723119 0.18580639 0.81625009 0
0.19723119 0.1833064 0.81875008 4.5918589e-40
0.19723119 0.18580639 0.81875008 3.6734899e-40
0.19973119 0.1783064 0.81375009 0
0.19973119 0.1783064 0.81625009 0
0.19973119 0.1808064 0.81375009 8.2724394e-40
0.19973119 0.1808064 0.81625009 6.4285128e-40
0.19973119 0.1783064 0.81875008 4.5917748e-40
0.19973119 0.1783064 0.82125008 4.5917748e-40
0.19973119 0.1808064 0.81875008 7.3576017e-40
0.19973119 0.1808064 0.82125008 4.5917748e-40
0.20223118 0.1783064 0.81875008 0
0.20223118 0.1783064 0.82125008 4.5917748e-40
0.20223118 0.1808064 0.81875008 7.3504691e-40
0.20223118 0.1808064 0.82125008 1.8439126e-40
0.19973119 0.1833064 0.81375009 1.3775324e-39
0.19973119 0.1833064 0.81625009 6.4320721e-40
0.19973119 0.18580639 0.81375009 1.8367099e-40
0.19973119 0.18580639 0.81625009 0
0.20223118 0.1833064 0.81625009 1.3775366e-39
0.20223118 0.18580639 0.81625009 0
0.19973119 0.1833064 0.81875008 1.4697267e-39
0.19973119 0.1833064 0.82125008 6.4284847e-40
0.19973119 0.18580639 0.81875008 9.1835496e-41
0.20223118 0.1833064 0.81875008 1.011631e-39
0.20223118 0.1833064 0.82125008 2.7623797e-40
0.20223118 0.18580639 0.81875008 0
0.20223118 0.18580639 0.82125008 1.2856969e-39
0.19473118 0.18830639 0.81875008 9.1835496e-41
0.19473118 0.18830639 0.82125008 3.6734198e-40
0.19723119 0.18830639 0.81875008 0
0.19723119 0.18830639 0.82125008 0
0.19973119 0.18830639 0.81875008 0
0.19973119 0.18830639 0.82125008 0
0.20223118 0.18830639 0.81875008 0
0.20223118 0.18830639 0.82125008 0
0.20473118 0.1783064 0.82125008 4.5917748e-40
0.20473118 0.1808064 0.81875008 7.3504691e-40
0.20473118 0.1808064 0.82125008 7.3504691e-40
0.20723118 0.1783064 0.82125008 6.4320721e-40
0.20723118 0.1808064 0.82125008 7.3504691e-40
0.20473118 0.1833064 0.81875008 8.279544e-40
0.20473118 0.1833064 0.82125008 6.4320721e-40
0.20473118 0.18580639 0.82125008 0
0.20723118 0.1833064 0.82125008 7.3576017e-40
0.20473118 0.18830639 0.82125008 0
0.17473118 0.1783064 0.82375008 8.7582093e-39
0.17473118 0.1783064 0.82625008 8.7582093e-39
0.17473118 0.1783064 0.82875007 1.2810836e-38
0.17473118 0.1783064 0.83375007 0
0.17473118 0.1783064 0.83625007 0
0.17473118 0.1808064 0.83375007 1.2719009e-38
0.17473118 0.1808064 0.83625007 1.1707728e-38
0.17723118 0.1783064 0.83375007 0
0.17723118 0.1783064 0.83625007 0
0.17723118 0.1808064 0.83375007 8.6674234e-39
0.17723118 0.1808064 0.83625007 1.5414283e-44
0.17723118 0.1783064 0.83875006 0
0.17723118 0.1808064 0.83875006 4.2038954e-44
0.17473118 0.1833064 0.83375007 1.1606528e-38
0.17473118 0.1833064 0.83625007 1.1423221e-38
0.17473118 0.18580639 0.83375007 8.8428715e-39
0.17473118 0.18580639 0.83625007 8.5626875e-39
0.17973118 0.1783064 0.83625007 5.6051939e-45
0.17973118 0.1808064 0.83625007 4.2038954e-45
0.18223119 0.1783064 0.83625007 4.2038954e-45
0.18223119 0.1808064 0.83625007 5.6051939e-45
0.17973118 0.1783064 0.83875006 5.6051939e-45
0.17973118 0.1808064 0.83875006 0
0.18223119 0.1783064 0.83875006 5.6051939e-45
0.18223119 0.1783064 0.84125006 4.2038954e-45
0.18223119 0.1808064 0.83875006 3.657389e-43
0.18223119 0.1808064 0.84125006 8.4077908e-45
0.17473118 0.19080639 0.82375008 1.1610806e-38
0.17473118 0.19080639 0.83125007 3.8686263e-39
0.17473118 0.19330639 0.82375008 9.0254453e-39
0.17473118 0.19330639 0.82625008 9.6703649e-39
0.17473118 0.1958064 0.82375008 7.0064923e-45
0.17473118 0.1958064 0.82625008 0
0.17723118 0.1958064 0.82375008 0
0.17473118 0.19330639 0.82875007 0
0.17473118 0.19330639 0.83125007 9.5810405e-39
0.17473118 0.1958064 0.82875007 0
0.17973118 0.1958064 0.82375008 0
0.18223119 0.1958064 0.82375008 0
0.17473118 0.18830639 0.83625007 1.0322668e-38
0.17473118 0.19080639 0.83875006 9.3092419e-39
0.17473118 0.19330639 0.83375007 2.0275598e-39
0.17723118 0.19330639 0.83375007 9.3966437e-39
0.17473118 0.19330639 0.83875006 3.501594e-39
0.17473118 0.19330639 0.84125006 6.9124988e-39
0.17473118 0.1958064 0.83875006 6.0812962e-39
0.17723118 0.19330639 0.84125006 2.7640332e-39
0.18473119 0.1783064 0.83875006 1.4012985e-45
0.18473119 0.1783064 0.84125006 5.6051939e-45
0.18473119 0.1808064 0.83875006 3.657389e-43
0.18473119 0.1808064 0.84125006 5.6051939e-45
0.18723118 0.1783064 0.83875006 5.6051939e-45
0.18723118 0.1783064 0.84125006 5.6051939e-45
0.18723118 0.1808064 0.83875006 3.657389e-43
0.18723118 0.1808064 0.84125006 5.6051939e-45
0.18973118 0.1783064 0.83625007 7.0064923e-45
0.19223118 0.1783064 0.83625007 3.657389e-43
0.18973118 0.1783064 0.83875006 5.6051939e-45
0.18973118 0.1783064 0.84125006 5.6051939e-45
0.18973118 0.1808064 0.83875006 5.6051939e-45
0.18973118 0.1808064 0.84125006 7.0064923e-45
0.19223118 0.1783064 0.83875006 4.2038954e-45
0.18723118 0.19080639 0.82375008 0
0.18473119 0.19330639 0.82375008 0
0.18473119 0.1958064 0.82375008 0
0.18723118 0.19330639 0.82375008 0
0.18723118 0.19330639 0.82625008 0
0.18723118 0.1958064 0.82375008 0
0.18723118 0.1958064 0.82625008 0
0.18473119 0.1958064 0.82875007 0
0.18723118 0.19330639 0.82875007 0
0.18723118 0.1958064 0.82875007 0
0.18973118 0.19080639 0.82375008 0
0.19223118 0.19080639 0.82375008 0
0.18973118 0.19330639 0.82375008 0
0.18973118 0.19330639 0.82625008 0
0.18973118 0.1958064 0.82375008 0
0.18973118 0.1958064 0.82625008 0
0.19223118 0.19330639 0.82375008 0
0.19223118 0.19330639 0.82625008 0
0.19223118 0.1958064 0.82375008 0
0.19223118 0.1958064 0.82625008 0
0.18973118 0.19330639 0.82875007 0
0.18973118 0.1958064 0.82875007 0
0.19223118 0.19330639 0.82875007 0
0.19223118 0.19330639 0.83125007 0
0.19223118 0.1958064 0.82875007 0
0.19223118 0.1958064 0.83125007 0
0.18973118 0.19330639 0.83375007 0
0.18973118 0.1958064 0.83375007 0
0.19223118 0.19330639 0.83375007 0
0.19223118 0.1958064 0.83375007 0
0.19223118 0.1958064 0.83875006 0
0.17473118 0.19080639 0.84375006 1.1148443e-38
0.17473118 0.19330639 0.84375006 6.4522143e-39
0.17723118 0.19330639 0.84375006 2.9484217e-39
0.18473119 0.1808064 0.84375006 7.0064923e-45
0.18723118 0.1808064 0.84375006 3.657389e-43
0.18973118 0.1808064 0.84375006 3.657389e-43
0.17473118 0.1983064 0.82375008 1.5414283e-44
0.17473118 0.1983064 0.82625008 1.5414283e-44
0.17473118 0.20080639 0.82375008 1.473335e-39
0.17473118 0.20080639 0.82625008 2.3031714e-39
0.17723118 0.1983064 0.82375008 0
0.17723118 0.1983064 0.82625008 1.2611686e-44
0.17723118 0.20080639 0.82375008 0
0.17723118 0.20080639 0.82625008 6.4459729e-44
0.17473118 0.1983064 0.82875007 0
0.17473118 0.20080639 0.82875007 3.8718451e-39
0.17473118 0.20330639 0.82375008 6.5394451e-39
0.17473118 0.20330639 0.82625008 1.2168028e-38
0.17723118 0.20330639 0.82375008 9.1913969e-41
0.17723118 0.20330639 0.82625008 1.4744042e-39
0.17973118 0.1983064 0.82375008 0
0.17973118 0.20080639 0.82375008 0
0.18223119 0.1983064 0.82375008 0
0.18223119 0.20080639 0.82375008 0
0.17973118 0.20330639 0.82375008 0
0.18223119 0.20330639 0.82375008 0
0.18473119 0.1983064 0.82375008 0
0.18473119 0.1983064 0.82625008 0
0.18473119 0.20080639 0.82375008 0
0.18473119 0.20080639 0.82625008 0
0.18723118 0.1983064 0.82375008 0
0.18723118 0.1983064 0.82625008 0
0.18723118 0.20080639 0.82375008 0
0.18723118 0.20080639 0.82625008 0
0.18723118 0.1983064 0.82875007 0
0.18723118 0.20080639 0.82875007 0
0.18473119 0.20330639 0.82375008 0
0.18723118 0.20330639 0.82375008 0
0.18723118 0.20330639 0.82625008 0
0.18973118 0.1983064 0.82375008 0
0.18973118 0.1983064 0.82625008 0
0.18973118 0.20080639 0.82375008 0
0.18973118 0.20080639 0.82625008 0
0.19223118 0.1983064 0.82625008 0
0.19223118 0.20080639 0.82375008 0
0.19223118 0.20080639 0.82625008 0
0.18973118 0.1983064 0.82875007 0
0.18973118 0.20080639 0.82875007 0
0.19223118 0.1983064 0.82875007 0
0.19223118 0.1983064 0.83125007 0
0.19223118 0.20080639 0.82875007 0
0.18973118 0.20330639 0.82375008 0
0.18973118 0.20330639 0.82625008 0
0.19223118 0.20330639 0.82375008 0
0.19223118 0.20330639 0.82625008 0
0.20223118 0.1783064 0.82375008 3.6734198e-40
0.20223118 0.18580639 0.82375008 9.1835496e-41
0.19473118 0.19080639 0.82375008 0
0.19723119 0.19080639 0.82375008 0
0.19723119 0.19080639 0.83125007 0
0.19473118 0.19330639 0.82625008 0
0.19473118 0.1958064 0.82625008 0
0.19473118 0.19330639 0.82875007 0
0.19473118 0.19330639 0.83125007 0
0.19473118 0.1958064 0.82875007 0
0.19473118 0.1958064 0.83125007 0
0.19723119 0.19330639 0.82875007 0
0.19723119 0.19330639 0.83125007 0
0.19723119 0.1958064 0.82875007 0
0.19723119 0.1958064 0.83125007 0
0.19973119 0.19080639 0.82375008 0
0.19973119 0.19080639 0.82625008 0
0.20223118 0.18830639 0.82375008 0
0.20223118 0.19080639 0.82375008 0
0.20223118 0.19080639 0.82625008 0
0.19973119 0.19080639 0.83125007 0
0.20223118 0.19080639 0.82875007 0
0.20223118 0.19080639 0.83125007 0
0.19973119 0.19330639 0.82875007 0
0.19973119 0.19330639 0.83125007 0
0.19973119 0.1958064 0.83125007 0
0.20223118 0.19330639 0.82875007 0
0.20223118 0.19330639 0.83125007 0
0.20223118 0.1958064 0.83125007 0
0.19473118 0.19330639 0.83375007 0
0.19473118 0.1958064 0.83375007 0
0.19723119 0.19330639 0.83375007 0
0.19723119 0.1958064 0.83375007 0
0.19973119 0.19330639 0.83375007 0
0.19973119 0.19330639 0.83625007 0
0.19973119 0.1958064 0.83375007 0
0.20223118 0.1958064 0.83375007 0
0.20473118 0.1783064 0.82375008 3.6734198e-40
0.20473118 0.1808064 0.82375008 3.6734198e-40
0.20723118 0.1783064 0.82375008 4.5917748e-40
0.20723118 0.1808064 0.82375008 8.2724394e-40
0.20473118 0.1833064 0.82375008 8.279544e-40
0.20473118 0.18580639 0.82375008 0
0.20723118 0.1833064 0.82375008 7.3576017e-40
0.20723118 0.18580639 0.82375008 1.8367099e-40
0.20723118 0.18580639 0.82625008 9.1835496e-40
0.20973118 0.1783064 0.82375008 6.4285128e-40
0.20973118 0.1783064 0.82625008 3.6734198e-40
0.20973118 0.1808064 0.82375008 4.6132988e-40
0.20973118 0.1808064 0.82625008 8.279544e-40
0.21223117 0.1783064 0.82375008 7.3504691e-40
0.21223117 0.1783064 0.82625008 1.8367099e-40
0.21223117 0.1808064 0.82375008 5.5317378e-40
0.21223117 0.1808064 0.82625008 7.3504691e-40
0.20973118 0.1833064 0.82375008 4.5917748e-40
0.20973118 0.1833064 0.82625008 7.3576017e-40
0.20973118 0.18580639 0.82375008 1.8367099e-40
0.20973118 0.18580639 0.82625008 0
0.21223117 0.1833064 0.82375008 7.1746481e-43
0.21223117 0.1833064 0.82625008 4.5917748e-40
0.21223117 0.18580639 0.82375008 0
0.21223117 0.18580639 0.82625008 9.1835496e-41
0.20973118 0.18580639 0.82875007 1.8367099e-40
0.21223117 0.18580639 0.82875007 0
0.20473118 0.18830639 0.82375008 0
0.20473118 0.18830639 0.82625008 0
0.20473118 0.19080639 0.82625008 0
0.20723118 0.18830639 0.82375008 0
0.20723118 0.18830639 0.82625008 0
0.20473118 0.18830639 0.83125007 9.1835496e-41
0.20473118 0.19080639 0.82875007 0
0.20473118 0.19080639 0.83125007 0
0.20723118 0.18830639 0.82875007 0
0.20723118 0.18830639 0.83125007 0
0.20723118 0.19080639 0.82875007 0
0.20723118 0.19080639 0.83125007 0
0.20473118 0.19330639 0.83125007 0
0.20973118 0.18830639 0.82875007 0
0.20973118 0.18830639 0.83125007 9.1835496e-41
0.20973118 0.19080639 0.82875007 0
0.20973118 0.19080639 0.83125007 0
0.21223117 0.18830639 0.83125007 0
0.20473118 0.19080639 0.83375007 0
0.20723118 0.18830639 0.83375007 0
0.20723118 0.19080639 0.83375007 0
0.20473118 0.19330639 0.83375007 0
0.20473118 0.1958064 0.83375007 0
0.20723118 0.19330639 0.83375007 0
0.20723118 0.1958064 0.83375007 0
0.20973118 0.18830639 0.83375007 0
0.20973118 0.19080639 0.83375007 0
0.21223117 0.18830639 0.83375007 0
0.21223117 0.19080639 0.83375007 0
0.21223117 0.19080639 0.83625007 0
0.21223117 0.19080639 0.83875006 0
0.20973118 0.19330639 0.83375007 0
0.20973118 0.1958064 0.83375007 0
0.21223117 0.19330639 0.83375007 0
0.21223117 0.19330639 0.83625007 0
0.21223117 0.1958064 0.83375007 0
0.21223117 0.1958064 0.83625007 0
0.19473118 0.1983064 0.82625008 0
0.19473118 0.20080639 0.82625008 0
0.19723119 0.1983064 0.82625008 0
0.19723119 0.20080639 0.82625008 0
0.19473118 0.1983064 0.82875007 0
0.19473118 0.1983064 0.83125007 0
0.19473118 0.20080639 0.82875007 0
0.19473118 0.20080639 0.83125007 0
0.19723119 0.1983064 0.82875007 0
0.19723119 0.1983064 0.83125007 0
0.19723119 0.20080639 0.82875007 0
0.19723119 0.20080639 0.83125007 0
0.19473118 0.20330639 0.82625008 0
0.19723119 0.20330639 0.82625008 0
0.19973119 0.1983064 0.82625008 0
0.19973119 0.20080639 0.82625008 0
0.19973119 0.1983064 0.83125007 0
0.19973119 0.20080639 0.82875007 0
0.19973119 0.20080639 0.83125007 0
0.20223118 0.1983064 0.83125007 0
0.20223118 0.20080639 0.82875007 0
0.20223118 0.20080639 0.83125007 0
0.20223118 0.20330639 0.82375008 0
0.19473118 0.1983064 0.83375007 0
0.19973119 0.1983064 0.83375007 0
0.20223118 0.1983064 0.83375007 0
0.20473118 0.1983064 0.83125007 0
0.20473118 0.20080639 0.82875007 0
0.20473118 0.20080639 0.83125007 0
0.20723118 0.1983064 0.83125007 0
0.20723118 0.20080639 0.83125007 0
0.20973118 0.1983064 0.83125007 3.6734198e-40
0.20973118 0.20080639 0.83125007 3.6734198e-40
0.21223117 0.1983064 0.83125007 7.3504691e-40
0.21223117 0.20080639 0.83125007 3.6734198e-40
0.20473118 0.1983064 0.83375007 0
0.20723118 0.1983064 0.83375007 0
0.20973118 0.1983064 0.83375007 0
0.21223117 0.1983064 0.83375007 9.3629158e-41
0.21473119 0.1783064 0.82375008 7.3504691e-40
0.21473119 0.1783064 0.82625008 3.6734198e-40
0.21473119 0.1808064 0.82375008 1.2882179e-39
0.21473119 0.1808064 0.82625008 8.279544e-40
0.21723118 0.1783064 0.82375008 7.3504691e-40
0.21723118 0.1783064 0.82625008 7.3504691e-40
0.21723118 0.1808064 0.82375008 1.011631e-39
0.21723118 0.1808064 0.82625008 8.279544e-40
0.21473119 0.1833064 0.82375008 1.1960251e-39
0.21473119 0.1833064 0.82625008 6.4284847e-40
0.21473119 0.18580639 0.82625008 0
0.21723118 0.1833064 0.82375008 0
0.21723118 0.1833064 0.82625008 6.4285128e-40
0.21473119 0.1833064 0.82875007 4.5917748e-40
0.21473119 0.18580639 0.82875007 0
0.21473119 0.18580639 0.83125007 1.8367099e-40
0.21723118 0.1833064 0.82875007 8.2724394e-40
0.21723118 0.18580639 0.82875007 0
0.21723118 0.18580639 0.83125007 0
0.21973118 0.1783064 0.82375008 6.4284847e-40
0.21973118 0.1783064 0.82625008 8.2724394e-40
0.21973118 0.1808064 0.82375008 2.7801762e-40
0.21973118 0.1808064 0.82625008 7.3576017e-40
0.22223118 0.1783064 0.82625008 7.3504691e-40
0.22223118 0.1808064 0.82625008 8.279544e-40
0.21973118 0.1783064 0.82875007 1.8439126e-40
0.22223118 0.1783064 0.82875007 7.3576017e-40
0.22223118 0.1808064 0.82875007 6.4285128e-40
0.21973118 0.1833064 0.82625008 9.1835496e-41
0.22223118 0.1833064 0.82625008 0
0.21973118 0.1833064 0.82875007 0
0.21973118 0.18580639 0.82875007 0
0.21973118 0.18580639 0.83125007 0
0.22223118 0.1833064 0.82875007 9.1835496e-41
0.22223118 0.18580639 0.82875007 0
0.22223118 0.18580639 0.83125007 0
0.21473119 0.18830639 0.83125007 0
0.21723118 0.18830639 0.83125007 0
0.21973118 0.18830639 0.83125007 0
0.22223118 0.18830639 0.83125007 0
0.21473119 0.18830639 0.83375007 0
0.21473119 0.18830639 0.83625007 0
0.21473119 0.19080639 0.83375007 0
0.21473119 0.19080639 0.83625007 0
0.21723118 0.18830639 0.83375007 0
0.21723118 0.18830639 0.83625007 0
