# .PCD v0.7 - Point Cloud Data file format
VERSION 0.7
FIELDS x y z rgb
SIZE 4 4 4 4
TYPE F F F F
COUNT 1 1 1 1
WIDTH 967
HEIGHT 1
VIEWPOINT 0 0 0 1 0 0 0
POINTS 967
DATA ascii
0.85328782 -0.048237447 0.10691202 1.7265083e-38
0.85328782 -0.045737445 0.10441203 1.7173249e-38
0.85328782 -0.045737445 0.10691202 1.6897771e-38
0.85578781 -0.048237447 0.10441203 1.7081783e-38
0.85578781 -0.048237447 0.10691202 1.6991742e-38
0.85578781 -0.045737445 0.10441203 1.6899546e-38
0.85328782 -0.048237447 0.10941202 1.6899546e-38
0.85328782 -0.048237447 0.11191203 1.6902412e-38
0.85328782 -0.045737445 0.10941202 1.6714433e-38
0.85328782 -0.045737445 0.11191203 1.6622236e-38
0.85578781 -0.048237447 0.10941202 1.6622236e-38
0.85578781 -0.048237447 0.11191203 1.6531118e-38
0.85578781 -0.045737445 0.10941202 1.6622236e-38
0.85578781 -0.045737445 0.11191203 1.6164499e-38
0.85828781 -0.053237446 0.10441203 1.7082881e-38
0.85828781 -0.050737444 0.10441203 1.6899543e-38
0.85828781 -0.048237447 0.10441203 1.6899543e-38
0.85828781 -0.048237447 0.10941202 1.6714446e-38
0.85328782 -0.043237444 0.096912026 1.7173246e-38
0.85328782 -0.040737446 0.096912026 1.735691e-38
0.85578781 -0.043237444 0.094412021 1.7356917e-38
0.85328782 -0.043237444 0.099412024 1.7356917e-38
0.85328782 -0.043237444 0.10191202 1.7448754e-38
0.85328782 -0.040737446 0.099412024 1.7081432e-38
0.85328782 -0.040737446 0.10191202 1.7173263e-38
0.85578781 -0.043237444 0.099412024 1.7265083e-38
0.85328782 -0.038237445 0.096912026 1.6897731e-38
0.85328782 -0.043237444 0.10441203 1.7083206e-38
0.85328782 -0.043237444 0.10691202 1.7081404e-38
0.85328782 -0.040737446 0.10441203 1.7173252e-38
0.85328782 -0.043237444 0.10941202 1.7173242e-38
0.85328782 -0.043237444 0.11191203 1.6897731e-38
0.85328782 -0.040737446 0.11191203 1.6530392e-38
0.85578781 -0.043237444 0.10941202 1.6805904e-38
0.85328782 -0.038237445 0.10441203 1.6805907e-38
0.85328782 -0.038237445 0.11191203 1.6438554e-38
0.84578776 -0.053237446 0.11691202 1.6901345e-38
0.84578776 -0.050737444 0.11691202 1.6992095e-38
0.84328777 -0.053237446 0.12191202 1.6443957e-38
0.84328777 -0.050737444 0.12191202 1.6441808e-38
0.84578776 -0.053237446 0.11941203 1.6716962e-38
0.84578776 -0.053237446 0.12191202 1.7087177e-38
0.84578776 -0.050737444 0.11941203 1.6164499e-38
0.84578776 -0.050737444 0.12191202 1.6533282e-38
0.84328777 -0.048237447 0.11691202 1.6623326e-38
0.84328777 -0.045737445 0.11691202 1.6438935e-38
0.84578776 -0.048237447 0.11691202 1.6531118e-38
0.84578776 -0.045737445 0.11691202 1.6622236e-38
0.84328777 -0.048237447 0.12191202 1.6165222e-38
0.84578776 -0.048237447 0.11941203 1.6164499e-38
0.84578776 -0.048237447 0.12191202 1.6164499e-38
0.84578776 -0.045737445 0.11941203 1.5979383e-38
0.84578776 -0.045737445 0.12191202 1.6071224e-38
0.84828776 -0.053237446 0.11441202 1.7177572e-38
0.84828776 -0.053237446 0.11691202 1.6993541e-38
0.84828776 -0.050737444 0.11441202 1.6812029e-38
0.84828776 -0.050737444 0.11691202 1.6993553e-38
0.85078782 -0.053237446 0.11441202 1.6718749e-38
0.85078782 -0.053237446 0.11691202 1.6628704e-38
0.85078782 -0.050737444 0.11441202 1.7360519e-38
0.85078782 -0.050737444 0.11691202 1.6533988e-38
0.84828776 -0.053237446 0.11941203 1.7179007e-38
0.84828776 -0.053237446 0.12191202 1.7272636e-38
0.84828776 -0.050737444 0.11941203 1.6533988e-38
0.84828776 -0.050737444 0.12191202 1.616807e-38
0.85078782 -0.053237446 0.11941203 1.6812385e-38
0.85078782 -0.050737444 0.11941203 1.5891137e-38
0.84828776 -0.048237447 0.11441202 1.6899543e-38
0.84828776 -0.048237447 0.11691202 1.6164499e-38
0.84828776 -0.045737445 0.11441202 1.6714086e-38
0.84828776 -0.045737445 0.11691202 1.6071224e-38
0.85078782 -0.048237447 0.11441202 1.6346725e-38
0.85078782 -0.048237447 0.11691202 1.5887556e-38
0.85078782 -0.045737445 0.11441202 1.6438921e-38
0.84828776 -0.048237447 0.11941203 1.6164845e-38
0.84828776 -0.048237447 0.12191202 1.5799293e-38
0.84828776 -0.045737445 0.11941203 1.5887548e-38
0.84828776 -0.045737445 0.12191202 1.5888617e-38
0.85078782 -0.048237447 0.11941203 1.6164499e-38
0.85078782 -0.045737445 0.11941203 1.5888268e-38
0.84328777 -0.053237446 0.12441202 1.634996e-38
0.84328777 -0.053237446 0.12691203 1.6995329e-38
0.84328777 -0.050737444 0.12441202 1.5889337e-38
0.84328777 -0.050737444 0.12691203 1.6806626e-38
0.84578776 -0.053237446 0.12441202 1.6714433e-38
0.84578776 -0.053237446 0.12691203 1.6899175e-38
0.84578776 -0.050737444 0.12441202 1.6626905e-38
0.84578776 -0.050737444 0.12691203 1.7360149e-38
0.84328777 -0.053237446 0.12941203 1.7361244e-38
0.84328777 -0.053237446 0.13191202 1.7265086e-38
0.84328777 -0.050737444 0.12941203 1.6805906e-38
0.84328777 -0.050737444 0.13191202 1.7265096e-38
0.84578776 -0.053237446 0.13191202 1.6989572e-38
0.84578776 -0.050737444 0.12941203 1.7083206e-38
0.84578776 -0.050737444 0.13191202 1.7816106e-38
0.84328777 -0.048237447 0.12441202 1.5981184e-38
0.84328777 -0.048237447 0.12691203 1.6530389e-38
0.84328777 -0.045737445 0.12441202 1.6164126e-38
0.84328777 -0.045737445 0.12691203 1.6530389e-38
0.84578776 -0.048237447 0.12441202 1.6165928e-38
0.84578776 -0.048237447 0.12691203 1.6622225e-38
0.84578776 -0.045737445 0.12441202 1.6164126e-38
0.84578776 -0.045737445 0.12691203 1.6805896e-38
0.84328777 -0.048237447 0.12941203 1.6805906e-38
0.84328777 -0.048237447 0.13191202 1.7265075e-38
0.84328777 -0.045737445 0.12941203 1.671406e-38
0.84328777 -0.045737445 0.13191202 1.7265073e-38
0.84578776 -0.048237447 0.12941203 1.7265075e-38
0.84578776 -0.048237447 0.13191202 1.6805896e-38
0.84578776 -0.045737445 0.12941203 1.6989567e-38
0.84578776 -0.045737445 0.13191202 1.7356909e-38
0.84828776 -0.053237446 0.12441202 1.7177206e-38
0.84828776 -0.050737444 0.12441202 1.6349588e-38
0.85078782 -0.053237446 0.12441202 1.681131e-38
0.85078782 -0.053237446 0.12691203 1.7361244e-38
0.85078782 -0.050737444 0.12691203 1.726509e-38
0.84828776 -0.053237446 0.12941203 1.6990294e-38
0.84828776 -0.053237446 0.13191202 1.8550777e-38
0.84828776 -0.050737444 0.12941203 1.7265449e-38
0.85078782 -0.053237446 0.12941203 1.8275272e-38
0.85078782 -0.053237446 0.13191202 2.0302853e-38
0.85078782 -0.050737444 0.12941203 1.7816086e-38
0.84828776 -0.048237447 0.12441202 1.6438568e-38
0.84828776 -0.048237447 0.12941203 1.6897741e-38
0.84828776 -0.048237447 0.13191202 1.7907923e-38
0.84828776 -0.045737445 0.12941203 1.6989568e-38
0.84828776 -0.045737445 0.13191202 1.7909399e-38
0.85078782 -0.048237447 0.12941203 1.6989568e-38
0.84328777 -0.043237444 0.11691202 1.6897743e-38
0.84578776 -0.043237444 0.11691202 1.6622232e-38
0.84578776 -0.040737446 0.11691202 1.6438554e-38
0.84328777 -0.043237444 0.12191202 1.6163779e-38
0.84328777 -0.040737446 0.12191202 1.6254893e-38
0.84578776 -0.043237444 0.11941203 1.5979735e-38
0.84578776 -0.043237444 0.12191202 1.6071931e-38
0.84578776 -0.040737446 0.11941203 1.643999e-38
0.84578776 -0.040737446 0.12191202 1.62556e-38
0.84328777 -0.038237445 0.11691202 1.5703875e-38
0.84328777 -0.035737447 0.11691202 1.5887548e-38
0.84578776 -0.038237445 0.11441202 1.6530389e-38
0.84578776 -0.038237445 0.11691202 1.6622225e-38
0.84578776 -0.035737447 0.11441202 1.6438558e-38
0.84578776 -0.035737447 0.11691202 1.6346718e-38
0.84328777 -0.038237445 0.11941203 1.5887544e-38
0.84328777 -0.038237445 0.12191202 1.5979376e-38
0.84328777 -0.035737447 0.11941203 1.5795707e-38
0.84328777 -0.035737447 0.12191202 1.6071217e-38
0.84578776 -0.038237445 0.11941203 1.5979376e-38
0.84578776 -0.038237445 0.12191202 1.5979383e-38
0.84578776 -0.035737447 0.11941203 1.6163052e-38
0.84578776 -0.035737447 0.12191202 1.5979376e-38
0.84828776 -0.043237444 0.11441202 1.6897743e-38
0.84828776 -0.043237444 0.11691202 1.6256322e-38
0.84828776 -0.040737446 0.11441202 1.689774e-38
0.85078782 -0.043237444 0.11441202 1.671443e-38
0.85078782 -0.043237444 0.11691202 1.6071929e-38
0.84828776 -0.043237444 0.11941203 1.6164126e-38
0.84828776 -0.043237444 0.12191202 1.6256692e-38
0.84828776 -0.040737446 0.11941203 1.643999e-38
0.85078782 -0.043237444 0.11941203 1.6071593e-38
0.84828776 -0.038237445 0.11441202 1.6622232e-38
0.84828776 -0.035737447 0.11441202 1.6438558e-38
0.84828776 -0.038237445 0.11941203 1.5979376e-38
0.84828776 -0.035737447 0.11941203 1.6071217e-38
0.84328777 -0.043237444 0.12441202 1.6805901e-38
0.84328777 -0.043237444 0.12691203 1.6346718e-38
0.84328777 -0.040737446 0.12441202 1.6071212e-38
0.84328777 -0.040737446 0.12691203 1.6438554e-38
0.84578776 -0.043237444 0.12441202 1.5979385e-38
0.84578776 -0.043237444 0.12691203 1.6530389e-38
0.84578776 -0.040737446 0.12441202 1.6438555e-38
0.84578776 -0.040737446 0.12691203 1.6346718e-38
0.84328777 -0.043237444 0.12941203 1.6897731e-38
0.84328777 -0.043237444 0.13191202 1.7081435e-38
0.84328777 -0.040737446 0.12941203 1.7081402e-38
0.84328777 -0.040737446 0.13191202 1.9107547e-38
0.84578776 -0.043237444 0.12941203 1.7173239e-38
0.84578776 -0.043237444 0.13191202 1.7540594e-38
0.84578776 -0.040737446 0.12941203 1.7173238e-38
0.84578776 -0.040737446 0.13191202 1.9382339e-38
0.84328777 -0.038237445 0.12441202 1.6071212e-38
0.84328777 -0.038237445 0.12691203 1.6438555e-38
0.84328777 -0.035737447 0.12441202 1.634673e-38
0.84328777 -0.035737447 0.12691203 1.6438554e-38
0.84578776 -0.038237445 0.12441202 1.6071223e-38
0.84328777 -0.038237445 0.12941203 1.6622225e-38
0.84328777 -0.038237445 0.13191202 1.9106112e-38
0.84328777 -0.035737447 0.12941203 1.6530389e-38
0.84328777 -0.035737447 0.13191202 1.9193629e-38
0.84578776 -0.038237445 0.12941203 1.7356909e-38
0.84578776 -0.038237445 0.13191202 1.8924232e-38
0.84578776 -0.035737447 0.12941203 1.7632415e-38
0.84578776 -0.035737447 0.13191202 1.8826277e-38
0.84828776 -0.043237444 0.12441202 1.6071223e-38
0.85078782 -0.043237444 0.12691203 1.7081402e-38
0.84828776 -0.043237444 0.12941203 1.6897733e-38
0.84828776 -0.043237444 0.13191202 1.8367817e-38
0.84828776 -0.040737446 0.12941203 1.7081402e-38
0.85078782 -0.043237444 0.12941203 1.7632432e-38
0.85078782 -0.040737446 0.12941203 1.8924232e-38
0.85328782 -0.053237446 0.11441202 1.7452011e-38
0.85328782 -0.053237446 0.11691202 1.7179022e-38
0.85328782 -0.050737444 0.11441202 1.6167716e-38
0.85328782 -0.050737444 0.11691202 1.6166647e-38
0.85578781 -0.053237446 0.11441202 1.6994623e-38
0.85578781 -0.050737444 0.11441202 1.5887912e-38
0.85328782 -0.053237446 0.11941203 1.6164499e-38
0.85578781 -0.053237446 0.11941203 1.7086455e-38
0.85328782 -0.048237447 0.11441202 1.6530416e-38
0.85328782 -0.048237447 0.11691202 1.6164499e-38
0.85328782 -0.045737445 0.11441202 1.6164126e-38
0.85328782 -0.045737445 0.11691202 1.5888617e-38
0.85578781 -0.048237447 0.11441202 1.6164499e-38
0.85578781 -0.050737444 0.12691203 1.7448771e-38
0.85328782 -0.053237446 0.13191202 2.0116316e-38
0.85328782 -0.050737444 0.13191202 1.8734459e-38
0.85578781 -0.053237446 0.12941203 1.9196508e-38
0.85578781 -0.053237446 0.13191202 1.836854e-38
0.85328782 -0.048237447 0.13191202 1.8550786e-38
0.85828781 -0.053237446 0.12941203 2.0395767e-38
0.85828781 -0.053237446 0.13191202 1.6438554e-38
0.85828781 -0.050737444 0.13191202 1.6897731e-38
0.86078781 -0.053237446 0.12941203 1.846037e-38
0.85328782 -0.043237444 0.11441202 1.6254883e-38
0.85328782 -0.043237444 0.12691203 1.7448774e-38
0.85328782 -0.040737446 0.12691203 1.9107544e-38
0.84578776 -0.033237446 0.094412021 1.3440734e-38
0.84578776 -0.033237446 0.096912026 1.3993543e-38
0.84578776 -0.030737445 0.094412021 1.2061752e-38
0.84578776 -0.030737445 0.096912026 1.298373e-38
0.84578776 -0.033237446 0.099412024 1.4363752e-38
0.84578776 -0.033237446 0.10191202 1.3804827e-38
0.84578776 -0.030737445 0.099412024 1.3810598e-38
0.84578776 -0.030737445 0.10191202 1.1874858e-38
0.84328777 -0.028237445 0.094412021 1.3444001e-38
0.84328777 -0.028237445 0.096912026 1.4550371e-38
0.84328777 -0.025737446 0.094412021 1.196995e-38
0.84328777 -0.025737446 0.096912026 1.2429872e-38
0.84578776 -0.028237445 0.094412021 1.3260689e-38
0.84578776 -0.028237445 0.096912026 1.4827283e-38
0.84578776 -0.025737446 0.094412021 1.1876323e-38
0.84328777 -0.028237445 0.099412024 1.5377954e-38
0.84328777 -0.028237445 0.10191202 1.2152517e-38
0.84328777 -0.025737446 0.099412024 1.252025e-38
0.84328777 -0.025737446 0.10191202 1.1416398e-38
0.84578776 -0.028237445 0.099412024 1.417902e-38
0.84578776 -0.028237445 0.10191202 1.2243641e-38
0.84578776 -0.025737446 0.099412024 1.2245105e-38
0.84828776 -0.033237446 0.094412021 1.390171e-38
0.84828776 -0.033237446 0.099412024 1.4545998e-38
0.84828776 -0.030737445 0.099412024 1.3717341e-38
0.84828776 -0.028237445 0.094412021 1.3905661e-38
0.84828776 -0.028237445 0.099412024 1.417832e-38
0.84328777 -0.033237446 0.10691202 1.7390013e-38
0.84328777 -0.030737445 0.10691202 2.005079e-38
0.84578776 -0.033237446 0.10441203 1.5272385e-38
0.84578776 -0.033237446 0.10691202 1.8581646e-38
0.84578776 -0.030737445 0.10441203 1.9047759e-38
0.84578776 -0.030737445 0.10691202 2.0328083e-38
0.84328777 -0.033237446 0.11191203 1.6989567e-38
0.84328777 -0.030737445 0.11191203 1.6163066e-38
0.84578776 -0.033237446 0.10941202 1.7081402e-38
0.84578776 -0.033237446 0.11191203 1.6622225e-38
0.84578776 -0.030737445 0.10941202 1.6163054e-38
0.84578776 -0.030737445 0.11191203 1.6622229e-38
0.84328777 -0.028237445 0.10441203 9.5742835e-39
0.84328777 -0.028237445 0.10691202 7.1779202e-39
0.84328777 -0.025737446 0.10441203 1.0311868e-38
0.84328777 -0.025737446 0.10691202 9.5761038e-39
0.84578776 -0.028237445 0.10441203 1.2594428e-38
0.84578776 -0.028237445 0.10691202 1.4612314e-38
0.84578776 -0.025737446 0.10441203 1.0402988e-38
0.84328777 -0.028237445 0.10941202 1.4326367e-38
0.84328777 -0.028237445 0.11191203 1.5703905e-38
0.84328777 -0.025737446 0.10941202 1.5155051e-38
0.84328777 -0.025737446 0.11191203 1.5612037e-38
0.84578776 -0.028237445 0.10941202 1.5979383e-38
0.84578776 -0.028237445 0.11191203 1.6622239e-38
0.84828776 -0.033237446 0.10441203 1.6929758e-38
0.84828776 -0.033237446 0.10691202 1.6999632e-38
0.84828776 -0.030737445 0.10441203 1.8864091e-38
0.84828776 -0.030737445 0.10691202 1.7273014e-38
0.85078782 -0.033237446 0.10691202 1.6906728e-38
0.85078782 -0.030737445 0.10691202 1.7455626e-38
0.84828776 -0.033237446 0.10941202 1.6989567e-38
0.84828776 -0.030737445 0.10941202 1.5979383e-38
0.85078782 -0.033237446 0.10941202 1.6897743e-38
0.85078782 -0.033237446 0.11191203 1.6530403e-38
0.85078782 -0.030737445 0.10941202 1.6989585e-38
0.85078782 -0.030737445 0.11191203 1.6254883e-38
0.84828776 -0.028237445 0.10441203 1.2779195e-38
0.84828776 -0.028237445 0.10691202 1.5797884e-38
0.84828776 -0.028237445 0.10941202 1.570387e-38
0.85078782 -0.028237445 0.10941202 1.6346718e-38
0.85078782 -0.028237445 0.11191203 1.6254883e-38
0.84328777 -0.023237446 0.094412021 1.1877019e-38
0.84328777 -0.023237446 0.096912026 1.1326719e-38
0.84328777 -0.020737445 0.094412021 1.5839268e-38
0.84328777 -0.020737445 0.096912026 1.547014e-38
0.84328777 -0.023237446 0.099412024 1.1785922e-38
0.84328777 -0.023237446 0.10191202 1.0957603e-38
0.84328777 -0.020737445 0.099412024 1.6118022e-38
0.84328777 -0.018237446 0.094412021 1.3722368e-38
0.84328777 -0.018237446 0.099412024 1.5657403e-38
0.84328777 -0.015737446 0.099412024 1.5563775e-38
0.84328777 -0.023237446 0.10441203 1.1229468e-38
0.84328777 -0.023237446 0.10691202 1.0399709e-38
0.84328777 -0.020737445 0.10441203 7.3597737e-39
0.84328777 -0.020737445 0.10691202 9.109725e-39
0.84328777 -0.023237446 0.10941202 1.598335e-38
0.84328777 -0.023237446 0.11191203 1.6071236e-38
0.85328782 -0.033237446 0.11191203 1.6439271e-38
0.84328777 -0.033237446 0.11441202 1.634673e-38
0.84328777 -0.033237446 0.11691202 1.6072299e-38
0.84328777 -0.030737445 0.11441202 1.6530394e-38
0.84328777 -0.030737445 0.11691202 1.6163054e-38
0.84578776 -0.033237446 0.11441202 1.6254887e-38
0.84578776 -0.033237446 0.11691202 1.5979383e-38
0.84578776 -0.030737445 0.11441202 1.6346727e-38
0.84578776 -0.030737445 0.11691202 1.6071212e-38
0.84328777 -0.033237446 0.11941203 1.5795707e-38
0.84328777 -0.033237446 0.12191202 1.5703875e-38
0.84328777 -0.030737445 0.11941203 1.5979381e-38
0.84328777 -0.030737445 0.12191202 1.5795705e-38
0.84578776 -0.033237446 0.11941203 1.6071217e-38
0.84578776 -0.033237446 0.12191202 1.6071217e-38
0.84578776 -0.030737445 0.11941203 1.5979378e-38
0.84328777 -0.028237445 0.11441202 1.634673e-38
0.84328777 -0.028237445 0.11691202 1.6071217e-38
0.84328777 -0.025737446 0.11441202 1.634673e-38
0.84578776 -0.028237445 0.11441202 1.625489e-38
0.84578776 -0.028237445 0.11691202 1.5887541e-38
0.84328777 -0.028237445 0.11941203 1.5979376e-38
0.84328777 -0.028237445 0.12191202 1.570387e-38
0.84328777 -0.025737446 0.11941203 1.5795707e-38
0.84578776 -0.028237445 0.11941203 1.5795705e-38
0.84828776 -0.033237446 0.11441202 1.6622237e-38
0.84828776 -0.030737445 0.11441202 1.5979376e-38
0.85078782 -0.033237446 0.11441202 1.5979383e-38
0.84828776 -0.033237446 0.11941203 1.5795707e-38
0.84828776 -0.028237445 0.11441202 1.634673e-38
0.84328777 -0.033237446 0.12441202 1.6346718e-38
0.84328777 -0.033237446 0.12691203 1.6622225e-38
0.84328777 -0.030737445 0.12441202 1.6530389e-38
0.84328777 -0.030737445 0.12691203 1.6622225e-38
0.84578776 -0.033237446 0.12441202 1.6346718e-38
0.84578776 -0.033237446 0.12691203 1.6438554e-38
0.84328777 -0.033237446 0.12941203 1.6805896e-38
0.84328777 -0.033237446 0.13191202 1.8642606e-38
0.84328777 -0.030737445 0.12941203 1.6622225e-38
0.84328777 -0.030737445 0.13191202 1.8642606e-38
0.84578776 -0.033237446 0.12941203 1.7356909e-38
0.84578776 -0.033237446 0.13191202 1.9193619e-38
0.84328777 -0.028237445 0.12941203 1.6622225e-38
0.84328777 -0.028237445 0.13191202 1.8826288e-38
0.84328777 -0.025737446 0.12941203 1.8000116e-38
0.84328777 -0.025737446 0.13191202 1.8091593e-38
0.84578776 -0.028237445 0.12941203 1.7816086e-38
0.84578776 -0.028237445 0.13191202 1.8642652e-38
0.84578776 -0.025737446 0.12941203 1.7724261e-38
0.84578776 -0.025737446 0.13191202 1.8091631e-38
0.84828776 -0.033237446 0.12941203 1.9285461e-38
0.84328777 -0.023237446 0.11441202 1.6530405e-38
0.84328777 -0.023237446 0.11941203 1.6071213e-38
0.84328777 -0.015737446 0.11441202 1.5795705e-38
0.84328777 -0.023237446 0.12941203 1.8466167e-38
0.84328777 -0.023237446 0.13191202 1.6530389e-38
0.84578776 -0.023237446 0.12941203 1.7816086e-38
0.84578776 -0.023237446 0.13191202 1.6622225e-38
0.84578776 -0.015737446 0.12441202 1.7173239e-38
0.84578776 -0.015737446 0.12691203 1.8278904e-38
0.84828776 -0.015737446 0.12941203 1.7823673e-38
0.83078778 -0.0032374456 0.066912025 1.6622225e-38
0.83078778 -0.00073744566 0.066912025 1.6897735e-38
0.83078778 0.0017625544 0.066912025 1.7081402e-38
0.83078778 0.0042625545 0.066912025 1.7081402e-38
0.83078778 0.0017625544 0.069412023 1.6989582e-38
0.83078778 0.0017625544 0.07191202 1.7173238e-38
0.83078778 0.0042625545 0.069412023 1.7081402e-38
0.83078778 0.0042625545 0.07191202 1.7173238e-38
0.83578777 -0.0082374457 0.069412023 1.7081402e-38
0.83578777 -0.0057374458 0.069412023 1.7265073e-38
0.83578777 -0.0057374458 0.07191202 1.7265073e-38
0.83828777 -0.010737445 0.064412028 1.6530394e-38
0.83828777 -0.010737445 0.066912025 1.6989571e-38
0.84078777 -0.013237446 0.064412028 1.6989567e-38
0.84078777 -0.013237446 0.066912025 1.6989567e-38
0.84078777 -0.010737445 0.064412028 1.7173238e-38
0.84078777 -0.010737445 0.066912025 1.7173238e-38
0.83828777 -0.013237446 0.069412023 1.7081402e-38
0.83828777 -0.010737445 0.069412023 1.7356909e-38
0.83828777 -0.010737445 0.07191202 1.7265073e-38
0.84078777 -0.013237446 0.069412023 1.7173239e-38
0.84078777 -0.013237446 0.07191202 1.7356909e-38
0.84078777 -0.010737445 0.069412023 1.7173239e-38
0.84078777 -0.010737445 0.07191202 1.7265073e-38
0.83828777 -0.0082374457 0.064412028 1.662223e-38
0.83828777 -0.0082374457 0.066912025 1.6989571e-38
0.83828777 -0.0057374458 0.064412028 1.6897731e-38
0.83828777 -0.0057374458 0.066912025 1.7265073e-38
0.84078777 -0.0082374457 0.064412028 1.7173239e-38
0.84078777 -0.0057374458 0.064412028 1.7356909e-38
0.83828777 -0.0082374457 0.069412023 1.7265073e-38
0.83828777 -0.0082374457 0.07191202 1.7265073e-38
0.83828777 -0.0057374458 0.069412023 1.7265073e-38
0.83828777 -0.0057374458 0.07191202 1.7356909e-38
0.84078777 -0.0082374457 0.069412023 1.717326e-38
0.84078777 -0.0057374458 0.069412023 1.7081404e-38
0.83328778 -0.0032374456 0.064412028 1.6530389e-38
0.83328778 -0.0032374456 0.066912025 1.7081402e-38
0.83328778 -0.00073744566 0.064412028 1.7173238e-38
0.83328778 -0.00073744566 0.066912025 1.7081402e-38
0.83578777 -0.0032374456 0.066912025 1.7081402e-38
0.83578777 -0.00073744566 0.066912025 1.7081402e-38
0.83328778 -0.0032374456 0.069412023 1.7173238e-38
0.83328778 -0.0032374456 0.07191202 1.7265073e-38
0.83328778 -0.00073744566 0.069412023 1.7265073e-38
0.83328778 -0.00073744566 0.07191202 1.7173238e-38
0.83578777 -0.0032374456 0.069412023 1.7173238e-38
0.83578777 -0.0032374456 0.07191202 1.7173238e-38
0.83578777 -0.00073744566 0.069412023 1.7173238e-38
0.83578777 -0.00073744566 0.07191202 1.7173238e-38
0.83328778 0.0017625544 0.064412028 1.7173238e-38
0.83328778 0.0017625544 0.066912025 1.7081402e-38
0.83328778 0.0042625545 0.064412028 1.735692e-38
0.83328778 0.0042625545 0.066912025 1.6989568e-38
0.83578777 0.0017625544 0.066912025 1.7081402e-38
0.83578777 0.0042625545 0.066912025 1.7081402e-38
0.83328778 0.0017625544 0.069412023 1.7081402e-38
0.83328778 0.0017625544 0.07191202 1.7173238e-38
0.83328778 0.0042625545 0.069412023 1.6989568e-38
0.83328778 0.0042625545 0.07191202 1.7173238e-38
0.83578777 0.0017625544 0.069412023 1.7173238e-38
0.83578777 0.0017625544 0.07191202 1.7173238e-38
0.83578777 0.0042625545 0.069412023 1.7173238e-38
0.83578777 0.0042625545 0.07191202 1.7173238e-38
0.83828777 -0.0032374456 0.064412028 1.6989568e-38
0.83828777 -0.0032374456 0.066912025 1.7173238e-38
0.83828777 -0.00073744566 0.064412028 1.6989568e-38
0.83828777 -0.00073744566 0.066912025 1.7265073e-38
0.84078777 -0.0032374456 0.064412028 1.7265073e-38
0.83828777 -0.0032374456 0.069412023 1.7173238e-38
0.83828777 -0.0032374456 0.07191202 1.7173245e-38
0.83828777 -0.00073744566 0.07191202 1.7540581e-38
0.83828777 0.0017625544 0.064412028 1.7173238e-38
0.83078778 -0.00073744566 0.074412026 1.7633133e-38
0.83078778 -0.00073744566 0.076912023 1.5249715e-38
0.82828778 0.0017625544 0.074412026 1.7081402e-38
0.82828778 0.0042625545 0.074412026 1.7173238e-38
0.83078778 0.0017625544 0.074412026 1.7448744e-38
0.83078778 0.0017625544 0.076912023 1.5249715e-38
0.83078778 0.0042625545 0.074412026 1.7265089e-38
0.83078778 0.0042625545 0.076912023 1.5156483e-38
0.83078778 0.0042625545 0.079412021 1.205275e-38
0.83578777 -0.010737445 0.076912023 1.3316147e-38
0.83578777 -0.010737445 0.079412021 7.9053861e-39
0.83578777 -0.0082374457 0.074412026 1.6989571e-38
0.83578777 -0.0082374457 0.076912023 1.3592372e-38
0.83578777 -0.0057374458 0.074412026 1.6805896e-38
0.83578777 -0.0057374458 0.076912023 1.2858417e-38
0.83578777 -0.0082374457 0.079412021 1.0486864e-38
0.83578777 -0.0082374457 0.081912026 1.3902794e-38
0.83578777 -0.0057374458 0.079412021 1.3261402e-38
0.83578777 -0.0057374458 0.081912026 1.445708e-38
0.83828777 -0.013237446 0.074412026 1.7357284e-38
0.83828777 -0.013237446 0.076912023 1.4510015e-38
0.83828777 -0.010737445 0.074412026 1.7448754e-38
0.83828777 -0.010737445 0.076912023 1.3500535e-38
0.84078777 -0.013237446 0.076912023 1.5705689e-38
0.84078777 -0.010737445 0.076912023 1.3133193e-38
0.83828777 -0.013237446 0.081912026 1.2783553e-38
0.83828777 -0.010737445 0.081912026 1.3994989e-38
0.84078777 -0.013237446 0.079412021 1.2045986e-38
0.84078777 -0.013237446 0.081912026 1.7312603e-38
0.83828777 -0.0082374457 0.074412026 1.7081406e-38
0.83828777 -0.0082374457 0.076912023 1.3317941e-38
0.83828777 -0.0057374458 0.074412026 1.6163047e-38
0.83828777 -0.0057374458 0.076912023 1.2309547e-38
0.84078777 -0.0082374457 0.076912023 1.3409059e-38
0.83828777 -0.0082374457 0.081912026 1.3533298e-38
0.83828777 -0.0057374458 0.081912026 1.4364866e-38
0.83578777 -0.010737445 0.084412023 1.6854508e-38
0.83578777 -0.0082374457 0.084412023 1.5932912e-38
0.83578777 -0.0057374458 0.084412023 1.667083e-38
0.83578777 -0.0057374458 0.089412026 1.1234194e-38
0.83828777 -0.013237446 0.084412023 1.6759782e-38
0.83828777 -0.013237446 0.086912021 1.4178301e-38
0.83828777 -0.010737445 0.084412023 1.5842177e-38
0.83828777 -0.010737445 0.086912021 1.2617458e-38
0.84078777 -0.013237446 0.084412023 1.4178301e-38
0.84078777 -0.013237446 0.086912021 1.3345304e-38
0.83828777 -0.013237446 0.089412026 1.297724e-38
0.83828777 -0.010737445 0.089412026 1.3905324e-38
0.83828777 -0.010737445 0.091912024 1.4175802e-38
0.84078777 -0.013237446 0.089412026 1.6755799e-38
0.84078777 -0.013237446 0.091912024 1.7401872e-38
0.84078777 -0.010737445 0.091912024 1.389994e-38
0.83828777 -0.0082374457 0.084412023 1.5657785e-38
0.83828777 -0.0082374457 0.086912021 1.1418915e-38
0.83828777 -0.0057374458 0.086912021 1.3263175e-38
0.83828777 -0.0082374457 0.089412026 1.3997879e-38
0.83828777 -0.0082374457 0.091912024 1.1877707e-38
0.83828777 -0.0057374458 0.089412026 1.1603326e-38
0.83828777 -0.0057374458 0.091912024 1.261418e-38
0.84078777 -0.0082374457 0.091912024 1.436056e-38
0.84078777 -0.0057374458 0.091912024 1.2429082e-38
0.83328778 -0.0032374456 0.074412026 1.5979376e-38
0.83328778 -0.00073744566 0.074412026 1.6169869e-38
0.83578777 -0.0032374456 0.074412026 1.5795705e-38
0.83578777 -0.0032374456 0.076912023 1.4326337e-38
0.83578777 -0.00073744566 0.074412026 1.4880579e-38
0.83578777 -0.00073744566 0.076912023 1.1295766e-38
0.83328778 -0.0032374456 0.079412021 1.1295766e-38
0.83328778 -0.0032374456 0.081912026 1.3445068e-38
0.83328778 -0.00073744566 0.079412021 9.1835496e-39
0.83328778 -0.00073744566 0.081912026 1.243561e-38
0.83578777 -0.0032374456 0.079412021 1.3445068e-38
0.83578777 -0.0032374456 0.081912026 1.4642497e-38
0.83578777 -0.00073744566 0.079412021 1.2343415e-38
0.83578777 -0.00073744566 0.081912026 1.612019e-38
0.83328778 0.0017625544 0.074412026 1.7724272e-38
0.83328778 0.0042625545 0.074412026 1.717325e-38
0.83578777 0.0017625544 0.076912023 1.0928424e-38
0.83328778 0.0017625544 0.079412021 7.0713332e-39
0.83328778 0.0017625544 0.081912026 1.1882436e-38
0.83328778 0.0042625545 0.079412021 1.3155523e-38
0.83328778 0.0042625545 0.081912026 9.0203838e-39
0.83578777 0.0017625544 0.081912026 1.4737256e-38
0.83828777 -0.0032374456 0.074412026 1.4142666e-38
0.83828777 -0.0032374456 0.081912026 1.4181875e-38
0.83578777 -0.0032374456 0.084412023 1.7129287e-38
0.83578777 -0.0032374456 0.086912021 1.2522391e-38
0.83578777 -0.00073744566 0.084412023 1.6761243e-38
0.83578777 -0.00073744566 0.086912021 1.2339799e-38
0.83578777 -0.0032374456 0.089412026 1.3445068e-38
0.83578777 -0.00073744566 0.089412026 1.3997879e-38
0.83328778 0.0017625544 0.084412023 1.2610941e-38
0.83328778 0.0042625545 0.084412023 1.0214255e-38
0.83328778 0.0042625545 0.086912021 9.6614218e-39
0.83578777 0.0017625544 0.084412023 1.4825135e-38
0.83578777 0.0017625544 0.086912021 1.26099e-38
0.83578777 0.0042625545 0.086912021 9.5678039e-39
0.83328778 0.0017625544 0.089412026 1.1419972e-38
0.83328778 0.0042625545 0.089412026 9.9372702e-39
0.83578777 0.0017625544 0.089412026 1.35369e-38
0.83578777 0.0017625544 0.091912024 1.2427265e-38
0.83828777 -0.0032374456 0.086912021 1.2984443e-38
0.83828777 -0.00073744566 0.086912021 1.2524191e-38
0.83828777 -0.0032374456 0.089412026 1.1878102e-38
0.83828777 -0.0032374456 0.091912024 1.3628365e-38
0.83828777 -0.00073744566 0.089412026 1.7037107e-38
0.83828777 -0.00073744566 0.091912024 1.5750321e-38
0.83828777 0.0017625544 0.086912021 1.2615683e-38
0.83828777 0.0017625544 0.089412026 1.5100999e-38
0.82578778 0.011762555 0.069412023 1.6622225e-38
0.82578778 0.014262554 0.069412023 1.6622225e-38
0.82578778 0.014262554 0.07191202 1.671406e-38
0.83078778 0.0067625544 0.066912025 1.662223e-38
0.83078778 0.0092625543 0.064412028 1.6622225e-38
0.83078778 0.0092625543 0.066912025 1.6989568e-38
0.83078778 0.0067625544 0.069412023 1.6989567e-38
0.83078778 0.0067625544 0.07191202 1.7081402e-38
0.83078778 0.0092625543 0.069412023 1.6805896e-38
0.83078778 0.0092625543 0.07191202 1.7081402e-38
0.82828778 0.011762555 0.066912025 1.6622225e-38
0.82828778 0.014262554 0.066912025 1.6805896e-38
0.83078778 0.011762555 0.064412028 1.6622225e-38
0.83078778 0.011762555 0.066912025 1.6897731e-38
0.83078778 0.014262554 0.064412028 1.6622225e-38
0.83078778 0.014262554 0.066912025 1.6897731e-38
0.82828778 0.011762555 0.07191202 1.7081402e-38
0.82828778 0.014262554 0.07191202 1.7081402e-38
0.83078778 0.011762555 0.069412023 1.6805896e-38
0.83078778 0.011762555 0.07191202 1.7081402e-38
0.83078778 0.014262554 0.069412023 1.7081402e-38
0.83078778 0.014262554 0.07191202 1.6897731e-38
0.82578778 0.016762555 0.066912025 1.6622225e-38
0.82578778 0.019262554 0.066912025 1.6622225e-38
0.82578778 0.016762555 0.069412023 1.6163047e-38
0.82578778 0.016762555 0.07191202 1.6805896e-38
0.82578778 0.019262554 0.069412023 1.6530389e-38
0.82578778 0.019262554 0.07191202 1.6622225e-38
0.82578778 0.021762554 0.066912025 1.6622225e-38
0.82578778 0.024262555 0.066912025 1.6805896e-38
0.82578778 0.021762554 0.069412023 1.6530389e-38
0.82578778 0.021762554 0.07191202 1.6622225e-38
0.82578778 0.024262555 0.069412023 1.6530389e-38
0.82578778 0.024262555 0.07191202 1.6622225e-38
0.82828778 0.016762555 0.066912025 1.6805896e-38
0.82828778 0.019262554 0.064412028 1.671406e-38
0.82828778 0.019262554 0.066912025 1.6622225e-38
0.83078778 0.016762555 0.064412028 1.6622225e-38
0.83078778 0.016762555 0.066912025 1.6805896e-38
0.83078778 0.019262554 0.064412028 1.6622225e-38
0.83078778 0.019262554 0.066912025 1.6805896e-38
0.82828778 0.016762555 0.07191202 1.6438554e-38
0.82828778 0.019262554 0.07191202 1.6254883e-38
0.83078778 0.016762555 0.069412023 1.6805896e-38
0.83078778 0.016762555 0.07191202 1.671406e-38
0.83078778 0.019262554 0.069412023 1.6805896e-38
0.83078778 0.019262554 0.07191202 1.6438554e-38
0.82828778 0.021762554 0.064412028 1.6622225e-38
0.82828778 0.021762554 0.066912025 1.6805896e-38
0.82828778 0.024262555 0.064412028 1.6622226e-38
0.82828778 0.024262555 0.066912025 1.6622225e-38
0.83078778 0.021762554 0.064412028 1.6530389e-38
0.83078778 0.021762554 0.066912025 1.6622225e-38
0.83078778 0.024262555 0.064412028 1.6530389e-38
0.83078778 0.024262555 0.066912025 1.6805896e-38
0.82828778 0.021762554 0.07191202 1.6805896e-38
0.82828778 0.024262555 0.07191202 1.6805896e-38
0.83078778 0.021762554 0.069412023 1.6622225e-38
0.83078778 0.024262555 0.069412023 1.6805896e-38
0.83328778 0.0067625544 0.064412028 1.7173238e-38
0.83328778 0.0067625544 0.066912025 1.7081402e-38
0.83328778 0.0092625543 0.064412028 1.7173238e-38
0.83328778 0.0092625543 0.066912025 1.7173238e-38
0.83578777 0.0067625544 0.066912025 1.7081402e-38
0.83578777 0.0092625543 0.066912025 1.7081402e-38
0.83328778 0.0067625544 0.069412023 1.7265073e-38
0.83328778 0.0067625544 0.07191202 1.6897731e-38
0.83328778 0.0092625543 0.069412023 1.7173238e-38
0.83328778 0.0092625543 0.07191202 1.671406e-38
0.83578777 0.0067625544 0.069412023 1.6989568e-38
0.83578777 0.0067625544 0.07191202 1.6897731e-38
0.83578777 0.0092625543 0.069412023 1.6989568e-38
0.83578777 0.0092625543 0.07191202 1.6989568e-38
0.83328778 0.011762555 0.064412028 1.7081402e-38
0.83328778 0.011762555 0.066912025 1.6897731e-38
0.83328778 0.014262554 0.064412028 1.7081402e-38
0.83328778 0.014262554 0.066912025 1.7081402e-38
0.83578777 0.011762555 0.066912025 1.7081402e-38
0.83328778 0.011762555 0.069412023 1.7081402e-38
0.83328778 0.011762555 0.07191202 1.6530389e-38
0.83328778 0.014262554 0.069412023 1.6897731e-38
0.83328778 0.014262554 0.07191202 1.5979376e-38
0.83328778 0.016762555 0.07191202 1.5428363e-38
0.83328778 0.019262554 0.07191202 1.5152857e-38
0.82578778 0.014262554 0.074412026 1.6805896e-38
0.82828778 0.0092625543 0.074412026 1.6897731e-38
0.83078778 0.0067625544 0.074412026 1.6622225e-38
0.83078778 0.0067625544 0.076912023 1.5153934e-38
0.83078778 0.0092625543 0.074412026 1.6346718e-38
0.83078778 0.0092625543 0.076912023 1.5525709e-38
0.83078778 0.0067625544 0.079412021 1.4827286e-38
0.82828778 0.011762555 0.074412026 1.6163047e-38
0.82828778 0.011762555 0.076912023 1.4604729e-38
0.82828778 0.014262554 0.074412026 1.5979376e-38
0.82828778 0.014262554 0.076912023 1.6356446e-38
0.83078778 0.011762555 0.074412026 1.3775361e-38
0.83078778 0.011762555 0.076912023 1.6171078e-38
0.83078778 0.014262554 0.074412026 1.6449034e-38
0.83078778 0.014262554 0.076912023 1.8405296e-38
0.83078778 0.011762555 0.079412021 1.7037072e-38
0.83078778 0.014262554 0.079412021 1.6760485e-38
0.83078778 0.0092625543 0.086912021 1.2621073e-38
0.83078778 0.0067625544 0.091912024 1.3907478e-38
0.83078778 0.0092625543 0.089412026 1.4917315e-38
0.83078778 0.0092625543 0.091912024 1.464108e-38
0.82828778 0.014262554 0.086912021 1.2528144e-38
0.83078778 0.011762555 0.084412023 1.1882026e-38
0.83078778 0.011762555 0.086912021 1.2250127e-38
0.83078778 0.014262554 0.084412023 1.1974221e-38
0.83078778 0.014262554 0.086912021 1.2803301e-38
0.82828778 0.011762555 0.089412026 1.5014549e-38
0.82828778 0.011762555 0.091912024 1.2888663e-38
0.82828778 0.014262554 0.089412026 1.3539419e-38
0.82828778 0.014262554 0.091912024 1.3441127e-38
0.83078778 0.011762555 0.089412026 1.3809541e-38
0.83078778 0.011762555 0.091912024 1.2797557e-38
0.83078778 0.014262554 0.089412026 1.362837e-38
0.83078778 0.014262554 0.091912024 1.3350731e-38
0.82578778 0.016762555 0.074412026 1.6346718e-38
0.82578778 0.019262554 0.074412026 1.6254883e-38
0.82578778 0.019262554 0.079412021 1.8048018e-38
0.82578778 0.019262554 0.081912026 1.4917331e-38
0.82578778 0.021762554 0.074412026 1.6346718e-38
0.82578778 0.024262555 0.074412026 1.6346718e-38
0.82578778 0.021762554 0.079412021 1.804661e-38
0.82578778 0.021762554 0.081912026 1.4825135e-38
0.82578778 0.024262555 0.079412021 1.9151518e-38
0.82828778 0.016762555 0.074412026 1.5336528e-38
0.82828778 0.016762555 0.076912023 1.8596154e-38
0.82828778 0.019262554 0.074412026 1.5152857e-38
0.82828778 0.019262554 0.076912023 1.8220902e-38
0.83078778 0.016762555 0.074412026 1.6741086e-38
0.83078778 0.016762555 0.076912023 1.8503958e-38
0.83078778 0.019262554 0.074412026 1.7762798e-38
0.82828778 0.016762555 0.079412021 1.6298453e-38
0.82828778 0.016762555 0.081912026 1.4826189e-38
0.82828778 0.019262554 0.079412021 1.5561981e-38
0.82828778 0.019262554 0.081912026 1.4183339e-38
0.83078778 0.016762555 0.079412021 1.7035293e-38
0.83078778 0.019262554 0.079412021 1.5285762e-38
0.82828778 0.021762554 0.074412026 1.5152857e-38
0.82828778 0.021762554 0.076912023 1.9143217e-38
0.82828778 0.024262555 0.074412026 1.570387e-38
0.82828778 0.024262555 0.076912023 1.9055334e-38
0.82828778 0.021762554 0.079412021 1.491698e-38
0.82828778 0.021762554 0.081912026 1.3169547e-38
0.82828778 0.024262555 0.079412021 1.6854511e-38
0.82828778 0.024262555 0.081912026 1.6761905e-38
0.83078778 0.021762554 0.079412021 1.4458879e-38
0.83078778 0.024262555 0.079412021 1.6577928e-38
0.82578778 0.019262554 0.084412023 1.4457441e-38
0.82578778 0.021762554 0.084412023 1.279897e-38
0.82578778 0.024262555 0.084412023 1.7039609e-38
0.82828778 0.016762555 0.084412023 1.2337276e-38
0.82828778 0.016762555 0.086912021 1.6391372e-38
0.82828778 0.019262554 0.084412023 1.1512913e-38
0.82828778 0.019262554 0.086912021 1.4823689e-38
0.83078778 0.016762555 0.084412023 1.3624427e-38
0.83078778 0.016762555 0.086912021 1.6483921e-38
0.83078778 0.019262554 0.084412023 1.3167761e-38
0.83078778 0.019262554 0.086912021 1.4916238e-38
0.82828778 0.016762555 0.089412026 1.4088272e-38
0.82828778 0.016762555 0.091912024 1.3906031e-38
0.82828778 0.019262554 0.089412026 1.381026e-38
0.82828778 0.019262554 0.091912024 1.2429105e-38
0.83078778 0.016762555 0.089412026 1.3260308e-38
0.83078778 0.016762555 0.091912024 1.4365579e-38
0.83078778 0.019262554 0.089412026 1.2614571e-38
0.83078778 0.019262554 0.091912024 1.5379714e-38
0.82828778 0.021762554 0.084412023 1.0129978e-38
0.82828778 0.021762554 0.086912021 1.3810248e-38
0.82828778 0.024262555 0.084412023 1.6855217e-38
0.82828778 0.024262555 0.086912021 1.6853382e-38
0.83078778 0.021762554 0.084412023 1.2706784e-38
0.83078778 0.021762554 0.086912021 1.3717695e-38
0.83078778 0.024262555 0.084412023 1.694523e-38
0.83078778 0.024262555 0.086912021 1.6668678e-38
0.82828778 0.021762554 0.089412026 1.381026e-38
0.82828778 0.021762554 0.091912024 1.3535453e-38
0.82828778 0.024262555 0.089412026 1.7035627e-38
0.82828778 0.024262555 0.091912024 2.3269323e-38
0.83078778 0.021762554 0.089412026 1.3997507e-38
0.83078778 0.021762554 0.091912024 1.547191e-38
0.83078778 0.024262555 0.089412026 1.6944544e-38
0.83078778 0.024262555 0.091912024 1.6852346e-38
0.83328778 0.0067625544 0.074412026 1.6438554e-38
0.83328778 0.0092625543 0.074412026 1.6254883e-38
0.83328778 0.0067625544 0.079412021 1.5833545e-38
0.83328778 0.0067625544 0.081912026 1.0773237e-38
0.83328778 0.0092625543 0.079412021 2.0904282e-38
0.83328778 0.0092625543 0.081912026 1.2064287e-38
0.83578777 0.0067625544 0.081912026 1.2616033e-38
0.83328778 0.011762555 0.074412026 1.6438554e-38
0.83328778 0.011762555 0.079412021 2.0628055e-38
0.83328778 0.011762555 0.081912026 1.1050137e-38
0.83328778 0.014262554 0.079412021 1.869195e-38
0.83328778 0.014262554 0.081912026 1.2799686e-38
0.83578777 0.011762555 0.081912026 1.1789124e-38
0.83328778 0.0067625544 0.084412023 9.8501641e-39
0.83328778 0.0067625544 0.086912021 1.3722731e-38
0.83328778 0.0092625543 0.084412023 1.2434551e-38
0.83328778 0.0092625543 0.086912021 1.2987356e-38
0.83578777 0.0067625544 0.086912021 9.205145e-39
0.83578777 0.0092625543 0.086912021 1.3353968e-38
0.83328778 0.0067625544 0.089412026 1.0219304e-38
0.83328778 0.0092625543 0.089412026 1.4825488e-38
0.83328778 0.011762555 0.084412023 1.0959421e-38
0.83328778 0.011762555 0.086912021 1.3356137e-38
0.83328778 0.014262554 0.084412023 1.2524541e-38
0.83328778 0.014262554 0.086912021 1.3907481e-38
0.83578777 0.011762555 0.086912021 1.3630914e-38
0.83328778 0.011762555 0.089412026 1.4456706e-38
0.83328778 0.014262554 0.089412026 1.2889733e-38
0.83328778 0.016762555 0.079412021 1.6300972e-38
0.83328778 0.016762555 0.081912026 1.2522726e-38
0.83328778 0.016762555 0.084412023 1.2703169e-38
0.83328778 0.016762555 0.086912021 1.4272665e-38
0.83328778 0.019262554 0.086912021 1.3073071e-38
0.83328778 0.021762554 0.086912021 1.3349297e-38
0.83328778 0.021762554 0.089412026 1.4824768e-38
0.83328778 0.024262555 0.089412026 1.676193e-38
0.83578777 0.024262555 0.091912024 1.6210221e-38
0.84328777 -0.013237446 0.064412028 1.6622225e-38
0.84328777 -0.010737445 0.064412028 1.7081402e-38
0.84578776 -0.010737445 0.066912025 1.7173238e-38
0.84328777 -0.013237446 0.069412023 1.7356909e-38
0.84328777 -0.010737445 0.069412023 1.7173238e-38
0.84328777 -0.010737445 0.07191202 1.744876e-38
0.84328777 -0.013237446 0.074412026 1.533943e-38
0.84328777 -0.010737445 0.074412026 1.4420325e-38
0.84328777 -0.013237446 0.084412023 1.417867e-38
0.83078778 0.0042625545 0.094412021 1.0032687e-38
0.83078778 0.0042625545 0.096912026 9.4821075e-39
0.82828778 0.0042625545 0.099412024 1.1511133e-38
0.83078778 0.0042625545 0.099412024 9.48205e-39
0.83078778 0.0042625545 0.10191202 9.4723292e-39
0.83078778 -0.00073744566 0.11191203 1.6254895e-38
0.83078778 0.0042625545 0.10691202 1.3532974e-38
0.83078778 0.0017625544 0.11191203 1.6254883e-38
0.83078778 0.0042625545 0.10941202 1.3522916e-38
0.83078778 0.0042625545 0.11191203 1.6163047e-38
0.83578777 -0.0082374457 0.099412024 1.4548531e-38
0.83578777 -0.0057374458 0.099412024 1.6026195e-38
0.83578777 -0.0057374458 0.10191202 1.2800783e-38
0.83828777 -0.010737445 0.094412021 1.6761243e-38
0.83828777 -0.010737445 0.096912026 1.5563406e-38
0.84078777 -0.013237446 0.094412021 1.657724e-38
0.84078777 -0.013237446 0.096912026 1.4917315e-38
0.84078777 -0.010737445 0.094412021 1.9989496e-38
0.84078777 -0.010737445 0.096912026 1.4642173e-38
0.83828777 -0.013237446 0.099412024 1.4363004e-38
0.83828777 -0.013237446 0.10191202 1.5836358e-38
0.83828777 -0.010737445 0.099412024 1.4271946e-38
0.83828777 -0.010737445 0.10191202 1.4916588e-38
0.84078777 -0.013237446 0.099412024 1.6206216e-38
0.84078777 -0.013237446 0.10191202 1.6114412e-38
0.84078777 -0.010737445 0.099412024 1.5101337e-38
0.84078777 -0.010737445 0.10191202 1.5380091e-38
0.83828777 -0.0082374457 0.094412021 1.6023677e-38
0.83828777 -0.0082374457 0.096912026 1.611658e-38
0.83828777 -0.0057374458 0.094412021 1.7776811e-38
0.83828777 -0.0057374458 0.096912026 1.7869016e-38
0.84078777 -0.0082374457 0.094412021 1.8330335e-38
0.84078777 -0.0057374458 0.094412021 1.7869725e-38
0.83828777 -0.0082374457 0.099412024 1.436451e-38
0.83828777 -0.0082374457 0.10191202 1.3810598e-38
0.83828777 -0.0057374458 0.099412024 1.4275184e-38
0.83828777 -0.0057374458 0.10191202 1.2800783e-38
0.83578777 -0.0082374457 0.10441203 1.5471564e-38
0.83578777 -0.0057374458 0.10441203 1.3719159e-38
0.83828777 -0.013237446 0.10441203 1.611441e-38
0.83828777 -0.013237446 0.10691202 1.8875965e-38
0.83828777 -0.010737445 0.10441203 1.5471557e-38
0.83828777 -0.010737445 0.10691202 1.7952933e-38
0.84078777 -0.013237446 0.10441203 1.7405504e-38
0.84078777 -0.013237446 0.10691202 1.7401163e-38
0.84078777 -0.010737445 0.10441203 1.6208054e-38
0.84078777 -0.010737445 0.10691202 1.8136245e-38
0.83828777 -0.013237446 0.10941202 1.7938499e-38
0.83828777 -0.013237446 0.11191203 1.6530389e-38
0.83828777 -0.010737445 0.10941202 1.6276127e-38
0.83828777 -0.010737445 0.11191203 1.6530389e-38
0.84078777 -0.013237446 0.10941202 1.9214158e-38
0.84078777 -0.013237446 0.11191203 1.671406e-38
0.84078777 -0.010737445 0.10941202 1.763642e-38
0.84078777 -0.010737445 0.11191203 1.6622225e-38
0.83828777 -0.0082374457 0.10441203 1.5656308e-38
0.83828777 -0.0082374457 0.10691202 1.7037455e-38
0.83828777 -0.0057374458 0.10441203 1.362661e-38
0.83828777 -0.0057374458 0.10691202 1.3717341e-38
0.84078777 -0.0082374457 0.10691202 1.8505032e-38
0.84078777 -0.0057374458 0.10691202 1.7394724e-38
0.83828777 -0.0082374457 0.10941202 1.7198081e-38
0.83828777 -0.0082374457 0.11191203 1.6071212e-38
0.83828777 -0.0057374458 0.10941202 1.67281e-38
0.83828777 -0.0057374458 0.11191203 1.6071212e-38
0.84078777 -0.0082374457 0.10941202 1.5795738e-38
0.84078777 -0.0082374457 0.11191203 1.6622225e-38
0.84078777 -0.0057374458 0.10941202 1.5887541e-38
0.84078777 -0.0057374458 0.11191203 1.671406e-38
0.83578777 -0.0032374456 0.094412021 1.5188863e-38
0.83578777 -0.0032374456 0.096912026 1.5466525e-38
0.83578777 -0.00073744566 0.094412021 1.3079165e-38
0.83578777 -0.00073744566 0.096912026 1.4183677e-38
0.83578777 -0.0032374456 0.099412024 1.6026871e-38
0.83578777 -0.0032374456 0.10191202 1.6303125e-38
0.83578777 -0.00073744566 0.099412024 1.7038887e-38
0.83578777 -0.00073744566 0.10191202 1.7772855e-38
0.83328778 0.0017625544 0.094412021 1.1602607e-38
0.83328778 0.0017625544 0.096912026 1.2065014e-38
0.83328778 0.0042625545 0.094412021 1.0398962e-38
0.83328778 0.0042625545 0.096912026 9.1146898e-39
0.83578777 0.0017625544 0.094412021 1.4182636e-38
0.83578777 0.0017625544 0.096912026 1.4275872e-38
0.83328778 0.0017625544 0.099412024 1.2330369e-38
0.83328778 0.0042625545 0.099412024 9.5738953e-39
0.83578777 0.0017625544 0.099412024 1.5379364e-38
0.83578777 0.0017625544 0.10191202 1.5380065e-38
0.83578777 0.0042625545 0.10191202 8.8262662e-39
0.83828777 -0.0032374456 0.094412021 1.7954732e-38
0.83828777 -0.0032374456 0.096912026 1.7588801e-38
0.83828777 -0.00073744566 0.094412021 1.3079165e-38
0.83828777 -0.00073744566 0.096912026 1.40922e-38
0.84078777 -0.0032374456 0.094412021 1.8049407e-38
0.83828777 -0.0032374456 0.099412024 1.4918052e-38
0.83828777 -0.0032374456 0.10191202 1.4274463e-38
0.83328778 -0.00073744566 0.10441203 1.4916576e-38
0.83328778 -0.00073744566 0.10691202 1.5283932e-38
0.83578777 -0.0032374456 0.10441203 1.510028e-38
0.83578777 -0.00073744566 0.10441203 1.4913715e-38
0.83578777 -0.00073744566 0.10691202 1.5836399e-38
0.83328778 -0.00073744566 0.10941202 1.7302118e-38
0.83328778 -0.00073744566 0.11191203 1.6254907e-38
0.83578777 -0.0032374456 0.10941202 1.6346718e-38
0.83578777 -0.00073744566 0.10941202 1.6163047e-38
0.83578777 -0.00073744566 0.11191203 1.5887541e-38
0.83328778 0.0017625544 0.10441203 1.2883186e-38
0.83328778 0.0017625544 0.10691202 1.4721401e-38
0.83328778 0.0042625545 0.10441203 9.0109993e-39
0.83328778 0.0042625545 0.10691202 9.9261593e-39
0.83578777 0.0017625544 0.10441203 1.5374692e-38
0.83578777 0.0017625544 0.10691202 1.4253195e-38
0.83578777 0.0042625545 0.10441203 9.8325246e-39
0.83578777 0.0042625545 0.10691202 1.028701e-38
0.83328778 0.0017625544 0.10941202 1.7095107e-38
0.83328778 0.0017625544 0.11191203 1.6163047e-38
0.83328778 0.0042625545 0.10941202 1.4156686e-38
0.83328778 0.0042625545 0.11191203 1.5887541e-38
0.83578777 0.0017625544 0.10941202 1.7736507e-38
0.83578777 0.0017625544 0.11191203 1.6071212e-38
0.83578777 0.0042625545 0.10941202 1.3407982e-38
0.83578777 0.0042625545 0.11191203 1.5795705e-38
0.83828777 -0.0032374456 0.10441203 1.4639302e-38
0.83828777 -0.0032374456 0.10691202 1.4089721e-38
0.83828777 -0.00073744566 0.10691202 1.5375778e-38
0.84078777 -0.0032374456 0.10691202 1.7669857e-38
0.83828777 -0.0032374456 0.10941202 1.7545631e-38
0.83828777 -0.0032374456 0.11191203 1.6622225e-38
0.83828777 -0.00073744566 0.10941202 1.6530389e-38
0.83828777 -0.00073744566 0.11191203 1.5887541e-38
0.84078777 -0.0032374456 0.10941202 1.6071212e-38
0.84078777 -0.0032374456 0.11191203 1.6622225e-38
0.84078777 -0.00073744566 0.10941202 1.5887541e-38
0.84078777 -0.00073744566 0.11191203 1.6438554e-38
0.83828777 0.0017625544 0.10691202 1.5467974e-38
0.83078778 -0.013237446 0.11691202 1.6254883e-38
0.83078778 -0.0057374458 0.11691202 1.6163047e-38
0.82828778 -0.0057374458 0.12191202 1.6530396e-38
0.83078778 -0.0057374458 0.11941203 1.6530389e-38
0.83078778 -0.0057374458 0.12191202 1.6530389e-38
0.82578778 -0.010737445 0.12691203 1.6254883e-38
0.82578778 -0.0082374457 0.12691203 1.6530389e-38
0.82578778 -0.0057374458 0.12691203 1.6622225e-38
0.82828778 -0.010737445 0.12941203 1.6346718e-38
0.82828778 -0.010737445 0.13191202 1.6530389e-38
0.83078778 -0.010737445 0.13191202 1.6622225e-38
0.82828778 -0.0082374457 0.12441202 1.6622225e-38
0.82828778 -0.0082374457 0.12691203 1.6805896e-38
0.82828778 -0.0057374458 0.12441202 1.671406e-38
0.82828778 -0.0057374458 0.12691203 1.671406e-38
0.83078778 -0.0082374457 0.12441202 1.6530389e-38
0.83078778 -0.0082374457 0.12691203 1.6530389e-38
0.83078778 -0.0057374458 0.12441202 1.6622225e-38
0.83078778 -0.0057374458 0.12691203 1.6622225e-38
0.82828778 -0.0082374457 0.12941203 1.6622225e-38
0.82828778 -0.0082374457 0.13191202 1.6805896e-38
0.82828778 -0.0057374458 0.12941203 1.6530389e-38
0.82828778 -0.0057374458 0.13191202 1.6805896e-38
0.83078778 -0.0082374457 0.12941203 1.671406e-38
0.83078778 -0.0082374457 0.13191202 1.6989567e-38
0.83078778 -0.0057374458 0.13191202 1.7999757e-38
0.83078778 -0.0032374456 0.11691202 1.6346718e-38
0.83078778 -0.00073744566 0.11691202 1.6071212e-38
0.82828778 -0.0032374456 0.12191202 1.6622225e-38
0.82828778 -0.00073744566 0.12191202 1.5887541e-38
0.83078778 -0.0032374456 0.11941203 1.6622225e-38
0.83078778 -0.0032374456 0.12191202 1.6346718e-38
0.83078778 -0.00073744566 0.11941203 1.5979376e-38
0.83078778 -0.00073744566 0.12191202 1.5795705e-38
0.82828778 0.0042625545 0.11441202 1.5887544e-38
0.83078778 0.0017625544 0.11441202 1.5979376e-38
0.83078778 0.0017625544 0.11691202 1.5795705e-38
0.83078778 0.0042625545 0.11441202 1.6071212e-38
0.83078778 0.0042625545 0.11691202 1.6071212e-38
0.82828778 0.0017625544 0.12191202 1.5612034e-38
0.82828778 0.0042625545 0.12191202 1.5795705e-38
0.83078778 0.0017625544 0.11941203 1.5428363e-38
0.83078778 0.0017625544 0.12191202 1.5612034e-38
0.83078778 0.0042625545 0.11941203 1.5428363e-38
0.83078778 0.0042625545 0.12191202 1.570387e-38
0.82578778 -0.00073744566 0.13191202 1.6989567e-38
0.82578778 0.0017625544 0.12691203 1.6254883e-38
0.82578778 0.0017625544 0.13191202 1.7265073e-38
