# .PCD v0.7 - Point Cloud Data file format
VERSION 0.7
FIELDS x y z rgb
SIZE 4 4 4 4
TYPE F F F F
COUNT 1 1 1 1
WIDTH 971
HEIGHT 1
VIEWPOINT 0 0 0 1 0 0 0
POINTS 971
DATA ascii
0.85046631 -0.04195375 0.076889969 1.7448758e-38
0.84796631 -0.04195375 0.081889972 1.7999764e-38
0.85046631 -0.044453751 0.081889972 1.7448748e-38
0.85046631 -0.04195375 0.079389967 1.800013e-38
0.85046631 -0.04195375 0.081889972 1.7632415e-38
0.84796631 -0.036953751 0.076889969 1.6443954e-38
0.85046631 -0.039453749 0.074389972 1.7265084e-38
0.85046631 -0.039453749 0.076889969 1.735692e-38
0.85046631 -0.036953751 0.074389972 1.5983345e-38
0.85046631 -0.036953751 0.076889969 1.5064633e-38
0.84796631 -0.039453749 0.081889972 1.7081402e-38
0.84796631 -0.036953751 0.079389967 1.533944e-38
0.84796631 -0.036953751 0.081889972 1.2316772e-38
0.85046631 -0.039453749 0.079389967 1.7173239e-38
0.85046631 -0.039453749 0.081889972 1.6989567e-38
0.85046631 -0.036953751 0.079389967 1.259121e-38
0.85046631 -0.036953751 0.081889972 1.1672131e-38
0.85296631 -0.054453749 0.066889971 1.6906746e-38
0.85296631 -0.051953752 0.066889971 1.6996778e-38
0.85546637 -0.054453749 0.066889971 1.7179723e-38
0.85546637 -0.051953752 0.066889971 1.7271919e-38
0.85296631 -0.054453749 0.069389969 1.7916219e-38
0.85296631 -0.054453749 0.071889967 1.8005182e-38
0.85296631 -0.051953752 0.069389969 1.6993219e-38
0.85296631 -0.051953752 0.071889967 1.73616e-38
0.85546637 -0.054453749 0.069389969 1.7271919e-38
0.85546637 -0.051953752 0.069389969 1.7271919e-38
0.85296631 -0.04945375 0.066889971 1.6994623e-38
0.85296631 -0.046953749 0.066889971 1.6993553e-38
0.85296631 -0.04945375 0.069389969 1.6992835e-38
0.85296631 -0.04945375 0.071889967 1.7175781e-38
0.85296631 -0.046953749 0.069389969 1.7266533e-38
0.85296631 -0.046953749 0.071889967 1.6899546e-38
0.85796636 -0.054453749 0.069389969 1.73616e-38
0.85796636 -0.054453749 0.071889967 1.7637827e-38
0.85796636 -0.051953752 0.071889967 1.7362319e-38
0.85296631 -0.054453749 0.076889969 1.7637477e-38
0.85296631 -0.051953752 0.074389972 1.8095565e-38
0.85296631 -0.051953752 0.076889969 1.7451995e-38
0.85546637 -0.054453749 0.074389972 1.7545631e-38
0.85546637 -0.051953752 0.074389972 1.73616e-38
0.85546637 -0.051953752 0.076889969 1.7910468e-38
0.85296631 -0.054453749 0.079389967 1.7270471e-38
0.85296631 -0.054453749 0.081889972 1.708536e-38
0.85296631 -0.051953752 0.079389967 1.7362667e-38
0.85296631 -0.051953752 0.081889972 1.7361948e-38
0.85546637 -0.051953752 0.079389967 1.7451255e-38
0.85296631 -0.04945375 0.074389972 1.7176856e-38
0.85296631 -0.04945375 0.076889969 1.7266178e-38
0.85296631 -0.046953749 0.074389972 1.744876e-38
0.85296631 -0.046953749 0.076889969 1.744876e-38
0.85546637 -0.04945375 0.074389972 1.7266896e-38
0.85546637 -0.04945375 0.076889969 1.7176486e-38
0.85546637 -0.046953749 0.074389972 1.7174685e-38
0.85546637 -0.046953749 0.076889969 1.7450196e-38
0.85296631 -0.04945375 0.079389967 1.7269402e-38
0.85296631 -0.046953749 0.079389967 1.7910455e-38
0.85296631 -0.046953749 0.081889972 1.7265097e-38
0.85546637 -0.04945375 0.079389967 1.7265106e-38
0.85546637 -0.046953749 0.079389967 1.7265097e-38
0.85796636 -0.054453749 0.074389972 1.7362319e-38
0.85796636 -0.051953752 0.074389972 1.7362319e-38
0.85796636 -0.051953752 0.076889969 1.7267247e-38
0.86046636 -0.054453749 0.074389972 1.7637108e-38
0.86046636 -0.051953752 0.074389972 1.7361969e-38
0.86046636 -0.051953752 0.076889969 1.7268696e-38
0.85796636 -0.046953749 0.076889969 1.7265805e-38
0.85296631 -0.044453751 0.066889971 1.7450902e-38
0.85296631 -0.04195375 0.066889971 1.7081423e-38
0.85546637 -0.044453751 0.066889971 1.6898822e-38
0.85546637 -0.04195375 0.066889971 1.7083211e-38
0.85296631 -0.044453751 0.069389969 1.7267603e-38
0.85296631 -0.044453751 0.071889967 1.7448771e-38
0.85296631 -0.04195375 0.069389969 1.7083211e-38
0.85296631 -0.04195375 0.071889967 1.744876e-38
0.85296631 -0.039453749 0.066889971 1.7081771e-38
0.85296631 -0.036953751 0.066889971 1.7448755e-38
0.85546637 -0.039453749 0.066889971 1.7448764e-38
0.85546637 -0.036953751 0.066889971 1.7356917e-38
0.85296631 -0.039453749 0.069389969 1.7356917e-38
0.85296631 -0.036953751 0.069389969 1.7540584e-38
0.85296631 -0.044453751 0.074389972 1.7540597e-38
0.85296631 -0.044453751 0.076889969 1.7540587e-38
0.85296631 -0.04195375 0.074389972 1.744876e-38
0.85296631 -0.04195375 0.076889969 1.7540587e-38
0.85546637 -0.044453751 0.074389972 1.7358e-38
0.85546637 -0.044453751 0.076889969 1.7265805e-38
0.85546637 -0.04195375 0.074389972 1.7265805e-38
0.85296631 -0.044453751 0.079389967 1.7450538e-38
0.85296631 -0.044453751 0.081889972 1.7265075e-38
0.85296631 -0.04195375 0.079389967 1.7999759e-38
0.85546637 -0.044453751 0.079389967 1.7540938e-38
0.85546637 -0.04195375 0.079389967 1.744876e-38
0.85296631 -0.039453749 0.074389972 1.7265075e-38
0.85296631 -0.039453749 0.076889969 1.7356928e-38
0.85296631 -0.036953751 0.074389972 1.6073398e-38
0.85296631 -0.039453749 0.079389967 1.754058e-38
0.85296631 -0.036953751 0.079389967 1.2316421e-38
0.85796636 -0.044453751 0.076889969 1.7448748e-38
0.84796631 -0.054453749 0.08438997 1.7727877e-38
0.84796631 -0.051953752 0.08438997 1.8187764e-38
0.85046631 -0.054453749 0.086889967 1.7359802e-38
0.85046631 -0.051953752 0.086889967 1.7542392e-38
0.84796631 -0.054453749 0.089389972 1.7359802e-38
0.84796631 -0.051953752 0.089389972 1.7267247e-38
0.85046631 -0.054453749 0.089389972 1.7450918e-38
0.85046631 -0.054453749 0.09188997 1.6899193e-38
0.85046631 -0.051953752 0.089389972 1.7450918e-38
0.85046631 -0.051953752 0.09188997 1.7175781e-38
0.84796631 -0.04945375 0.08438997 1.7450199e-38
0.85046631 -0.04945375 0.086889967 1.7358e-38
0.85046631 -0.046953749 0.086889967 1.79083e-38
0.84796631 -0.04945375 0.089389972 1.7265805e-38
0.84796631 -0.046953749 0.089389972 1.7266155e-38
0.85046631 -0.04945375 0.089389972 1.7266884e-38
0.85046631 -0.04945375 0.09188997 1.7265805e-38
0.85046631 -0.046953749 0.089389972 1.744948e-38
0.85046631 -0.046953749 0.09188997 1.7265805e-38
0.85046631 -0.054453749 0.094389968 1.7361598e-38
0.85046631 -0.051953752 0.094389968 1.7269402e-38
0.85046631 -0.04945375 0.094389968 1.7450918e-38
0.85046631 -0.046953749 0.094389968 1.744876e-38
0.84546632 -0.04195375 0.086889967 1.7448758e-38
0.84546632 -0.039453749 0.086889967 1.6989567e-38
0.84796631 -0.044453751 0.08438997 1.744983e-38
0.84796631 -0.04195375 0.08438997 1.790865e-38
0.84796631 -0.04195375 0.086889967 1.744876e-38
0.85046631 -0.044453751 0.086889967 1.7265075e-38
0.85046631 -0.04195375 0.086889967 1.754058e-38
0.84796631 -0.044453751 0.089389972 1.7448746e-38
0.84796631 -0.044453751 0.09188997 1.7632418e-38
0.84796631 -0.04195375 0.089389972 1.7448762e-38
0.84796631 -0.04195375 0.09188997 1.744876e-38
0.85046631 -0.044453751 0.089389972 1.7173239e-38
0.85046631 -0.044453751 0.09188997 1.744876e-38
0.85046631 -0.04195375 0.09188997 1.7356919e-38
0.84796631 -0.039453749 0.08438997 1.6989567e-38
0.84796631 -0.039453749 0.086889967 1.6989567e-38
0.84796631 -0.036953751 0.08438997 1.1580283e-38
0.85046631 -0.039453749 0.086889967 1.6989571e-38
0.85046631 -0.036953751 0.086889967 1.2495017e-38
0.84796631 -0.039453749 0.089389972 1.6989578e-38
0.84796631 -0.039453749 0.09188997 1.6989577e-38
0.84796631 -0.036953751 0.089389972 1.5446349e-38
0.84796631 -0.036953751 0.09188997 1.2131292e-38
0.85046631 -0.039453749 0.09188997 1.7173238e-38
0.84546632 -0.04195375 0.094389968 1.7540625e-38
0.84546632 -0.039453749 0.094389968 1.6897731e-38
0.84546632 -0.036953751 0.094389968 1.1853991e-38
0.84546632 -0.036953751 0.10188997 1.5540729e-38
0.84796631 -0.044453751 0.094389968 1.7448757e-38
0.84796631 -0.04195375 0.094389968 1.744876e-38
0.84796631 -0.04195375 0.096889973 1.7448791e-38
0.85046631 -0.044453751 0.094389968 1.7265805e-38
0.85046631 -0.04195375 0.094389968 1.7265805e-38
0.85046631 -0.04195375 0.096889973 1.7265436e-38
0.84796631 -0.04195375 0.09938997 1.7540597e-38
0.85046631 -0.044453751 0.10188997 1.7173245e-38
0.85046631 -0.04195375 0.09938997 1.7265086e-38
0.85046631 -0.04195375 0.10188997 1.754058e-38
0.84796631 -0.039453749 0.094389968 1.7173277e-38
0.84796631 -0.039453749 0.096889973 1.6989567e-38
0.84796631 -0.036953751 0.094389968 1.2040869e-38
0.84796631 -0.036953751 0.096889973 1.1764304e-38
0.85046631 -0.039453749 0.094389968 1.6989578e-38
0.85046631 -0.039453749 0.096889973 1.7081416e-38
0.85046631 -0.036953751 0.094389968 1.2314251e-38
0.85046631 -0.036953751 0.096889973 1.231566e-38
0.84796631 -0.039453749 0.09938997 1.698957e-38
0.84796631 -0.036953751 0.09938997 1.6003486e-38
0.84796631 -0.036953751 0.10188997 1.6731321e-38
0.85046631 -0.039453749 0.09938997 1.7173241e-38
0.85046631 -0.039453749 0.10188997 1.6989567e-38
0.85046631 -0.036953751 0.10188997 1.378214e-38
0.85296631 -0.054453749 0.08438997 1.7267956e-38
0.85296631 -0.054453749 0.086889967 1.7452346e-38
0.85296631 -0.051953752 0.08438997 1.7452348e-38
0.85296631 -0.051953752 0.086889967 1.7360149e-38
0.85296631 -0.054453749 0.089389972 1.7269402e-38
0.85296631 -0.054453749 0.09188997 1.7360519e-38
0.85296631 -0.051953752 0.089389972 1.7269402e-38
0.85296631 -0.051953752 0.09188997 1.7176486e-38
0.85296631 -0.04945375 0.08438997 1.7265805e-38
0.85296631 -0.046953749 0.08438997 1.7448768e-38
0.85296631 -0.046953749 0.086889967 1.7540595e-38
0.85296631 -0.04945375 0.089389972 1.7266884e-38
0.85296631 -0.04945375 0.09188997 1.7265099e-38
0.85296631 -0.046953749 0.089389972 1.7633511e-38
0.85296631 -0.046953749 0.09188997 1.7540594e-38
0.85296631 -0.054453749 0.096889973 1.7266546e-38
0.85296631 -0.051953752 0.096889973 1.717435e-38
0.85546637 -0.054453749 0.094389968 1.7542762e-38
0.85546637 -0.054453749 0.096889973 1.7634241e-38
0.85546637 -0.051953752 0.094389968 1.7818253e-38
0.85546637 -0.051953752 0.096889973 1.7634587e-38
0.85296631 -0.054453749 0.09938997 1.7544559e-38
0.85296631 -0.054453749 0.10188997 1.7179001e-38
0.85296631 -0.051953752 0.09938997 1.708394e-38
0.85296631 -0.051953752 0.10188997 1.7175036e-38
0.85546637 -0.054453749 0.09938997 1.7544191e-38
0.85546637 -0.054453749 0.10188997 1.7544559e-38
0.85546637 -0.051953752 0.09938997 1.7175407e-38
0.85546637 -0.051953752 0.10188997 1.708394e-38
0.85296631 -0.04945375 0.096889973 1.7266884e-38
0.85296631 -0.046953749 0.096889973 1.7265805e-38
0.85546637 -0.04945375 0.094389968 1.744983e-38
0.85546637 -0.04945375 0.096889973 1.7265805e-38
0.85546637 -0.046953749 0.094389968 1.7540597e-38
0.85546637 -0.046953749 0.096889973 1.7265084e-38
0.85296631 -0.04945375 0.09938997 1.7081426e-38
0.85296631 -0.04945375 0.10188997 1.7265805e-38
0.85296631 -0.046953749 0.09938997 1.7448757e-38
0.85296631 -0.046953749 0.10188997 1.7448757e-38
0.85546637 -0.04945375 0.09938997 1.7266155e-38
0.85546637 -0.04945375 0.10188997 1.7081423e-38
0.85546637 -0.046953749 0.09938997 1.7265097e-38
0.85796636 -0.054453749 0.096889973 1.7270118e-38
0.85796636 -0.051953752 0.096889973 1.7633496e-38
0.85796636 -0.054453749 0.09938997 1.7269399e-38
0.85796636 -0.054453749 0.10188997 1.7270118e-38
0.85796636 -0.051953752 0.09938997 1.7177203e-38
0.85796636 -0.051953752 0.10188997 1.6993891e-38
0.85796636 -0.04945375 0.096889973 1.7173238e-38
0.85796636 -0.046953749 0.096889973 1.7265084e-38
0.85796636 -0.04945375 0.09938997 1.7174685e-38
0.85796636 -0.04945375 0.10188997 1.7174701e-38
0.85296631 -0.044453751 0.08438997 1.754058e-38
0.85296631 -0.044453751 0.086889967 1.744876e-38
0.85296631 -0.04195375 0.08438997 1.7265075e-38
0.85296631 -0.044453751 0.089389972 1.7540591e-38
0.85296631 -0.044453751 0.09188997 1.7540591e-38
0.85296631 -0.044453751 0.096889973 1.7357632e-38
0.85296631 -0.04195375 0.096889973 1.7356909e-38
0.85546637 -0.044453751 0.094389968 1.7356909e-38
0.85546637 -0.044453751 0.096889973 1.7081771e-38
0.85296631 -0.044453751 0.09938997 1.7081408e-38
0.85296631 -0.044453751 0.10188997 1.7081771e-38
0.85296631 -0.04195375 0.09938997 1.7081408e-38
0.85296631 -0.04195375 0.10188997 1.7356917e-38
0.84046632 -0.046953749 0.13438997 1.7265073e-38
0.84046632 -0.04195375 0.12688997 1.6438557e-38
0.84046632 -0.04195375 0.13188997 1.7724252e-38
0.84046632 -0.039453749 0.12688997 1.625489e-38
0.84046632 -0.036953751 0.12438997 1.5979376e-38
0.84046632 -0.036953751 0.12688997 1.6254883e-38
0.83796632 -0.036953751 0.13188997 1.7724251e-38
0.84046632 -0.039453749 0.13188997 1.7265073e-38
0.84046632 -0.036953751 0.13188997 1.7356909e-38
0.84046632 -0.044453751 0.13438997 1.8000148e-38
0.84046632 -0.04195375 0.13438997 1.8092345e-38
0.84046632 -0.039453749 0.13438997 1.8918491e-38
0.84046632 -0.036953751 0.13438997 1.9469868e-38
0.85046631 -0.059453752 0.10938997 1.4785515e-38
0.85046631 -0.056953751 0.10938997 1.6994272e-38
0.85046631 -0.056953751 0.11188997 1.6996077e-38
0.85046631 -0.06195375 0.11938997 2.2292594e-38
0.85046631 -0.06195375 0.12188997 2.229152e-38
0.85046631 -0.059453752 0.11688997 1.487735e-38
0.85046631 -0.056953751 0.11438997 1.6998225e-38
0.85046631 -0.056953751 0.11688997 1.4510027e-38
0.85046631 -0.059453752 0.11938997 1.4877359e-38
0.85046631 -0.059453752 0.12188997 1.4601844e-38
0.85046631 -0.056953751 0.11938997 1.6630519e-38
0.85046631 -0.056953751 0.12188997 1.5152871e-38
0.85296631 -0.06195375 0.11188997 2.3462345e-38
0.85546637 -0.06195375 0.10938997 2.3462701e-38
0.85546637 -0.06195375 0.11188997 2.3461978e-38
0.85296631 -0.056953751 0.10688997 1.7086118e-38
0.85546637 -0.056953751 0.10438997 1.7274086e-38
0.85296631 -0.059453752 0.11188997 1.5152857e-38
0.85296631 -0.056953751 0.10938997 1.7087177e-38
0.85296631 -0.056953751 0.11188997 1.5612075e-38
0.85546637 -0.059453752 0.10938997 1.4969186e-38
0.85546637 -0.059453752 0.11188997 1.4693679e-38
0.85546637 -0.056953751 0.10938997 1.5244719e-38
0.85546637 -0.056953751 0.11188997 1.5520217e-38
0.85796636 -0.056953751 0.10438997 1.6993203e-38
0.85296631 -0.06195375 0.11438997 2.34609e-38
0.85296631 -0.06195375 0.11688997 2.2659934e-38
0.85546637 -0.06195375 0.11438997 2.34609e-38
0.85546637 -0.06195375 0.11688997 2.3458052e-38
0.85296631 -0.06195375 0.11938997 2.2475188e-38
0.85296631 -0.06195375 0.12188997 2.345947e-38
0.85546637 -0.06195375 0.11938997 2.219969e-38
0.85296631 -0.059453752 0.11438997 1.4785515e-38
0.85296631 -0.059453752 0.11688997 1.4785515e-38
0.85296631 -0.056953751 0.11438997 1.4879521e-38
0.85296631 -0.056953751 0.11688997 1.4788044e-38
0.85546637 -0.059453752 0.11438997 1.4785515e-38
0.85546637 -0.059453752 0.11688997 1.4877359e-38
0.85546637 -0.056953751 0.11438997 1.4693689e-38
0.85546637 -0.056953751 0.11688997 1.6904231e-38
0.85296631 -0.059453752 0.11938997 1.4785515e-38
0.85296631 -0.059453752 0.12188997 1.4969186e-38
0.85296631 -0.056953751 0.11938997 1.4877711e-38
0.85296631 -0.056953751 0.12188997 1.5336552e-38
0.85546637 -0.059453752 0.11938997 1.451001e-38
0.85546637 -0.056953751 0.11938997 1.441818e-38
0.85796636 -0.06195375 0.11438997 2.3460544e-38
0.86046636 -0.06195375 0.11688997 2.3459823e-38
0.85796636 -0.06195375 0.11938997 2.2475541e-38
0.86046636 -0.06195375 0.12188997 2.2838149e-38
0.85796636 -0.059453752 0.11438997 1.4510008e-38
0.85796636 -0.056953751 0.11438997 1.5340131e-38
0.85796636 -0.059453752 0.11938997 1.4785515e-38
0.85796636 -0.056953751 0.11938997 1.6808442e-38
0.85046631 -0.064453751 0.12438997 2.3493684e-38
0.85046631 -0.06195375 0.12438997 2.2475541e-38
0.84796631 -0.056953751 0.12438997 1.6717692e-38
0.85046631 -0.059453752 0.12438997 1.4969186e-38
0.85046631 -0.056953751 0.12438997 1.49692e-38
0.85046631 -0.056953751 0.12688997 1.6992835e-38
0.85046631 -0.056953751 0.12938997 1.7173249e-38
0.86046636 -0.066953748 0.12688997 1.470126e-38
0.86046636 -0.066953748 0.12938997 1.5716138e-38
0.85296631 -0.064453751 0.12438997 2.3493666e-38
0.85296631 -0.064453751 0.12688997 2.3492877e-38
0.85296631 -0.06195375 0.12438997 2.3459496e-38
0.85296631 -0.06195375 0.12688997 2.3453391e-38
0.85546637 -0.064453751 0.12688997 1.8188114e-38
0.85546637 -0.06195375 0.12438997 2.3453008e-38
0.85546637 -0.06195375 0.12688997 1.6805918e-38
0.85296631 -0.059453752 0.12438997 1.4969197e-38
0.85296631 -0.059453752 0.12688997 1.6071252e-38
0.85296631 -0.056953751 0.12438997 1.4693684e-38
0.85296631 -0.056953751 0.12688997 1.5703891e-38
0.85546637 -0.059453752 0.12438997 1.6071231e-38
0.85546637 -0.059453752 0.12688997 1.7081428e-38
0.85546637 -0.056953751 0.12438997 1.5428377e-38
0.85546637 -0.056953751 0.12688997 1.6714077e-38
0.85296631 -0.056953751 0.12938997 1.8183445e-38
0.85296631 -0.056953751 0.13188997 2.0118128e-38
0.85796636 -0.064453751 0.12438997 1.7910438e-38
0.85796636 -0.064453751 0.12688997 1.6254883e-38
0.85796636 -0.06195375 0.12438997 1.7081416e-38
0.85796636 -0.06195375 0.12688997 1.6071212e-38
0.86046636 -0.064453751 0.12688997 1.5612034e-38
0.86046636 -0.06195375 0.12438997 1.6897748e-38
0.86046636 -0.06195375 0.12688997 1.7081771e-38
0.86046636 -0.064453751 0.12938997 1.6071231e-38
0.86046636 -0.06195375 0.12938997 1.7821156e-38
0.85796636 -0.059453752 0.12438997 1.6989579e-38
0.85796636 -0.059453752 0.12688997 1.781613e-38
0.85796636 -0.056953751 0.12438997 1.6714074e-38
0.85796636 -0.056953751 0.12688997 1.8367126e-38
0.86046636 -0.059453752 0.12438997 1.7632464e-38
0.86046636 -0.059453752 0.12688997 1.8836394e-38
0.85046631 -0.054453749 0.10938997 1.7177922e-38
0.85046631 -0.054453749 0.11188997 1.717937e-38
0.85046631 -0.051953752 0.10938997 1.6993891e-38
0.84796631 -0.046953749 0.10438997 1.7265084e-38
0.84796631 -0.046953749 0.10688997 1.7081426e-38
0.85046631 -0.046953749 0.10438997 1.7173257e-38
0.85046631 -0.046953749 0.10688997 1.7265084e-38
0.84796631 -0.046953749 0.10938997 1.6989598e-38
0.85046631 -0.04945375 0.10938997 1.6899546e-38
0.85046631 -0.046953749 0.10938997 1.6989595e-38
0.85046631 -0.046953749 0.11188997 1.6897748e-38
0.84546632 -0.046953749 0.11688997 1.6622236e-38
0.84546632 -0.046953749 0.11938997 1.6071224e-38
0.84796631 -0.051953752 0.11438997 1.6994607e-38
0.85046631 -0.054453749 0.11438997 1.7820776e-38
0.85046631 -0.054453749 0.11688997 1.7268696e-38
0.85046631 -0.051953752 0.11438997 1.6900265e-38
0.85046631 -0.051953752 0.11688997 1.6899912e-38
0.84796631 -0.051953752 0.11938997 1.6165222e-38
0.85046631 -0.054453749 0.11938997 1.7176152e-38
0.85046631 -0.054453749 0.12188997 1.6719115e-38
0.85046631 -0.051953752 0.11938997 1.6442155e-38
0.85046631 -0.051953752 0.12188997 1.6534356e-38
0.84796631 -0.04945375 0.11688997 1.6438935e-38
0.84796631 -0.046953749 0.11438997 1.6806629e-38
0.84796631 -0.046953749 0.11688997 1.6531118e-38
0.85046631 -0.04945375 0.11438997 1.6715875e-38
0.85046631 -0.04945375 0.11688997 1.6438935e-38
0.85046631 -0.046953749 0.11438997 1.6806629e-38
0.85046631 -0.046953749 0.11688997 1.6438568e-38
0.84796631 -0.04945375 0.11938997 1.6165222e-38
0.84796631 -0.04945375 0.12188997 1.5981184e-38
0.84796631 -0.046953749 0.11938997 1.5979383e-38
0.84796631 -0.046953749 0.12188997 1.5981184e-38
0.85046631 -0.04945375 0.11938997 1.6165928e-38
0.85046631 -0.04945375 0.12188997 1.5890786e-38
0.85046631 -0.046953749 0.11938997 1.5888987e-38
0.85046631 -0.046953749 0.12188997 1.634996e-38
0.84796631 -0.044453751 0.10438997 1.7448755e-38
0.84796631 -0.044453751 0.10688997 1.7173243e-38
0.84796631 -0.04195375 0.10438997 1.7356917e-38
0.85046631 -0.044453751 0.10438997 1.7173245e-38
0.85046631 -0.044453751 0.10688997 1.7081408e-38
0.85046631 -0.04195375 0.10438997 1.7081408e-38
0.85046631 -0.04195375 0.10688997 1.7081408e-38
0.84796631 -0.044453751 0.10938997 1.7081405e-38
0.85046631 -0.044453751 0.10938997 1.7081416e-38
0.85046631 -0.044453751 0.11188997 1.7173252e-38
0.85046631 -0.04195375 0.10938997 1.7081416e-38
0.85046631 -0.04195375 0.11188997 1.6805904e-38
0.84796631 -0.039453749 0.10438997 1.6989567e-38
0.84796631 -0.036953751 0.10438997 1.4513954e-38
0.85046631 -0.039453749 0.10438997 1.6989598e-38
0.85046631 -0.039453749 0.10688997 1.6989579e-38
0.85046631 -0.036953751 0.10438997 1.451252e-38
0.85046631 -0.036953751 0.10688997 1.6254901e-38
0.84796631 -0.036953751 0.10938997 1.6714077e-38
0.84796631 -0.036953751 0.11188997 1.6989591e-38
0.85046631 -0.039453749 0.10938997 1.6714069e-38
0.85046631 -0.039453749 0.11188997 1.6438558e-38
0.85046631 -0.036953751 0.10938997 1.6805906e-38
0.85046631 -0.036953751 0.11188997 1.6805901e-38
0.84546632 -0.044453751 0.11688997 1.6805907e-38
0.84546632 -0.04195375 0.11688997 1.6438559e-38
0.84296632 -0.04195375 0.12188997 1.5979383e-38
0.84546632 -0.044453751 0.11938997 1.6254893e-38
0.84546632 -0.04195375 0.11938997 1.5887541e-38
0.84296632 -0.036953751 0.11688997 1.6438554e-38
0.84546632 -0.039453749 0.11688997 1.6530396e-38
0.84546632 -0.036953751 0.11438997 1.6714065e-38
0.84546632 -0.036953751 0.11688997 1.6346727e-38
0.84296632 -0.039453749 0.12188997 1.5979383e-38
0.84296632 -0.036953751 0.11938997 1.6071212e-38
0.84296632 -0.036953751 0.12188997 1.5887541e-38
0.84546632 -0.039453749 0.11938997 1.6071212e-38
0.84546632 -0.036953751 0.11938997 1.579571e-38
0.84796631 -0.044453751 0.11438997 1.6805904e-38
0.84796631 -0.044453751 0.11688997 1.6438568e-38
0.84796631 -0.04195375 0.11438997 1.6530395e-38
0.84796631 -0.04195375 0.11688997 1.6254895e-38
0.85046631 -0.044453751 0.11438997 1.6622232e-38
0.85046631 -0.044453751 0.11688997 1.6438568e-38
0.85046631 -0.04195375 0.11438997 1.6438558e-38
0.85046631 -0.04195375 0.11688997 1.6254895e-38
0.84796631 -0.044453751 0.11938997 1.6254895e-38
0.84796631 -0.044453751 0.12188997 1.6346741e-38
0.84796631 -0.04195375 0.11938997 1.6071223e-38
0.84796631 -0.04195375 0.12188997 1.5979395e-38
0.84796631 -0.039453749 0.11438997 1.6346718e-38
0.84796631 -0.039453749 0.11688997 1.6346718e-38
0.84796631 -0.036953751 0.11438997 1.6622232e-38
0.84796631 -0.036953751 0.11688997 1.625489e-38
0.85046631 -0.039453749 0.11438997 1.6438554e-38
0.84796631 -0.039453749 0.11938997 1.570387e-38
0.84796631 -0.039453749 0.12188997 1.6071224e-38
0.84796631 -0.036953751 0.12188997 1.6071212e-38
0.85296631 -0.054453749 0.10438997 1.8005888e-38
0.85296631 -0.054453749 0.10688997 1.7177922e-38
0.85296631 -0.051953752 0.10438997 1.7542392e-38
0.85296631 -0.051953752 0.10688997 1.7177922e-38
0.85546637 -0.054453749 0.10438997 1.7269399e-38
0.85546637 -0.051953752 0.10438997 1.7635663e-38
0.85296631 -0.054453749 0.10938997 1.6901694e-38
0.85296631 -0.054453749 0.11188997 1.7176134e-38
0.85296631 -0.051953752 0.10938997 1.7177922e-38
0.85296631 -0.051953752 0.11188997 1.6900265e-38
0.85546637 -0.054453749 0.10938997 1.7361963e-38
0.85546637 -0.051953752 0.10938997 1.6991742e-38
0.85296631 -0.04945375 0.10438997 1.7174685e-38
0.85296631 -0.04945375 0.10688997 1.7175036e-38
0.85296631 -0.046953749 0.10438997 1.7081423e-38
0.85296631 -0.046953749 0.10688997 1.7081432e-38
0.85546637 -0.04945375 0.10438997 1.7081783e-38
0.85546637 -0.046953749 0.10438997 1.7265099e-38
0.85296631 -0.04945375 0.10938997 1.6992092e-38
0.85296631 -0.04945375 0.11188997 1.6714433e-38
0.85296631 -0.046953749 0.10938997 1.6806273e-38
0.85296631 -0.046953749 0.11188997 1.6898824e-38
0.85546637 -0.04945375 0.10938997 1.6993158e-38
0.85546637 -0.046953749 0.10938997 1.7081418e-38
0.85796636 -0.054453749 0.10438997 1.7177922e-38
0.85296631 -0.054453749 0.11438997 1.7268348e-38
0.85296631 -0.054453749 0.11688997 1.7088257e-38
0.85296631 -0.051953752 0.11438997 1.6530783e-38
0.85296631 -0.051953752 0.11688997 1.6165941e-38
0.85546637 -0.054453749 0.11438997 1.7363038e-38
0.85296631 -0.054453749 0.11938997 1.6260645e-38
0.85296631 -0.054453749 0.12188997 1.6901342e-38
0.85296631 -0.051953752 0.11938997 1.6444676e-38
0.85296631 -0.051953752 0.12188997 1.6624045e-38
0.85546637 -0.054453749 0.11938997 1.6721633e-38
0.85546637 -0.051953752 0.11938997 1.653615e-38
0.85296631 -0.04945375 0.11438997 1.6438935e-38
0.85296631 -0.04945375 0.11688997 1.6165222e-38
0.85296631 -0.046953749 0.11438997 1.671408e-38
0.85296631 -0.046953749 0.11688997 1.6349609e-38
0.85296631 -0.044453751 0.10438997 1.6989944e-38
0.85296631 -0.044453751 0.10688997 1.6805907e-38
0.85296631 -0.04195375 0.10438997 1.6989599e-38
0.85296631 -0.04195375 0.10688997 1.6805907e-38
0.85296631 -0.044453751 0.10938997 1.7081408e-38
0.85296631 -0.044453751 0.11188997 1.6714433e-38
0.85296631 -0.04195375 0.10938997 1.7081408e-38
0.85296631 -0.04195375 0.11188997 1.6714433e-38
0.85546637 -0.04195375 0.10938997 1.6897743e-38
0.85296631 -0.039453749 0.10438997 1.7173249e-38
0.85296631 -0.039453749 0.10688997 1.6897738e-38
0.85296631 -0.039453749 0.11188997 1.6714069e-38
0.85296631 -0.036953751 0.11188997 1.6714065e-38
0.85296631 -0.044453751 0.11438997 1.6071224e-38
0.85296631 -0.04195375 0.11438997 1.6071224e-38
0.84296632 -0.046953749 0.12688997 1.6165222e-38
0.84546632 -0.04945375 0.12438997 1.6530416e-38
0.84546632 -0.04945375 0.12688997 1.6805918e-38
0.84546632 -0.046953749 0.12438997 1.5890786e-38
0.84546632 -0.046953749 0.12688997 1.6622236e-38
0.84296632 -0.046953749 0.12938997 1.6714433e-38
0.84296632 -0.046953749 0.13188997 1.7265084e-38
0.84546632 -0.046953749 0.12938997 1.7173249e-38
0.84546632 -0.046953749 0.13188997 1.7173238e-38
0.84796631 -0.054453749 0.12438997 1.6991401e-38
0.84796631 -0.051953752 0.12438997 1.6715149e-38
0.85046631 -0.054453749 0.12438997 1.7545634e-38
0.85046631 -0.054453749 0.12688997 1.7542762e-38
0.85046631 -0.051953752 0.12438997 1.671695e-38
0.85046631 -0.051953752 0.12688997 1.6989598e-38
0.85046631 -0.054453749 0.12938997 1.7173249e-38
0.85046631 -0.051953752 0.12938997 1.7356917e-38
0.84796631 -0.04945375 0.12438997 1.6165578e-38
0.84796631 -0.046953749 0.12438997 1.5980831e-38
0.85046631 -0.04945375 0.12438997 1.6622236e-38
0.85046631 -0.04945375 0.12688997 1.6989579e-38
0.85046631 -0.046953749 0.12438997 1.6897743e-38
0.85046631 -0.046953749 0.12688997 1.6805896e-38
0.84796631 -0.04945375 0.12938997 1.6805915e-38
0.84796631 -0.046953749 0.12938997 1.6989571e-38
0.85046631 -0.04945375 0.12938997 1.7265076e-38
0.85046631 -0.046953749 0.12938997 1.7356909e-38
0.85046631 -0.046953749 0.13188997 1.8183435e-38
0.84296632 -0.046953749 0.13438997 1.8000833e-38
0.84546632 -0.046953749 0.13438997 1.7999763e-38
0.84296632 -0.044453751 0.12688997 1.6438568e-38
0.84296632 -0.04195375 0.12438997 1.625489e-38
0.84296632 -0.04195375 0.12688997 1.6438557e-38
0.84546632 -0.044453751 0.12438997 1.6624398e-38
0.84546632 -0.044453751 0.12688997 1.7173238e-38
0.84546632 -0.04195375 0.12438997 1.6071224e-38
0.84546632 -0.04195375 0.12688997 1.6897731e-38
0.84296632 -0.044453751 0.12938997 1.6438569e-38
0.84296632 -0.044453751 0.13188997 1.790796e-38
0.84296632 -0.04195375 0.12938997 1.6438569e-38
0.84296632 -0.04195375 0.13188997 1.8091633e-38
0.84546632 -0.044453751 0.12938997 1.717325e-38
0.84546632 -0.044453751 0.13188997 1.7909033e-38
0.84546632 -0.04195375 0.12938997 1.717325e-38
0.84546632 -0.04195375 0.13188997 1.8830964e-38
0.84296632 -0.039453749 0.12438997 1.6254895e-38
0.84296632 -0.039453749 0.12688997 1.6622229e-38
0.84296632 -0.036953751 0.12438997 1.6438554e-38
0.84296632 -0.036953751 0.12688997 1.6805899e-38
0.84546632 -0.039453749 0.12438997 1.6438555e-38
0.84546632 -0.036953751 0.12438997 1.6622226e-38
0.84296632 -0.039453749 0.12938997 1.6438554e-38
0.84296632 -0.039453749 0.13188997 1.9106112e-38
0.84296632 -0.036953751 0.12938997 1.6438554e-38
0.84296632 -0.036953751 0.13188997 1.8918115e-38
0.84546632 -0.039453749 0.12938997 1.7632415e-38
0.84796631 -0.044453751 0.12438997 1.6622229e-38
0.84796631 -0.04195375 0.12438997 1.6622229e-38
0.84796631 -0.044453751 0.12938997 1.7173238e-38
0.84796631 -0.04195375 0.12938997 1.689774e-38
0.85046631 -0.044453751 0.13188997 1.8275304e-38
0.85046631 -0.04195375 0.13188997 1.8460054e-38
0.84296632 -0.044453751 0.13438997 1.8459704e-38
0.84296632 -0.044453751 0.13688996 1.8091593e-38
0.84296632 -0.04195375 0.13438997 1.8459704e-38
0.84296632 -0.04195375 0.13688996 1.7907922e-38
0.84546632 -0.044453751 0.13438997 1.8092008e-38
0.84546632 -0.04195375 0.13438997 1.8461149e-38
0.84296632 -0.039453749 0.13438997 1.8367099e-38
0.84296632 -0.039453749 0.13688996 1.7448744e-38
0.84296632 -0.036953751 0.13438997 1.855077e-38
0.84296632 -0.036953751 0.13688996 1.7265073e-38
0.84546632 -0.039453749 0.13438997 1.855077e-38
0.84546632 -0.036953751 0.13438997 1.8734441e-38
0.85296631 -0.054453749 0.12438997 1.7179354e-38
0.85296631 -0.054453749 0.12688997 1.7910118e-38
0.85296631 -0.051953752 0.12438997 1.6901345e-38
0.85296631 -0.051953752 0.12688997 1.6899546e-38
0.85546637 -0.054453749 0.12438997 1.8003019e-38
0.85546637 -0.051953752 0.12438997 1.7081423e-38
0.85296631 -0.054453749 0.12938997 1.8183439e-38
0.85296631 -0.054453749 0.13188997 1.9470218e-38
0.85296631 -0.051953752 0.12938997 1.7999764e-38
0.85546637 -0.054453749 0.12938997 1.9928321e-38
0.85546637 -0.051953752 0.12938997 1.9377299e-38
0.85296631 -0.04945375 0.12688997 1.6989579e-38
0.85296631 -0.04945375 0.12938997 1.7816103e-38
0.84046632 -0.026953749 0.066889971 1.717325e-38
0.84046632 -0.02445375 0.064389974 1.7081402e-38
0.84046632 -0.02445375 0.066889971 1.7356909e-38
0.84046632 -0.02195375 0.064389974 1.7173238e-38
0.84046632 -0.02195375 0.066889971 1.7265073e-38
0.84046632 -0.02445375 0.069389969 1.7448761e-38
0.84046632 -0.02445375 0.071889967 1.7724269e-38
0.84046632 -0.02195375 0.069389969 1.726508e-38
0.84046632 -0.02195375 0.071889967 1.7356916e-38
0.84046632 -0.019453751 0.064389974 1.7356928e-38
0.84046632 -0.019453751 0.066889971 1.7356921e-38
0.84046632 -0.01695375 0.064389974 1.6989568e-38
0.84046632 -0.01695375 0.066889971 1.735691e-38
0.83796632 -0.019453751 0.069389969 1.7173249e-38
0.83796632 -0.01695375 0.069389969 1.7356919e-38
0.84046632 -0.019453751 0.069389969 1.7356913e-38
0.84046632 -0.019453751 0.071889967 1.7356909e-38
0.84046632 -0.01695375 0.069389969 1.7173239e-38
0.84046632 -0.01695375 0.071889967 1.7173239e-38
0.84046632 -0.02445375 0.076889969 1.4418183e-38
0.84046632 -0.02195375 0.076889969 1.3958998e-38
0.84046632 -0.02445375 0.079389967 1.3596338e-38
0.84046632 -0.02195375 0.079389967 1.1850008e-38
0.84046632 -0.019453751 0.076889969 1.102026e-38
0.84046632 -0.01695375 0.076889969 1.5345168e-38
0.83796632 -0.01695375 0.081889972 1.7313694e-38
0.84046632 -0.019453751 0.079389967 1.0931316e-38
0.84046632 -0.019453751 0.081889972 1.6210236e-38
0.84046632 -0.01695375 0.079389967 1.0657972e-38
0.84046632 -0.01695375 0.081889972 1.7865423e-38
0.84046632 -0.026953749 0.10188997 1.3812428e-38
0.84046632 -0.02195375 0.086889967 1.7127491e-38
0.84046632 -0.02445375 0.09188997 1.7316202e-38
0.84046632 -0.02195375 0.09188997 1.6670833e-38
0.83796632 -0.01695375 0.08438997 1.9068247e-38
0.84046632 -0.019453751 0.086889967 1.685199e-38
0.84046632 -0.01695375 0.08438997 1.7681716e-38
0.84046632 -0.01695375 0.086889967 1.7774968e-38
0.83796632 -0.019453751 0.089389972 1.7774307e-38
0.83796632 -0.01695375 0.089389972 1.8328167e-38
0.84046632 -0.019453751 0.09188997 1.6945988e-38
0.84046632 -0.01695375 0.09188997 1.7684275e-38
0.84046632 -0.02445375 0.096889973 1.1510041e-38
0.84046632 -0.02195375 0.094389968 1.5658839e-38
0.84046632 -0.02195375 0.096889973 1.4736888e-38
0.84046632 -0.02445375 0.10188997 1.1972831e-38
0.84046632 -0.02195375 0.09938997 1.6118025e-38
0.84046632 -0.02195375 0.10188997 1.4372422e-38
0.84046632 -0.019453751 0.094389968 1.5565217e-38
0.84046632 -0.019453751 0.096889973 1.4825839e-38
0.84046632 -0.01695375 0.094389968 1.6488603e-38
0.84046632 -0.01695375 0.096889973 1.5564854e-38
0.84046632 -0.019453751 0.09938997 1.5657047e-38
0.84046632 -0.019453751 0.10188997 1.5290415e-38
0.84046632 -0.01695375 0.09938997 1.6025832e-38
0.84046632 -0.01695375 0.10188997 1.6209142e-38
0.83296633 -0.0069537503 0.064389974 1.6530389e-38
0.83546633 -0.0094537502 0.066889971 1.671406e-38
0.83546633 -0.0069537503 0.066889971 1.7173238e-38
0.83546633 -0.0094537502 0.069389969 1.7081402e-38
0.83546633 -0.0069537503 0.069389969 1.7448746e-38
0.83796632 -0.01445375 0.066889971 1.6989568e-38
0.83796632 -0.011953751 0.064389974 1.6530389e-38
0.83796632 -0.011953751 0.066889971 1.7173238e-38
0.84046632 -0.01445375 0.064389974 1.6989568e-38
0.84046632 -0.01445375 0.066889971 1.7356909e-38
0.84046632 -0.011953751 0.064389974 1.7173238e-38
0.84046632 -0.011953751 0.066889971 1.7173238e-38
0.83796632 -0.01445375 0.069389969 1.7173246e-38
0.83796632 -0.011953751 0.069389969 1.7173246e-38
0.84046632 -0.01445375 0.069389969 1.7265076e-38
0.84046632 -0.01445375 0.071889967 1.7265076e-38
0.84046632 -0.011953751 0.069389969 1.7173249e-38
0.84046632 -0.011953751 0.071889967 1.7356928e-38
0.83796632 -0.0094537502 0.064389974 1.6622225e-38
0.83796632 -0.0094537502 0.066889971 1.7632428e-38
0.83796632 -0.0069537503 0.064389974 1.6805896e-38
0.83796632 -0.0069537503 0.066889971 1.7081409e-38
0.83796632 -0.0094537502 0.069389969 1.735692e-38
0.83796632 -0.0094537502 0.071889967 1.7448746e-38
0.83796632 -0.0069537503 0.069389969 1.7356909e-38
0.83796632 -0.0069537503 0.071889967 1.7081402e-38
0.84046632 -0.0094537502 0.069389969 1.7356909e-38
0.83546633 -0.0069537503 0.074389972 1.68059e-38
0.83546633 -0.0094537502 0.079389967 1.0397905e-38
0.83546633 -0.0094537502 0.081889972 1.3902443e-38
0.83546633 -0.0069537503 0.079389967 1.1141982e-38
0.83546633 -0.0069537503 0.081889972 1.3535491e-38
0.83796632 -0.01445375 0.074389972 1.7450199e-38
0.83796632 -0.011953751 0.074389972 1.7542394e-38
0.83796632 -0.011953751 0.076889969 1.0010069e-38
0.84046632 -0.01445375 0.076889969 1.5160418e-38
0.84046632 -0.011953751 0.076889969 1.4422836e-38
0.83796632 -0.01445375 0.081889972 1.8052333e-38
0.83796632 -0.011953751 0.081889972 1.7405164e-38
0.84046632 -0.01445375 0.079389967 1.2225299e-38
0.84046632 -0.01445375 0.081889972 1.814201e-38
0.84046632 -0.011953751 0.079389967 1.2690286e-38
0.84046632 -0.011953751 0.081889972 1.7405164e-38
0.83796632 -0.0094537502 0.074389972 1.8093035e-38
0.83796632 -0.0094537502 0.076889969 1.3595958e-38
0.83796632 -0.0069537503 0.074389972 1.6438554e-38
0.83796632 -0.0069537503 0.076889969 1.2583259e-38
0.84046632 -0.0094537502 0.076889969 1.3595958e-38
0.83796632 -0.0094537502 0.081889972 1.3532584e-38
0.83796632 -0.0069537503 0.081889972 1.3627664e-38
0.83296633 -0.0044537503 0.064389974 1.671406e-38
0.83296633 -0.0019537502 0.064389974 1.6989571e-38
0.83546633 -0.0044537503 0.066889971 1.7081402e-38
0.83546633 -0.0019537502 0.066889971 1.6989568e-38
0.83546633 -0.0044537503 0.069389969 1.7356909e-38
0.83546633 -0.0019537502 0.069389969 1.7173238e-38
0.83546633 -0.0019537502 0.071889967 1.7632421e-38
0.83296633 0.00054624974 0.064389974 1.7356909e-38
0.83296633 0.0030462497 0.064389974 1.7173238e-38
0.83546633 0.00054624974 0.066889971 1.7173238e-38
0.83546633 0.0030462497 0.066889971 1.7081402e-38
0.83546633 0.00054624974 0.069389969 1.7265073e-38
0.83546633 0.00054624974 0.071889967 1.7818243e-38
0.83546633 0.0030462497 0.069389969 1.6989567e-38
0.83546633 0.0030462497 0.071889967 1.7816109e-38
0.83796632 -0.0044537503 0.064389974 1.6897731e-38
0.83796632 -0.0044537503 0.066889971 1.7173246e-38
0.83796632 -0.0019537502 0.064389974 1.7173238e-38
0.83796632 -0.0019537502 0.066889971 1.7173238e-38
0.83796632 -0.0044537503 0.069389969 1.7265073e-38
0.83796632 -0.0044537503 0.071889967 1.7173238e-38
0.83796632 -0.0019537502 0.069389969 1.7265073e-38
0.83796632 -0.0019537502 0.071889967 1.754058e-38
0.84046632 -0.0044537503 0.069389969 1.7356909e-38
0.83796632 0.00054624974 0.064389974 1.7081402e-38
0.83796632 0.00054624974 0.066889971 1.7173238e-38
0.83796632 0.0030462497 0.064389974 1.6897734e-38
0.83796632 0.0030462497 0.066889971 1.726508e-38
0.83796632 0.00054624974 0.069389969 1.6989567e-38
0.83796632 0.00054624974 0.071889967 1.7540947e-38
0.83796632 0.0030462497 0.069389969 1.726508e-38
0.83796632 0.0030462497 0.071889967 1.7816113e-38
0.83546633 -0.0044537503 0.074389972 1.68059e-38
0.83546633 -0.0044537503 0.076889969 1.2311342e-38
0.83546633 -0.0019537502 0.074389972 1.6164482e-38
0.83546633 -0.0019537502 0.076889969 1.1480513e-38
0.83546633 -0.0044537503 0.079389967 1.3077364e-38
0.83546633 -0.0044537503 0.081889972 1.4827247e-38
0.83546633 -0.0019537502 0.079389967 1.3261387e-38
0.83546633 -0.0019537502 0.081889972 1.6302729e-38
0.83296633 0.00054624974 0.074389972 1.534155e-38
0.83296633 0.0030462497 0.074389972 1.5064648e-38
0.83546633 0.00054624974 0.074389972 1.5433746e-38
0.83546633 0.00054624974 0.076889969 1.1295766e-38
0.83546633 0.0030462497 0.074389972 1.5247247e-38
0.83546633 0.0030462497 0.076889969 7.7141817e-39
0.83296633 0.00054624974 0.079389967 8.7243721e-39
0.83296633 0.00054624974 0.081889972 1.243561e-38
0.83296633 0.0030462497 0.079389967 6.1529782e-39
0.83296633 0.0030462497 0.081889972 1.1971004e-38
0.83546633 0.00054624974 0.079389967 1.2528159e-38
0.83546633 0.00054624974 0.081889972 1.6396783e-38
0.83796632 -0.0044537503 0.074389972 1.6071212e-38
0.83796632 -0.0044537503 0.076889969 1.2768009e-38
0.83796632 -0.0019537502 0.074389972 1.3591653e-38
0.83796632 -0.0044537503 0.081889972 1.4549979e-38
0.83796632 0.00054624974 0.074389972 1.1295766e-38
0.83046633 0.0030462497 0.086889967 9.4766354e-39
0.83046633 0.0030462497 0.09188997 1.0307883e-38
0.83046633 0.0030462497 0.094389968 1.021745e-38
0.83046633 0.0030462497 0.096889973 9.5750065e-39
0.83046633 0.0030462497 0.09938997 1.0214959e-38
0.83046633 0.0030462497 0.10188997 9.8389537e-39
0.83546633 -0.0094537502 0.08438997 1.584288e-38
0.83546633 -0.0069537503 0.08438997 1.6672956e-38
0.83796632 -0.01445375 0.08438997 1.7777509e-38
0.83796632 -0.011953751 0.08438997 1.6852694e-38
0.83796632 -0.011953751 0.086889967 1.3994989e-38
0.84046632 -0.01445375 0.08438997 1.6298781e-38
0.84046632 -0.01445375 0.086889967 1.5931055e-38
0.84046632 -0.011953751 0.08438997 1.4085758e-38
0.83796632 -0.01445375 0.089389972 1.6480654e-38
0.83796632 -0.011953751 0.089389972 1.4635702e-38
0.84046632 -0.01445375 0.09188997 1.6946709e-38
0.84046632 -0.011953751 0.09188997 1.5650169e-38
0.83796632 -0.0094537502 0.08438997 1.612019e-38
0.83796632 -0.0094537502 0.086889967 1.2617811e-38
0.83796632 -0.0069537503 0.08438997 1.6489293e-38
0.83796632 -0.0069537503 0.086889967 1.353905e-38
0.83796632 -0.0094537502 0.089389972 1.3906033e-38
0.83796632 -0.0094537502 0.09188997 1.4269443e-38
0.83796632 -0.0069537503 0.089389972 1.317281e-38
0.83796632 -0.0069537503 0.09188997 1.2337613e-38
0.84046632 -0.0094537502 0.09188997 1.3992506e-38
0.84046632 -0.0069537503 0.09188997 1.2154651e-38
0.83546633 -0.0094537502 0.09938997 1.4642526e-38
0.83546633 -0.0069537503 0.09938997 1.4641075e-38
0.83796632 -0.011953751 0.094389968 1.6854887e-38
0.83796632 -0.011953751 0.096889973 1.5838196e-38
0.84046632 -0.01445375 0.094389968 1.6854539e-38
0.84046632 -0.01445375 0.096889973 1.4824765e-38
0.84046632 -0.011953751 0.094389968 1.7592104e-38
0.84046632 -0.011953751 0.096889973 1.4455983e-38
0.83796632 -0.011953751 0.09938997 1.4729998e-38
0.83796632 -0.011953751 0.10188997 1.51017e-38
0.84046632 -0.01445375 0.09938997 1.620586e-38
0.84046632 -0.01445375 0.10188997 1.6390276e-38
0.84046632 -0.011953751 0.09938997 1.5653046e-38
0.84046632 -0.011953751 0.10188997 1.6021494e-38
0.83796632 -0.0094537502 0.094389968 1.6117322e-38
0.83796632 -0.0094537502 0.096889973 1.6575761e-38
0.83796632 -0.0069537503 0.094389968 1.648859e-38
0.83796632 -0.0069537503 0.096889973 1.6208423e-38
0.84046632 -0.0094537502 0.094389968 1.8237796e-38
0.84046632 -0.0069537503 0.094389968 1.7961216e-38
0.83796632 -0.0094537502 0.09938997 1.4641443e-38
0.83796632 -0.0094537502 0.10188997 1.3903512e-38
0.83796632 -0.0069537503 0.09938997 1.4641075e-38
0.83796632 -0.0069537503 0.10188997 1.3444705e-38
0.84046632 -0.0094537502 0.09938997 1.3996427e-38
0.84046632 -0.0069537503 0.09938997 1.2801486e-38
0.83546633 -0.0044537503 0.08438997 1.6212346e-38
0.83546633 -0.0019537502 0.08438997 1.7774657e-38
0.83546633 -0.0019537502 0.086889967 1.2431273e-38
0.83546633 -0.0019537502 0.089389972 1.335145e-38
0.83296633 0.00054624974 0.08438997 1.4736535e-38
0.83296633 0.0030462497 0.08438997 1.325779e-38
0.83296633 0.0030462497 0.086889967 9.5688576e-39
0.83546633 0.00054624974 0.08438997 1.703748e-38
0.83546633 0.00054624974 0.086889967 1.4456711e-38
0.83546633 0.0030462497 0.086889967 1.2611312e-38
0.83296633 0.0030462497 0.089389972 1.058153e-38
0.83546633 0.00054624974 0.089389972 1.390461e-38
0.83546633 0.00054624974 0.09188997 1.51028e-38
0.83546633 0.0030462497 0.09188997 1.2429063e-38
0.83796632 -0.0044537503 0.08438997 1.639529e-38
0.83796632 -0.0044537503 0.086889967 1.3723081e-38
0.83796632 -0.0019537502 0.086889967 1.2613868e-38
0.83796632 -0.0044537503 0.089389972 1.1420732e-38
0.83796632 -0.0044537503 0.09188997 1.3813452e-38
0.83796632 -0.0019537502 0.089389972 1.5568088e-38
0.83796632 -0.0019537502 0.09188997 1.5933239e-38
0.84046632 -0.0044537503 0.09188997 1.2062454e-38
0.83796632 0.00054624974 0.086889967 1.2616033e-38
0.83796632 0.00054624974 0.089389972 1.7038908e-38
0.83796632 0.00054624974 0.09188997 1.5936488e-38
0.83546633 -0.0019537502 0.094389968 1.5933592e-38
0.83546633 -0.0019537502 0.096889973 1.5745608e-38
0.83296633 -0.0019537502 0.09938997 1.740587e-38
0.83546633 -0.0044537503 0.09938997 1.6025811e-38
0.83546633 -0.0019537502 0.09938997 1.6578984e-38
0.83546633 -0.0019537502 0.10188997 1.712929e-38
0.83296633 0.0030462497 0.094389968 1.2245754e-38
0.83296633 0.0030462497 0.096889973 9.8522577e-39
0.83546633 0.00054624974 0.094389968 1.4368456e-38
0.83546633 0.00054624974 0.096889973 1.4275872e-38
0.83546633 0.0030462497 0.096889973 1.0491904e-38
0.83296633 0.00054624974 0.09938997 1.5285731e-38
0.83296633 0.0030462497 0.09938997 1.2605163e-38
0.83296633 0.0030462497 0.10188997 1.2422268e-38
0.83546633 0.00054624974 0.09938997 1.574563e-38
0.83546633 0.00054624974 0.10188997 1.4919094e-38
0.83546633 0.0030462497 0.09938997 1.2054152e-38
0.83546633 0.0030462497 0.10188997 1.242264e-38
0.83796632 -0.0044537503 0.094389968 1.7410186e-38
0.83796632 -0.0044537503 0.096889973 1.7866107e-38
0.83796632 -0.0019537502 0.094389968 1.4911906e-38
0.83796632 -0.0019537502 0.096889973 1.5559421e-38
0.84046632 -0.0044537503 0.094389968 1.7776823e-38
0.83796632 -0.0044537503 0.10188997 1.4274831e-38
0.83796632 -0.0019537502 0.10188997 1.6302769e-38
0.84546632 -0.026953749 0.066889971 1.7173245e-38
0.84296632 -0.026953749 0.069389969 1.7265091e-38
0.84546632 -0.026953749 0.069389969 1.7265079e-38
0.85046631 -0.03445375 0.066889971 1.7356917e-38
0.85046631 -0.031953752 0.066889971 1.7356917e-38
0.84796631 -0.03445375 0.069389969 1.7448755e-38
0.84796631 -0.03445375 0.071889967 1.7267247e-38
0.84796631 -0.031953752 0.069389969 1.7356917e-38
0.84796631 -0.031953752 0.071889967 1.7451998e-38
0.85046631 -0.03445375 0.069389969 1.7173249e-38
0.85046631 -0.03445375 0.071889967 1.744983e-38
0.85046631 -0.031953752 0.069389969 1.7356917e-38
0.85046631 -0.031953752 0.071889967 1.7542745e-38
0.84796631 -0.026953749 0.066889971 1.7448751e-38
0.85046631 -0.029453751 0.066889971 1.7356909e-38
0.85046631 -0.026953749 0.066889971 1.735694e-38
0.84796631 -0.029453751 0.071889967 1.7081771e-38
0.84796631 -0.026953749 0.069389969 1.7448744e-38
0.84796631 -0.026953749 0.071889967 1.6805896e-38
0.85046631 -0.029453751 0.069389969 1.7265073e-38
0.85046631 -0.029453751 0.071889967 1.7542748e-38
0.85046631 -0.026953749 0.069389969 1.6989577e-38
0.85046631 -0.026953749 0.071889967 1.6714062e-38
0.84296632 -0.026953749 0.074389972 1.6346727e-38
0.84546632 -0.026953749 0.074389972 1.6347795e-38
0.84546632 -0.026953749 0.076889969 1.2858054e-38
0.84296632 -0.026953749 0.079389967 1.2609196e-38
0.84296632 -0.026953749 0.081889972 1.3258143e-38
0.84546632 -0.026953749 0.079389967 1.2426956e-38
0.84546632 -0.026953749 0.081889972 1.2797887e-38
0.84796631 -0.03445375 0.074389972 1.5615657e-38
0.84796631 -0.03445375 0.076889969 1.1663108e-38
0.84796631 -0.031953752 0.074389972 1.4694061e-38
0.84796631 -0.031953752 0.076889969 1.0928424e-38
0.85046631 -0.03445375 0.074389972 1.6168096e-38
0.85046631 -0.03445375 0.076889969 1.5710002e-38
0.85046631 -0.031953752 0.074389972 1.4788743e-38
0.84796631 -0.03445375 0.079389967 1.5800418e-38
0.84796631 -0.03445375 0.081889972 1.8678629e-38
0.84796631 -0.031953752 0.079389967 1.3884142e-38
0.84796631 -0.031953752 0.081889972 1.7126362e-38
0.85046631 -0.03445375 0.079389967 1.8860872e-38
0.85046631 -0.03445375 0.081889972 1.8586443e-38
0.85046631 -0.031953752 0.079389967 1.8412091e-38
0.84796631 -0.029453751 0.074389972 1.3962224e-38
0.84796631 -0.029453751 0.076889969 1.1592858e-38
0.84796631 -0.026953749 0.074389972 1.2489644e-38
0.85046631 -0.029453751 0.074389972 1.3869671e-38
0.85046631 -0.026953749 0.074389972 1.3043164e-38
0.84796631 -0.029453751 0.079389967 1.4635687e-38
0.84796631 -0.029453751 0.081889972 1.4081439e-38
0.85046631 -0.029453751 0.079389967 1.49112e-38
0.84546632 -0.02445375 0.064389974 1.717325e-38
0.84546632 -0.02445375 0.066889971 1.744875e-38
0.84546632 -0.02195375 0.064389974 1.7173246e-38
0.84546632 -0.02195375 0.066889971 1.7356913e-38
0.84296632 -0.02445375 0.069389969 1.7540588e-38
0.84296632 -0.02195375 0.069389969 1.7356909e-38
0.84546632 -0.02445375 0.069389969 1.7448753e-38
0.84546632 -0.02445375 0.071889967 1.7356909e-38
0.84546632 -0.02195375 0.071889967 1.7724261e-38
0.84546632 -0.019453751 0.064389974 1.7173238e-38
0.84546632 -0.019453751 0.066889971 1.7356909e-38
0.84296632 -0.019453751 0.069389969 1.7356913e-38
0.84296632 -0.01695375 0.069389969 1.735691e-38
0.84546632 -0.019453751 0.071889967 1.7543466e-38
0.84796631 -0.02445375 0.066889971 1.754059e-38
0.84796631 -0.02445375 0.069389969 1.754059e-38
0.84296632 -0.02445375 0.074389972 1.5979376e-38
0.84296632 -0.02195375 0.074389972 1.3591653e-38
0.84546632 -0.02445375 0.074389972 1.6346718e-38
0.84546632 -0.02445375 0.076889969 1.3503423e-38
0.84546632 -0.02195375 0.074389972 1.4050831e-38
0.84546632 -0.02195375 0.076889969 1.1850366e-38
0.84296632 -0.02445375 0.079389967 1.417832e-38
0.84296632 -0.02445375 0.081889972 1.4825469e-38
0.84296632 -0.02195375 0.079389967 1.4549277e-38
0.84296632 -0.02195375 0.081889972 1.8051965e-38
0.84546632 -0.02445375 0.079389967 1.3902087e-38
0.84546632 -0.02445375 0.081889972 1.5655952e-38
0.84546632 -0.02195375 0.081889972 1.860372e-38
0.84296632 -0.019453751 0.074389972 1.5435916e-38
0.84296632 -0.01695375 0.074389972 1.5620664e-38
0.84546632 -0.019453751 0.076889969 1.1115695e-38
0.84296632 -0.019453751 0.079389967 1.5011694e-38
0.84296632 -0.019453751 0.081889972 1.7778272e-38
0.84296632 -0.01695375 0.081889972 1.9250846e-38
0.85296631 -0.03445375 0.066889971 1.7356917e-38
0.85296631 -0.031953752 0.066889971 1.7356917e-38
0.85546637 -0.03445375 0.066889971 1.7356917e-38
0.85546637 -0.031953752 0.066889971 1.7356913e-38
0.85296631 -0.03445375 0.069389969 1.7356909e-38
0.85296631 -0.031953752 0.069389969 1.7448744e-38
0.85296631 -0.029453751 0.066889971 1.754058e-38
0.85296631 -0.026953749 0.066889971 1.7265094e-38
0.85546637 -0.029453751 0.066889971 1.7173241e-38
0.85546637 -0.026953749 0.066889971 1.6897762e-38
0.85296631 -0.029453751 0.069389969 1.7356909e-38
0.85296631 -0.03445375 0.074389972 1.506104e-38
0.85296631 -0.03445375 0.079389967 1.8768323e-38
0.84296632 -0.026953749 0.08438997 1.2891133e-38
0.84546632 -0.029453751 0.08438997 1.3069808e-38
0.84546632 -0.029453751 0.086889967 1.2515849e-38
0.84546632 -0.026953749 0.086889967 1.2615685e-38
0.84296632 -0.026953749 0.089389972 1.4828748e-38
0.84296632 -0.026953749 0.09188997 1.5104614e-38
0.84546632 -0.029453751 0.089389972 1.4917273e-38
0.84546632 -0.026953749 0.089389972 1.4737258e-38
0.84546632 -0.026953749 0.09188997 1.4735807e-38
0.84796631 -0.03445375 0.08438997 1.6743238e-38
0.84796631 -0.03445375 0.086889967 1.4546403e-38
0.84796631 -0.031953752 0.08438997 1.6942393e-38
0.84796631 -0.031953752 0.086889967 1.7219726e-38
0.85046631 -0.03445375 0.086889967 1.6367233e-38
0.85046631 -0.031953752 0.086889967 1.7404097e-38
0.84796631 -0.03445375 0.089389972 1.3811021e-38
0.84796631 -0.03445375 0.09188997 1.3809541e-38
0.84796631 -0.031953752 0.089389972 1.7222259e-38
0.84796631 -0.031953752 0.09188997 1.3809541e-38
