# .PCD v0.7 - Point Cloud Data file format
VERSION 0.7
FIELDS x y z rgb
SIZE 4 4 4 4
TYPE F F F F
COUNT 1 1 1 1
WIDTH 982
HEIGHT 1
VIEWPOINT 0 0 0 1 0 0 0
POINTS 982
DATA ascii
0.8292501 0.0061035557 0.11848153 1.6071212e-38
0.83175009 0.0036035555 0.11848153 1.5795705e-38
0.83175009 0.0061035557 0.11598153 1.6254883e-38
0.83175009 0.0061035557 0.11848153 1.6163047e-38
0.8292501 0.0036035555 0.12098154 1.5795705e-38
0.8292501 0.0036035555 0.12348153 1.6071212e-38
0.8292501 0.0061035557 0.12098154 1.5795705e-38
0.8292501 0.0061035557 0.12348153 1.5979376e-38
0.83175009 0.0036035555 0.12098154 1.5612034e-38
0.83175009 0.0061035557 0.12098154 1.6163047e-38
0.8292501 0.0086035552 0.11598153 1.5979381e-38
0.8292501 0.0086035552 0.11848153 1.5520199e-38
0.8292501 0.011103556 0.11598153 1.6071217e-38
0.83175009 0.0086035552 0.11598153 1.6071212e-38
0.8292501 0.0086035552 0.12098154 1.5520199e-38
0.83175009 0.0086035552 0.12098154 1.5795705e-38
0.8242501 0.0036035555 0.12598154 1.6346718e-38
0.8242501 0.0061035557 0.12598154 1.6346718e-38
0.8242501 0.0061035557 0.12848154 1.6622225e-38
0.8267501 0.0036035555 0.12848154 1.6254883e-38
0.8267501 0.0061035557 0.12848154 1.6438554e-38
0.8242501 0.0061035557 0.13098153 1.6346718e-38
0.8242501 0.0061035557 0.13348153 1.7724255e-38
0.8267501 0.0036035555 0.13098153 1.7448744e-38
0.8267501 0.0036035555 0.13348153 1.9561357e-38
0.8267501 0.0061035557 0.13098153 1.7724269e-38
0.8267501 0.0061035557 0.13348153 2.0303242e-38
0.8242501 0.0086035552 0.12598154 1.6346718e-38
0.8242501 0.0086035552 0.12848154 1.6530389e-38
0.8242501 0.011103556 0.12598154 1.6622225e-38
0.8242501 0.011103556 0.12848154 1.6530389e-38
0.8267501 0.0086035552 0.12848154 1.671406e-38
0.8267501 0.011103556 0.12848154 1.6897733e-38
0.8242501 0.0086035552 0.13098153 1.6622225e-38
0.8242501 0.0086035552 0.13348153 1.7999757e-38
0.8242501 0.011103556 0.13098153 1.7081405e-38
0.8242501 0.011103556 0.13348153 1.7816086e-38
0.8267501 0.0086035552 0.13098153 1.8275264e-38
0.8267501 0.011103556 0.13098153 1.8275264e-38
0.8292501 0.0036035555 0.12598154 1.6530389e-38
0.8292501 0.0036035555 0.12848154 1.6438554e-38
0.8292501 0.0061035557 0.12598154 1.6163047e-38
0.8292501 0.0036035555 0.13098153 1.754058e-38
0.8292501 0.0036035555 0.13348153 1.9377299e-38
0.8242501 0.013603556 0.11598153 1.6071212e-38
0.8242501 0.013603556 0.11848153 1.5612034e-38
0.8242501 0.016103556 0.11598153 1.6438554e-38
0.8242501 0.016103556 0.11848153 1.5795705e-38
0.8267501 0.013603556 0.11848153 1.6071217e-38
0.8267501 0.016103556 0.11848153 1.6071212e-38
0.8242501 0.013603556 0.12098154 1.5612034e-38
0.8242501 0.013603556 0.12348153 1.5795705e-38
0.8242501 0.016103556 0.12098154 1.5795705e-38
0.8242501 0.016103556 0.12348153 1.5979376e-38
0.8267501 0.013603556 0.12098154 1.5795705e-38
0.8267501 0.013603556 0.12348153 1.5887541e-38
0.8242501 0.018603556 0.11598153 1.6163047e-38
0.8242501 0.018603556 0.11848153 1.5795705e-38
0.8242501 0.021103555 0.11598153 1.6346718e-38
0.8242501 0.018603556 0.12348153 1.5979376e-38
0.8242501 0.021103555 0.12348153 1.6163047e-38
0.8292501 0.013603556 0.11598153 1.6071212e-38
0.8292501 0.016103556 0.11598153 1.579571e-38
0.8242501 0.013603556 0.12598154 1.6163047e-38
0.8242501 0.013603556 0.12848154 1.6254883e-38
0.8242501 0.016103556 0.12598154 1.6163047e-38
0.8242501 0.016103556 0.12848154 1.6163047e-38
0.8267501 0.013603556 0.12848154 1.6989567e-38
0.8267501 0.016103556 0.12848154 1.7265073e-38
0.8242501 0.013603556 0.13098153 1.754058e-38
0.8242501 0.018603556 0.12598154 1.6163047e-38
0.8242501 0.018603556 0.12848154 1.6346718e-38
0.8242501 0.021103555 0.12598154 1.6530389e-38
0.8242501 0.021103555 0.12848154 1.6254883e-38
0.8267501 0.018603556 0.12848154 1.754058e-38
0.8267501 0.021103555 0.12848154 1.8921363e-38
0.8242501 0.021103555 0.13098153 1.8551139e-38
0.83425009 0.0036035555 0.11598153 1.6163047e-38
0.83425009 0.0061035557 0.11598153 1.6346718e-38
0.8242501 0.026103556 0.098481536 2.2718305e-38
0.8267501 0.023603555 0.095981531 1.6300637e-38
0.8267501 0.023603555 0.098481536 1.6486827e-38
0.8267501 0.026103556 0.095981531 2.2535002e-38
0.8267501 0.026103556 0.098481536 2.3457649e-38
0.8242501 0.023603555 0.10098153 1.5658486e-38
0.8242501 0.026103556 0.10098153 2.1890702e-38
0.8267501 0.023603555 0.10098153 1.5382255e-38
0.8267501 0.023603555 0.10348153 1.5381145e-38
0.8267501 0.026103556 0.10098153 2.2166218e-38
0.8267501 0.026103556 0.10348153 1.4513237e-38
0.8242501 0.028603556 0.098481536 1.6622225e-38
0.8242501 0.031103555 0.095981531 1.7173238e-38
0.8242501 0.031103555 0.098481536 1.7448744e-38
0.8267501 0.028603556 0.095981531 1.6622225e-38
0.8267501 0.028603556 0.098481536 1.671406e-38
0.8242501 0.028603556 0.10098153 1.6805896e-38
0.8242501 0.028603556 0.10348153 1.6346718e-38
0.8242501 0.031103555 0.10098153 1.6897731e-38
0.8242501 0.031103555 0.10348153 1.7081402e-38
0.8267501 0.028603556 0.10098153 1.6438554e-38
0.8267501 0.028603556 0.10348153 1.6530389e-38
0.8267501 0.031103555 0.10098153 1.6897731e-38
0.8267501 0.031103555 0.10348153 1.6897731e-38
0.8292501 0.023603555 0.098481536 1.6394634e-38
0.8292501 0.026103556 0.098481536 2.3455882e-38
0.8292501 0.023603555 0.10348153 1.8967783e-38
0.8292501 0.026103556 0.10098153 1.4051928e-38
0.8292501 0.026103556 0.10348153 2.3451911e-38
0.83175009 0.023603555 0.10098153 1.574887e-38
0.83175009 0.026103556 0.10098153 2.1980752e-38
0.8292501 0.028603556 0.098481536 1.6622225e-38
0.8292501 0.028603556 0.10098153 1.671406e-38
0.8292501 0.028603556 0.10348153 1.6346718e-38
0.8292501 0.031103555 0.10348153 1.7081402e-38
0.83175009 0.028603556 0.10098153 1.6438554e-38
0.8242501 0.023603555 0.10598154 1.8875963e-38
0.8242501 0.026103556 0.10598154 1.5061021e-38
0.8267501 0.023603555 0.10598154 1.9061078e-38
0.8267501 0.023603555 0.10848153 1.9505437e-38
0.8267501 0.026103556 0.10598154 1.5244692e-38
0.8267501 0.026103556 0.10848153 1.5887541e-38
0.8242501 0.023603555 0.11348154 1.5887541e-38
0.8242501 0.026103556 0.11098153 1.5612034e-38
0.8242501 0.026103556 0.11348154 1.5887541e-38
0.8267501 0.023603555 0.11098153 1.5979376e-38
0.8267501 0.023603555 0.11348154 1.5795705e-38
0.8267501 0.026103556 0.11098153 1.6254883e-38
0.8267501 0.026103556 0.11348154 1.5979376e-38
0.8242501 0.028603556 0.10598154 1.671406e-38
0.8242501 0.028603556 0.10848153 1.6805896e-38
0.8242501 0.031103555 0.10598154 1.6805896e-38
0.8242501 0.031103555 0.10848153 1.6897731e-38
0.8267501 0.028603556 0.10598154 1.6438554e-38
0.8267501 0.028603556 0.10848153 1.6805896e-38
0.8267501 0.031103555 0.10848153 1.6805896e-38
0.8242501 0.028603556 0.11098153 1.6346718e-38
0.8242501 0.028603556 0.11348154 1.6346718e-38
0.8242501 0.031103555 0.11098153 1.6530389e-38
0.8242501 0.031103555 0.11348154 1.6254883e-38
0.8267501 0.028603556 0.11098153 1.6530389e-38
0.8267501 0.028603556 0.11348154 1.6071212e-38
0.8267501 0.031103555 0.11098153 1.6163047e-38
0.8267501 0.031103555 0.11348154 1.5612034e-38
0.8292501 0.023603555 0.10598154 1.9794675e-38
0.8292501 0.026103556 0.10598154 2.345155e-38
0.8292501 0.026103556 0.10848153 2.1692271e-38
0.8292501 0.028603556 0.10598154 1.6438554e-38
0.8242501 0.033603556 0.095981531 1.6989567e-38
0.8242501 0.033603556 0.098481536 1.671406e-38
0.8242501 0.036103554 0.095981531 1.671406e-38
0.8242501 0.036103554 0.098481536 1.671406e-38
0.8267501 0.036103554 0.098481536 1.6805896e-38
0.8242501 0.033603556 0.10098153 1.6805896e-38
0.8242501 0.033603556 0.10348153 1.6897731e-38
0.8242501 0.036103554 0.10348153 1.6805896e-38
0.8267501 0.033603556 0.10098153 1.6805896e-38
0.8267501 0.033603556 0.10348153 1.6805896e-38
0.8242501 0.038603555 0.095981531 1.6622225e-38
0.8242501 0.038603555 0.098481536 1.6530389e-38
0.8242501 0.041103557 0.095981531 1.6530389e-38
0.8242501 0.041103557 0.098481536 1.6346718e-38
0.8242501 0.038603555 0.10348153 1.6622225e-38
0.8242501 0.033603556 0.10598154 1.6805896e-38
0.8242501 0.033603556 0.10848153 1.6897731e-38
0.8242501 0.036103554 0.10598154 1.6897731e-38
0.8242501 0.036103554 0.10848153 1.6805896e-38
0.8267501 0.033603556 0.10848153 1.671406e-38
0.8242501 0.033603556 0.11098153 1.6530391e-38
0.8242501 0.033603556 0.11348154 1.6163047e-38
0.8242501 0.036103554 0.11348154 1.6163047e-38
0.8267501 0.033603556 0.11098153 1.6254883e-38
0.8267501 0.033603556 0.11348154 1.570387e-38
0.8242501 0.038603555 0.10598154 1.6530389e-38
0.8242501 0.038603555 0.10848153 1.6622225e-38
0.8242501 0.041103557 0.10848153 1.6346718e-38
0.8242501 0.023603555 0.11598153 1.6071212e-38
0.8242501 0.023603555 0.11848153 1.5612034e-38
0.8242501 0.026103556 0.11598153 1.570387e-38
0.8242501 0.026103556 0.11848153 1.5612034e-38
0.8267501 0.026103556 0.11848153 1.5612034e-38
0.8242501 0.023603555 0.12098154 1.570387e-38
0.8242501 0.023603555 0.12348153 1.6163047e-38
0.8242501 0.026103556 0.12098154 1.5428363e-38
0.8242501 0.026103556 0.12348153 1.6254883e-38
0.8242501 0.028603556 0.11598153 1.6071212e-38
0.8242501 0.028603556 0.11848153 1.5428382e-38
0.8242501 0.031103555 0.11598153 1.5428363e-38
0.8242501 0.031103555 0.11848153 1.5612034e-38
0.8267501 0.031103555 0.11848153 1.5520199e-38
0.8242501 0.028603556 0.12098154 1.5979376e-38
0.8242501 0.028603556 0.12348153 1.6346718e-38
0.8242501 0.031103555 0.12098154 1.5612034e-38
0.8242501 0.031103555 0.12348153 1.6530389e-38
0.8267501 0.031103555 0.12098154 1.6163047e-38
0.8242501 0.023603555 0.12848154 1.6163047e-38
0.8242501 0.026103556 0.12848154 1.6254883e-38
0.8267501 0.023603555 0.12848154 1.7448744e-38
0.8267501 0.026103556 0.12848154 1.7724258e-38
0.8242501 0.028603556 0.12598154 1.6530389e-38
0.8242501 0.028603556 0.12848154 1.6438554e-38
0.8242501 0.031103555 0.12598154 1.6530389e-38
0.8242501 0.031103555 0.12848154 1.6897731e-38
0.8267501 0.028603556 0.12848154 1.7999767e-38
0.8267501 0.031103555 0.12848154 1.8091593e-38
0.8242501 0.028603556 0.13098153 1.9478503e-38
0.8242501 0.031103555 0.13098153 1.9656765e-38
0.8242501 0.033603556 0.11598153 1.5428363e-38
0.8242501 0.033603556 0.11848153 1.5612034e-38
0.8242501 0.036103554 0.11598153 1.5428363e-38
0.8267501 0.033603556 0.11848153 1.5520199e-38
0.8242501 0.041103557 0.11598153 1.5795705e-38
0.8242501 0.043603554 0.065981537 1.671406e-38
0.8242501 0.043603554 0.068481535 1.6897731e-38
0.8242501 0.046103556 0.065981537 1.6897735e-38
0.8242501 0.046103556 0.068481535 1.6530391e-38
0.8267501 0.043603554 0.065981537 1.6438554e-38
0.8267501 0.043603554 0.068481535 1.671406e-38
0.8267501 0.046103556 0.065981537 1.7081402e-38
0.8267501 0.046103556 0.068481535 1.6622233e-38
0.8242501 0.043603554 0.070981532 1.6622225e-38
0.8242501 0.043603554 0.07348153 1.671406e-38
0.8242501 0.046103556 0.070981532 1.6163047e-38
0.8242501 0.046103556 0.07348153 1.671406e-38
0.8267501 0.043603554 0.070981532 1.6805896e-38
0.8267501 0.046103556 0.070981532 1.6530394e-38
0.8242501 0.048603557 0.065981537 1.6989574e-38
0.8242501 0.048603557 0.068481535 1.6897738e-38
0.8267501 0.048603557 0.065981537 1.6530396e-38
0.8267501 0.048603557 0.068481535 1.671406e-38
0.8267501 0.051103555 0.065981537 1.6622237e-38
0.8242501 0.048603557 0.070981532 1.6438554e-38
0.8242501 0.048603557 0.07348153 1.671406e-38
0.8267501 0.048603557 0.070981532 1.671406e-38
0.8267501 0.048603557 0.07348153 1.6622225e-38
0.8292501 0.043603554 0.065981537 1.6622225e-38
0.8292501 0.043603554 0.068481535 1.6622225e-38
0.8292501 0.046103556 0.065981537 1.6622225e-38
0.8292501 0.046103556 0.068481535 1.6897731e-38
0.8292501 0.048603557 0.07348153 1.6897731e-38
0.8292501 0.051103555 0.07348153 1.6805896e-38
0.8292501 0.053603556 0.07348153 1.6254884e-38
0.83675009 0.051103555 0.070981532 1.6438554e-38
0.84175009 0.051103555 0.07348153 1.5349487e-38
0.83675009 0.053603556 0.070981532 1.7081433e-38
0.83675009 0.056103557 0.070981532 1.6163063e-38
0.84175009 0.053603556 0.065981537 1.662223e-38
0.84175009 0.053603556 0.068481535 1.7358003e-38
0.84175009 0.056103557 0.065981537 1.6530395e-38
0.84175009 0.056103557 0.068481535 1.6805906e-38
0.83925009 0.053603556 0.070981532 1.7176836e-38
0.83925009 0.053603556 0.07348153 1.8371834e-38
0.83925009 0.056103557 0.070981532 1.6530405e-38
0.83925009 0.056103557 0.07348153 1.6254923e-38
0.84175009 0.053603556 0.070981532 1.7182229e-38
0.84175009 0.053603556 0.07348153 1.9848709e-38
0.84175009 0.056103557 0.070981532 1.6346756e-38
0.84175009 0.056103557 0.07348153 1.6438554e-38
0.84175009 0.058603555 0.068481535 1.7081419e-38
0.8242501 0.043603554 0.078481533 1.6805896e-38
0.8242501 0.046103556 0.075981535 1.6897737e-38
0.8242501 0.046103556 0.078481533 1.6438566e-38
0.8242501 0.043603554 0.083481535 1.6530389e-38
0.8242501 0.046103556 0.08098153 1.6438554e-38
0.8242501 0.046103556 0.083481535 1.5979376e-38
0.8267501 0.046103556 0.083481535 1.6622225e-38
0.8242501 0.048603557 0.075981535 1.68059e-38
0.8267501 0.048603557 0.075981535 1.6622225e-38
0.8242501 0.048603557 0.08098153 1.6626241e-38
0.8242501 0.048603557 0.083481535 1.507327e-38
0.8267501 0.048603557 0.08098153 1.5350206e-38
0.8267501 0.048603557 0.083481535 1.4699449e-38
0.8267501 0.051103555 0.083481535 1.8018491e-38
0.8292501 0.048603557 0.075981535 1.7362651e-38
0.8292501 0.048603557 0.078481533 1.4979626e-38
0.8292501 0.051103555 0.075981535 1.717826e-38
0.8292501 0.051103555 0.078481533 1.7376712e-38
0.83175009 0.048603557 0.075981535 1.7183295e-38
0.83175009 0.051103555 0.075981535 1.7183295e-38
0.8292501 0.048603557 0.08098153 1.4981428e-38
0.8292501 0.051103555 0.08098153 1.7653669e-38
0.83175009 0.051103555 0.08098153 1.7839132e-38
0.8242501 0.043603554 0.085981533 1.6530389e-38
0.8242501 0.043603554 0.088481531 1.6805896e-38
0.8242501 0.046103556 0.085981533 1.6622225e-38
0.8242501 0.046103556 0.088481531 1.6346753e-38
0.8267501 0.043603554 0.088481531 1.6805896e-38
0.8267501 0.046103556 0.085981533 1.6714079e-38
0.8267501 0.046103556 0.088481531 1.643859e-38
0.8242501 0.043603554 0.090981536 1.671406e-38
0.8242501 0.043603554 0.093481533 1.671406e-38
0.8242501 0.046103556 0.090981536 1.6622225e-38
0.8242501 0.046103556 0.093481533 1.6530395e-38
0.8267501 0.043603554 0.093481533 1.6805897e-38
0.8267501 0.046103556 0.090981536 1.6530389e-38
0.8267501 0.046103556 0.093481533 1.671406e-38
0.8242501 0.048603557 0.085981533 1.4150588e-38
0.8242501 0.051103555 0.085981533 1.7470356e-38
0.8267501 0.048603557 0.085981533 1.3597784e-38
0.8267501 0.048603557 0.088481531 1.4606866e-38
0.8267501 0.051103555 0.085981533 1.7745164e-38
0.8267501 0.051103555 0.088481531 1.7742948e-38
0.8242501 0.048603557 0.090981536 1.5066789e-38
0.8242501 0.051103555 0.090981536 1.7740462e-38
0.8267501 0.048603557 0.090981536 1.4333187e-38
0.8267501 0.048603557 0.093481533 1.377605e-38
0.8267501 0.051103555 0.090981536 1.7740462e-38
0.8267501 0.051103555 0.093481533 1.7647908e-38
0.8292501 0.046103556 0.088481531 1.671406e-38
0.8292501 0.046103556 0.090981536 1.6438554e-38
0.8292501 0.046103556 0.093481533 1.6438554e-38
0.8292501 0.048603557 0.088481531 1.460725e-38
0.8292501 0.051103555 0.088481531 1.7741902e-38
0.83175009 0.051103555 0.085981533 1.7741902e-38
0.8292501 0.048603557 0.090981536 1.432849e-38
0.8292501 0.048603557 0.093481533 1.3684924e-38
0.8292501 0.053603556 0.075981535 1.7634238e-38
0.83175009 0.053603556 0.075981535 1.8188134e-38
0.83175009 0.053603556 0.078481533 1.9848008e-38
0.83175009 0.053603556 0.08098153 1.9482135e-38
0.83175009 0.053603556 0.083481535 1.8571617e-38
0.8242501 0.053603556 0.085981533 1.6631217e-38
0.8267501 0.053603556 0.085981533 1.7190112e-38
0.8267501 0.053603556 0.088481531 1.7191174e-38
0.8267501 0.053603556 0.090981536 1.7282699e-38
0.8292501 0.053603556 0.088481531 1.7099028e-38
0.83925009 0.051103555 0.075981535 1.7654748e-38
0.83425009 0.053603556 0.075981535 2.0031321e-38
0.83675009 0.053603556 0.078481533 1.938851e-38
0.83675009 0.056103557 0.075981535 1.616305e-38
0.83425009 0.053603556 0.08098153 1.8660946e-38
0.83425009 0.053603556 0.083481535 1.7928037e-38
0.83925009 0.053603556 0.075981535 1.957575e-38
0.83925009 0.056103557 0.075981535 1.6164872e-38
0.83925009 0.056103557 0.078481533 1.6355355e-38
0.84175009 0.053603556 0.075981535 1.8842826e-38
0.84175009 0.056103557 0.075981535 1.7090749e-38
0.83425009 0.053603556 0.085981533 1.7191577e-38
0.84425008 0.051103555 0.070981532 1.7735032e-38
0.84425008 0.053603556 0.065981537 1.6530389e-38
0.84425008 0.056103557 0.065981537 1.6714779e-38
0.84675008 0.053603556 0.068481535 1.7179415e-38
0.84675008 0.056103557 0.065981537 1.6530396e-38
0.84675008 0.056103557 0.068481535 1.6438565e-38
0.84425008 0.053603556 0.070981532 1.8004819e-38
0.84425008 0.053603556 0.07348153 1.783771e-38
0.84425008 0.056103557 0.070981532 1.6622249e-38
0.84425008 0.056103557 0.07348153 1.5979376e-38
0.84675008 0.056103557 0.070981532 1.6071223e-38
0.84675008 0.056103557 0.07348153 1.6539726e-38
0.84425008 0.058603555 0.065981537 1.6714443e-38
0.84675008 0.058603555 0.065981537 1.6346721e-38
0.84675008 0.058603555 0.068481535 1.6622243e-38
0.84425008 0.058603555 0.070981532 1.616307e-38
0.84425008 0.058603555 0.07348153 1.6163047e-38
0.84675008 0.058603555 0.070981532 1.634672e-38
0.84675008 0.058603555 0.07348153 1.6530399e-38
0.84925008 0.056103557 0.068481535 1.6438554e-38
0.84925008 0.056103557 0.070981532 1.6071255e-38
0.84925008 0.056103557 0.07348153 1.6629786e-38
0.84925008 0.058603555 0.068481535 1.6254883e-38
0.84925008 0.061103556 0.065981537 1.6254932e-38
0.85175014 0.061103556 0.068481535 1.6622237e-38
0.84925008 0.058603555 0.070981532 1.6622225e-38
0.84925008 0.058603555 0.07348153 1.6897748e-38
0.85425013 0.061103556 0.065981537 1.6530419e-38
0.85425013 0.061103556 0.068481535 1.6438565e-38
0.85675013 0.058603555 0.065981537 1.5979376e-38
0.85675013 0.061103556 0.065981537 1.6346718e-38
0.85925013 0.058603555 0.068481535 1.7081408e-38
0.85925013 0.061103556 0.068481535 1.6438554e-38
0.84675008 0.058603555 0.075981535 1.8186664e-38
0.85425013 0.063603558 0.065981537 1.4969186e-38
0.85675013 0.063603558 0.065981537 1.6254922e-38
0.86175013 0.063603558 0.065981537 1.6622239e-38
0.8242501 0.043603554 0.095981531 1.616308e-38
0.8242501 0.043603554 0.098481536 1.6530389e-38
0.8242501 0.046103556 0.095981531 1.643859e-38
0.8242501 0.046103556 0.098481536 1.6163049e-38
0.8267501 0.046103556 0.098481536 1.6530399e-38
0.8242501 0.048603557 0.098481536 1.3961148e-38
0.8267501 0.048603557 0.095981531 1.3869317e-38
0.8242501 0.048603557 0.12348153 1.6254897e-38
0.8242501 0.051103555 0.12348153 1.5795705e-38
0.8242501 0.043603554 0.12848154 1.8826663e-38
0.8242501 0.046103556 0.12598154 1.7081402e-38
0.8242501 0.046103556 0.12848154 1.910614e-38
0.8267501 0.046103556 0.12848154 1.8552603e-38
0.8242501 0.048603557 0.12598154 1.7265073e-38
0.8242501 0.048603557 0.12848154 1.9290531e-38
0.8242501 0.051103555 0.12598154 1.7356909e-38
0.8267501 0.048603557 0.12848154 1.8644799e-38
0.90425009 -0.058896445 0.12598154 1.8293956e-38
0.92175013 -0.038896445 0.11348154 1.6346718e-38
0.90425009 -0.056396443 0.12598154 1.5159314e-38
0.90425009 -0.056396443 0.12848154 1.4171102e-38
0.90425009 -0.053896446 0.12598154 1.7173287e-38
0.90425009 -0.053896446 0.12848154 1.6716581e-38
0.90675008 -0.053896446 0.12848154 1.9209476e-38
0.90425009 -0.053896446 0.13098153 1.5074324e-38
0.90675008 -0.053896446 0.13098153 1.472212e-38
0.90425009 -0.051396444 0.12598154 1.634672e-38
0.90425009 -0.051396444 0.12848154 1.7173238e-38
0.90425009 -0.048896443 0.12598154 1.8462163e-38
0.90425009 -0.048896443 0.12848154 1.6805896e-38
0.90425009 -0.051396444 0.13098153 1.7448798e-38
0.90425009 -0.048896443 0.13098153 1.6897776e-38
0.90675008 -0.051396444 0.13098153 2.1690825e-38
0.90675008 -0.048896443 0.13098153 1.6622225e-38
0.90925008 -0.053896446 0.12848154 1.7378494e-38
0.91175008 -0.053896446 0.12848154 1.4997631e-38
0.90925008 -0.051396444 0.12848154 1.754058e-38
0.90925008 -0.048896443 0.12848154 1.6897731e-38
0.91175008 -0.051396444 0.12848154 2.1595737e-38
0.91175008 -0.048896443 0.12848154 1.6805896e-38
0.90425009 -0.043896444 0.12098154 1.671406e-38
0.90425009 -0.043896444 0.12348153 1.6254883e-38
0.90675008 -0.046396445 0.12348153 1.8091593e-38
0.90675008 -0.043896444 0.12348153 1.6346718e-38
0.90425009 -0.041396443 0.12098154 1.6438554e-38
0.90425009 -0.041396443 0.12348153 1.6254883e-38
0.90675008 -0.041396443 0.12098154 1.671406e-38
0.90675008 -0.041396443 0.12348153 1.6346718e-38
0.90925008 -0.046396445 0.12348153 1.8367099e-38
0.90925008 -0.043896444 0.12348153 1.6346718e-38
0.91175008 -0.043896444 0.12348153 1.7356909e-38
0.90925008 -0.041396443 0.11848153 1.6254883e-38
0.91175008 -0.041396443 0.11848153 1.6346718e-38
0.90925008 -0.041396443 0.12348153 1.6254883e-38
0.91175008 -0.041396443 0.12098154 1.6254883e-38
0.91175008 -0.041396443 0.12348153 1.7265073e-38
0.90425009 -0.046396445 0.12598154 2.0390364e-38
0.90425009 -0.046396445 0.12848154 1.8462163e-38
0.90425009 -0.043896444 0.12598154 1.6346718e-38
0.90675008 -0.046396445 0.12598154 1.8458935e-38
0.90675008 -0.046396445 0.12848154 1.9018966e-38
0.90675008 -0.043896444 0.12598154 1.7356909e-38
0.90675008 -0.043896444 0.12848154 2.0115572e-38
0.90675008 -0.046396445 0.13098153 1.7356909e-38
0.90925008 -0.046396445 0.12848154 1.8920309e-38
0.90925008 -0.043896444 0.12848154 2.1219043e-38
0.91175008 -0.046396445 0.12598154 1.9107884e-38
0.91175008 -0.046396445 0.12848154 1.7999806e-38
0.91175008 -0.043896444 0.12848154 1.9292629e-38
0.90925008 -0.046396445 0.13098153 1.7816086e-38
0.91175008 -0.041396443 0.12598154 1.7816086e-38
0.91175008 -0.041396443 0.12848154 1.8642606e-38
0.91425014 -0.053896446 0.12848154 1.4629574e-38
0.91675013 -0.053896446 0.12848154 1.4267999e-38
0.91675013 -0.053896446 0.13098153 1.1605844e-38
0.91425014 -0.051396444 0.12848154 2.122733e-38
0.91425014 -0.048896443 0.12848154 1.6622225e-38
0.91675013 -0.051396444 0.12848154 1.986164e-38
0.91675013 -0.048896443 0.12848154 1.5436255e-38
0.91675013 -0.051396444 0.13098153 1.5177297e-38
0.91675013 -0.048896443 0.13098153 1.5269493e-38
0.91925013 -0.048896443 0.12848154 1.5898303e-38
0.91925013 -0.051396444 0.13348153 1.3436404e-38
0.91925013 -0.048896443 0.13348153 1.3620796e-38
0.92175013 -0.051396444 0.13098153 1.3251994e-38
0.92175013 -0.048896443 0.13098153 1.3251994e-38
0.92175013 -0.048896443 0.13348153 9.1129298e-39
0.91425014 -0.041396443 0.11598153 1.6346718e-38
0.91425014 -0.041396443 0.11848153 1.6254883e-38
0.91675013 -0.041396443 0.11848153 1.6346718e-38
0.91675013 -0.038896445 0.11848153 1.6254883e-38
0.91425014 -0.041396443 0.12098154 1.6438554e-38
0.91925013 -0.041396443 0.11848153 1.6254883e-38
0.91925013 -0.038896445 0.11598153 1.6254883e-38
0.91925013 -0.038896445 0.11848153 1.6346718e-38
0.92175013 -0.041396443 0.11598153 1.6254883e-38
0.92175013 -0.041396443 0.11848153 1.6071212e-38
0.92175013 -0.038896445 0.11598153 1.6071212e-38
0.92175013 -0.038896445 0.11848153 1.6346718e-38
0.91925013 -0.041396443 0.12098154 1.6071212e-38
0.91925013 -0.041396443 0.12348153 1.6897731e-38
0.92175013 -0.041396443 0.12098154 1.5979376e-38
0.92175013 -0.041396443 0.12348153 1.8458935e-38
0.92175013 -0.038896445 0.12098154 1.6346718e-38
0.92175013 -0.038896445 0.12348153 1.6622225e-38
0.91425014 -0.046396445 0.12598154 1.910649e-38
0.91425014 -0.046396445 0.12848154 1.6989616e-38
0.91425014 -0.043896444 0.12598154 1.8918112e-38
0.91425014 -0.043896444 0.12848154 1.9845099e-38
0.91675013 -0.046396445 0.12848154 1.6989585e-38
0.91675013 -0.043896444 0.12598154 2.1128998e-38
0.91675013 -0.043896444 0.12848154 1.7265073e-38
0.91675013 -0.046396445 0.13098153 2.0030254e-38
0.91425014 -0.041396443 0.12598154 1.7448744e-38
0.91425014 -0.041396443 0.12848154 1.9660348e-38
0.91675013 -0.041396443 0.12848154 1.9199026e-38
0.91925013 -0.046396445 0.12598154 1.7448771e-38
0.91925013 -0.046396445 0.12848154 1.7356933e-38
0.91925013 -0.043896444 0.12598154 1.9382676e-38
0.91925013 -0.043896444 0.12848154 1.7816086e-38
0.92175013 -0.043896444 0.12598154 1.8922776e-38
0.92175013 -0.043896444 0.12848154 1.7173238e-38
0.92175013 -0.046396445 0.13098153 1.8750686e-38
0.92175013 -0.046396445 0.13348153 1.341661e-38
0.91925013 -0.041396443 0.12598154 1.9197925e-38
0.91925013 -0.041396443 0.12848154 1.855077e-38
0.92175013 -0.041396443 0.12598154 1.8734441e-38
0.92175013 -0.041396443 0.12848154 1.7816102e-38
0.92425013 -0.038896445 0.11348154 1.6346718e-38
0.92425013 -0.048896443 0.13098153 1.2500039e-38
0.92425013 -0.048896443 0.13348153 1.2231028e-38
0.92925012 -0.048896443 0.13098153 1.1771838e-38
0.92425013 -0.041396443 0.11848153 1.6346718e-38
0.92425013 -0.038896445 0.11598153 1.6254883e-38
0.92425013 -0.038896445 0.11848153 1.6346718e-38
0.92675012 -0.038896445 0.11598153 1.6254883e-38
0.92425013 -0.041396443 0.12098154 1.6805896e-38
0.92425013 -0.041396443 0.12348153 1.8367099e-38
0.92425013 -0.038896445 0.12098154 1.6622225e-38
0.92425013 -0.038896445 0.12348153 1.7265073e-38
0.92675012 -0.041396443 0.12348153 1.8367099e-38
0.92675012 -0.038896445 0.12348153 1.7265073e-38
0.92675012 -0.043896444 0.12848154 1.717325e-38
0.92425013 -0.046396445 0.13098153 1.480457e-38
0.92425013 -0.046396445 0.13348153 1.3061858e-38
0.92425013 -0.043896444 0.13098153 1.7448771e-38
0.92425013 -0.043896444 0.13348153 1.8743866e-38
0.92675012 -0.046396445 0.13348153 1.141353e-38
0.92675012 -0.043896444 0.13098153 1.9013213e-38
0.92675012 -0.043896444 0.13348153 1.6455784e-38
0.92425013 -0.041396443 0.12598154 1.9928663e-38
0.92425013 -0.038896445 0.12598154 1.8367099e-38
0.92675012 -0.041396443 0.12848154 1.9379442e-38
0.92425013 -0.041396443 0.13098153 1.7448771e-38
0.92425013 -0.041396443 0.13348153 1.5887595e-38
0.92675012 -0.041396443 0.13098153 1.6897731e-38
0.92925012 -0.046396445 0.13098153 1.3431343e-38
0.92925012 -0.043896444 0.13098153 1.819356e-38
0.92925012 -0.043896444 0.13348153 1.6179601e-38
0.93175012 -0.046396445 0.13098153 1.1598992e-38
0.93175012 -0.043896444 0.13098153 1.6548375e-38
0.92925012 -0.041396443 0.12598154 2.0023367e-38
0.92925012 -0.041396443 0.12848154 1.8827712e-38
0.92925012 -0.038896445 0.12598154 1.9193977e-38
0.92925012 -0.038896445 0.12848154 1.8734441e-38
0.93175012 -0.038896445 0.12848154 1.8370373e-38
0.92925012 -0.041396443 0.13098153 1.6530408e-38
0.92925012 -0.041396443 0.13348153 1.553315e-38
0.93175012 -0.041396443 0.13098153 1.6897731e-38
0.93175012 -0.041396443 0.13348153 1.4164649e-38
0.93175012 -0.038896445 0.13098153 1.735694e-38
0.93425012 -0.038896445 0.12848154 1.781609e-38
0.93675011 -0.038896445 0.12848154 1.6989588e-38
0.93425012 -0.038896445 0.13098153 1.6897731e-38
0.94175011 -0.041396443 0.12598154 1.8459333e-38
0.94175011 -0.041396443 0.12848154 1.8651238e-38
0.94175011 -0.038896445 0.12598154 1.6989571e-38
0.94175011 -0.038896445 0.12848154 1.5887541e-38
0.94175011 -0.041396443 0.13098153 1.6819204e-38
0.92175013 -0.036396444 0.11598153 1.6346718e-38
0.92175013 -0.036396444 0.11848153 1.6071212e-38
0.92175013 -0.036396444 0.12098154 1.6254883e-38
0.92175013 -0.036396444 0.12348153 1.5979376e-38
0.92425013 -0.036396444 0.11348154 1.6438554e-38
0.93675011 -0.033896446 0.10598154 1.6346718e-38
0.93425012 -0.033896446 0.11348154 1.6254883e-38
0.93675011 -0.033896446 0.11098153 1.6346718e-38
0.93675011 -0.031396445 0.10598154 1.6438554e-38
0.93925011 -0.033896446 0.10848153 1.6346718e-38
0.94175011 -0.033896446 0.10598154 1.6438554e-38
0.94175011 -0.033896446 0.10848153 1.6346718e-38
0.93925011 -0.033896446 0.11098153 1.6254883e-38
0.93925011 -0.033896446 0.11348154 1.6254883e-38
0.94175011 -0.033896446 0.11098153 1.6254883e-38
0.93925011 -0.031396445 0.10848153 1.6438554e-38
0.93925011 -0.028896444 0.10848153 1.6622225e-38
0.94175011 -0.031396445 0.10598154 1.6438554e-38
0.94175011 -0.031396445 0.10848153 1.6438554e-38
0.94175011 -0.028896444 0.10598154 1.6438554e-38
0.94175011 -0.028896444 0.10848153 1.6346718e-38
0.93925011 -0.031396445 0.11098153 1.6254883e-38
0.94175011 -0.031396445 0.11098153 1.6254883e-38
0.94175011 -0.031396445 0.11348154 1.6346718e-38
0.92425013 -0.036396444 0.11598153 1.6346718e-38
0.92425013 -0.036396444 0.11848153 1.6346718e-38
0.92425013 -0.033896446 0.11848153 1.6254883e-38
0.92675012 -0.036396444 0.11598153 1.6346718e-38
0.92675012 -0.036396444 0.11848153 1.6254883e-38
0.92425013 -0.036396444 0.12098154 1.6071212e-38
0.92425013 -0.036396444 0.12348153 1.5520199e-38
0.92425013 -0.033896446 0.12098154 1.6254883e-38
0.92675012 -0.036396444 0.12348153 1.5887541e-38
0.92425013 -0.031396445 0.11848153 1.6346718e-38
0.92425013 -0.031396445 0.12098154 1.6254883e-38
0.92675012 -0.031396445 0.12348153 1.6071212e-38
0.92925012 -0.036396444 0.11598153 1.6254883e-38
0.92925012 -0.033896446 0.11598153 1.6254883e-38
0.93175012 -0.033896446 0.11848153 1.6254883e-38
0.92925012 -0.036396444 0.12098154 1.6071212e-38
0.92925012 -0.036396444 0.12348153 1.6438554e-38
0.92925012 -0.033896446 0.12098154 1.6254883e-38
0.92925012 -0.033896446 0.12348153 1.6346718e-38
0.93175012 -0.036396444 0.12098154 1.6622225e-38
0.93175012 -0.036396444 0.12348153 1.8091593e-38
0.93175012 -0.033896446 0.12098154 1.5979376e-38
0.93175012 -0.031396445 0.12098154 1.6071212e-38
0.93175012 -0.028896444 0.12098154 1.6346718e-38
0.92925012 -0.036396444 0.12598154 1.8091593e-38
0.92925012 -0.036396444 0.12848154 1.9101783e-38
0.93175012 -0.036396444 0.12598154 1.9193619e-38
0.93175012 -0.036396444 0.12848154 1.9563831e-38
0.93425012 -0.033896446 0.11848153 1.5979376e-38
0.93425012 -0.036396444 0.12348153 1.7448744e-38
0.93425012 -0.033896446 0.12098154 1.6071212e-38
0.93675011 -0.033896446 0.12098154 1.7448744e-38
0.93675011 -0.033896446 0.12348153 1.7907922e-38
0.93425012 -0.031396445 0.11848153 1.6254883e-38
0.93425012 -0.031396445 0.12098154 1.6254883e-38
0.93925011 -0.033896446 0.11598153 1.6254883e-38
0.93925011 -0.033896446 0.11848153 1.6071212e-38
0.94175011 -0.033896446 0.11848153 1.6254883e-38
0.93925011 -0.033896446 0.12098154 1.6346718e-38
0.93925011 -0.033896446 0.12348153 1.6530389e-38
0.94175011 -0.033896446 0.12098154 1.6622225e-38
0.94175011 -0.033896446 0.12348153 1.7448744e-38
0.93925011 -0.031396445 0.11598153 1.6254883e-38
0.93925011 -0.031396445 0.11848153 1.6346718e-38
0.93925011 -0.028896444 0.11848153 1.6438554e-38
0.94175011 -0.031396445 0.11598153 1.6346718e-38
0.94175011 -0.031396445 0.11848153 1.6254883e-38
0.94175011 -0.028896444 0.11848153 1.6530389e-38
0.93925011 -0.031396445 0.12098154 1.6438554e-38
0.93925011 -0.031396445 0.12348153 1.6897731e-38
0.93925011 -0.028896444 0.12098154 1.6622225e-38
0.93925011 -0.028896444 0.12348153 1.671406e-38
0.94175011 -0.031396445 0.12098154 1.6622225e-38
0.94175011 -0.031396445 0.12348153 1.6897731e-38
0.94175011 -0.028896444 0.12098154 1.6622225e-38
0.93425012 -0.036396444 0.12598154 1.7907922e-38
0.93425012 -0.036396444 0.12848154 1.9105729e-38
0.93675011 -0.036396444 0.12848154 1.6806982e-38
0.93425012 -0.036396444 0.13098153 1.8003001e-38
0.93925011 -0.036396444 0.12598154 1.9291194e-38
0.93925011 -0.036396444 0.12848154 1.6805907e-38
0.93925011 -0.033896446 0.12598154 1.8644758e-38
0.93925011 -0.033896446 0.12848154 1.8835286e-38
0.94175011 -0.036396444 0.12598154 1.7176825e-38
0.94175011 -0.036396444 0.12848154 1.6530389e-38
0.94175011 -0.033896446 0.12598154 1.8275264e-38
0.94425011 -0.041396443 0.12848154 1.9109758e-38
0.94425011 -0.038896445 0.12848154 1.6164171e-38
0.9467501 -0.041396443 0.12598154 1.3795828e-38
0.9467501 -0.041396443 0.12848154 1.6635892e-38
0.9467501 -0.038896445 0.12598154 1.6255288e-38
0.9467501 -0.038896445 0.12848154 1.5714279e-38
0.94425011 -0.041396443 0.13098153 1.7277295e-38
0.94425011 -0.038896445 0.13098153 1.5895818e-38
0.9467501 -0.038896445 0.13098153 1.4890301e-38
0.9492501 -0.041396443 0.12848154 1.7096147e-38
0.9492501 -0.038896445 0.12848154 1.5620658e-38
0.9517501 -0.041396443 0.12848154 1.6180337e-38
0.9517501 -0.038896445 0.12848154 1.4891731e-38
0.95675009 -0.041396443 0.12348153 1.6913197e-38
0.95675009 -0.038896445 0.12348153 1.5806491e-38
0.9542501 -0.041396443 0.12598154 1.7094715e-38
0.9542501 -0.041396443 0.12848154 1.5719693e-38
0.9542501 -0.038896445 0.12598154 1.5988367e-38
0.9542501 -0.038896445 0.12848154 1.4982128e-38
0.95675009 -0.041396443 0.12598154 1.618104e-38
0.95675009 -0.038896445 0.12598154 1.4890301e-38
0.95925009 -0.038896445 0.12848154 1.4250655e-38
0.9467501 -0.028896444 0.085981533 1.7448744e-38
0.9492501 -0.028896444 0.088481531 1.7265073e-38
0.9467501 -0.026396444 0.085981533 1.7448744e-38
0.9467501 -0.026396444 0.088481531 1.7265073e-38
0.9467501 -0.023896445 0.085981533 1.6897731e-38
0.9467501 -0.026396444 0.090981536 1.6897731e-38
0.9467501 -0.026396444 0.093481533 1.6622225e-38
0.9467501 -0.023896445 0.090981536 1.6622225e-38
0.9467501 -0.021396445 0.085981533 1.6530389e-38
0.9492501 -0.026396444 0.088481531 1.6989567e-38
0.9492501 -0.023896445 0.088481531 1.6622225e-38
0.9517501 -0.026396444 0.085981533 1.7081402e-38
0.9517501 -0.023896445 0.085981533 1.6897731e-38
0.9492501 -0.026396444 0.090981536 1.6897731e-38
0.9492501 -0.026396444 0.093481533 1.6622225e-38
0.9492501 -0.023896445 0.090981536 1.6897731e-38
0.9517501 -0.026396444 0.093481533 1.6897731e-38
0.9517501 -0.023896445 0.093481533 1.6622225e-38
0.9517501 -0.021396445 0.085981533 1.6438554e-38
0.9492501 -0.021396445 0.090981536 1.6438554e-38
0.95675009 -0.028896444 0.093481533 1.6346718e-38
0.95675009 -0.023896445 0.083481535 1.6897731e-38
0.96175009 -0.023896445 0.078481533 1.671406e-38
0.96175009 -0.021396445 0.078481533 1.6438554e-38
0.95925009 -0.021396445 0.08098153 1.6163047e-38
0.95925009 -0.021396445 0.083481535 1.6254883e-38
0.95925009 -0.018896444 0.08098153 1.5979376e-38
0.95925009 -0.018896444 0.083481535 1.6071212e-38
0.96175009 -0.021396445 0.083481535 1.6530389e-38
0.96175009 -0.018896444 0.083481535 1.6346718e-38
0.9542501 -0.026396444 0.088481531 1.6897731e-38
0.9542501 -0.023896445 0.088481531 1.6622225e-38
0.95675009 -0.026396444 0.085981533 1.6897731e-38
0.95675009 -0.023896445 0.088481531 1.6622225e-38
0.9542501 -0.026396444 0.090981536 1.6897731e-38
0.9542501 -0.023896445 0.090981536 1.6622225e-38
0.95675009 -0.026396444 0.093481533 1.6438554e-38
0.95675009 -0.023896445 0.090981536 1.6622225e-38
0.95675009 -0.023896445 0.093481533 1.6622225e-38
0.95675009 -0.021396445 0.090981536 1.6163047e-38
0.95925009 -0.026396444 0.085981533 1.671406e-38
0.95925009 -0.023896445 0.085981533 1.6622225e-38
0.96175009 -0.026396444 0.085981533 1.6805896e-38
0.96175009 -0.026396444 0.088481531 1.671406e-38
0.96175009 -0.023896445 0.085981533 1.6897731e-38
0.96175009 -0.023896445 0.088481531 1.6622225e-38
0.95925009 -0.026396444 0.090981536 1.6622225e-38
0.95925009 -0.026396444 0.093481533 1.6622225e-38
0.95925009 -0.023896445 0.090981536 1.6622225e-38
0.95925009 -0.023896445 0.093481533 1.6438554e-38
0.96175009 -0.026396444 0.090981536 1.6622225e-38
0.96175009 -0.026396444 0.093481533 1.6438554e-38
0.96175009 -0.023896445 0.090981536 1.6622225e-38
0.96175009 -0.023896445 0.093481533 1.6438554e-38
0.95925009 -0.021396445 0.085981533 1.6346718e-38
0.95925009 -0.018896444 0.085981533 1.6346718e-38
0.96175009 -0.021396445 0.085981533 1.6346718e-38
0.96175009 -0.021396445 0.088481531 1.6346718e-38
0.96175009 -0.018896444 0.085981533 1.6254883e-38
0.96175009 -0.018896444 0.088481531 1.6071212e-38
0.95925009 -0.021396445 0.090981536 1.6346718e-38
0.95925009 -0.021396445 0.093481533 1.6254883e-38
0.95925009 -0.018896444 0.090981536 1.6254883e-38
0.95925009 -0.018896444 0.093481533 1.6254883e-38
0.96175009 -0.021396445 0.090981536 1.6346718e-38
0.96175009 -0.018896444 0.090981536 1.6254883e-38
0.97175008 -0.023896445 0.070981532 1.7632415e-38
0.97175008 -0.023896445 0.07348153 1.6897731e-38
0.97175008 -0.021396445 0.070981532 1.6438554e-38
0.97175008 -0.021396445 0.07348153 1.6438554e-38
0.97175008 -0.018896444 0.070981532 1.6254883e-38
0.97175008 -0.018896444 0.07348153 1.6254883e-38
0.97675014 -0.023896445 0.068481535 1.7816086e-38
0.97675014 -0.021396445 0.068481535 1.6530396e-38
0.97675014 -0.018896444 0.068481535 1.6254887e-38
0.97425008 -0.018896444 0.070981532 1.6254883e-38
0.97675014 -0.021396445 0.070981532 1.6530389e-38
0.97675014 -0.018896444 0.070981532 1.6438554e-38
0.97925013 -0.023896445 0.070981532 1.6897731e-38
0.97925013 -0.018896444 0.068481535 1.6438554e-38
0.97925013 -0.021396445 0.07348153 1.6438554e-38
0.97925013 -0.018896444 0.070981532 1.6254883e-38
0.96425009 -0.023896445 0.075981535 1.6805896e-38
0.96675009 -0.026396444 0.075981535 1.6897731e-38
0.96675009 -0.023896445 0.075981535 1.6989567e-38
0.96675009 -0.023896445 0.078481533 1.6897731e-38
0.96425009 -0.023896445 0.08098153 1.6897731e-38
0.96675009 -0.023896445 0.083481535 1.6622225e-38
0.96425009 -0.021396445 0.075981535 1.6530389e-38
0.96675009 -0.021396445 0.075981535 1.6530389e-38
0.96675009 -0.021396445 0.078481533 1.6438554e-38
0.96675009 -0.018896444 0.075981535 1.6438554e-38
0.96675009 -0.018896444 0.078481533 1.6071212e-38
0.96425009 -0.021396445 0.08098153 1.6438554e-38
0.96675009 -0.021396445 0.083481535 1.6346718e-38
0.96925008 -0.021396445 0.075981535 1.6530389e-38
0.96925008 -0.021396445 0.078481533 1.6346718e-38
0.96925008 -0.018896444 0.075981535 1.6438554e-38
0.96925008 -0.018896444 0.078481533 1.6254883e-38
0.97175008 -0.021396445 0.075981535 1.6438554e-38
0.97175008 -0.018896444 0.075981535 1.6438554e-38
0.96925008 -0.021396445 0.08098153 1.6346718e-38
0.96925008 -0.021396445 0.083481535 1.6438554e-38
0.96925008 -0.018896444 0.08098153 1.6254883e-38
0.96925008 -0.018896444 0.083481535 1.6346718e-38
0.97175008 -0.021396445 0.08098153 1.6346718e-38
0.97175008 -0.021396445 0.083481535 1.6346718e-38
0.97175008 -0.018896444 0.08098153 1.6254883e-38
0.97175008 -0.018896444 0.083481535 1.5979376e-38
0.96425009 -0.023896445 0.088481531 1.6622225e-38
0.96675009 -0.023896445 0.085981533 1.6622225e-38
0.96425009 -0.026396444 0.090981536 1.6438554e-38
0.96425009 -0.026396444 0.093481533 1.671406e-38
0.96425009 -0.023896445 0.090981536 1.6438554e-38
0.96425009 -0.023896445 0.093481533 1.6622225e-38
0.96675009 -0.026396444 0.090981536 1.6438554e-38
0.96675009 -0.026396444 0.093481533 1.6438554e-38
0.96675009 -0.023896445 0.090981536 1.6438554e-38
0.96675009 -0.023896445 0.093481533 1.6438554e-38
0.96425009 -0.021396445 0.088481531 1.6163047e-38
0.96425009 -0.018896444 0.088481531 1.5795705e-38
0.96675009 -0.021396445 0.085981533 1.6346718e-38
0.96675009 -0.018896444 0.085981533 1.6254883e-38
0.96425009 -0.021396445 0.090981536 1.6254883e-38
0.96425009 -0.021396445 0.093481533 1.6254883e-38
0.96425009 -0.018896444 0.090981536 1.5795705e-38
0.96425009 -0.018896444 0.093481533 1.6254883e-38
0.96675009 -0.021396445 0.090981536 1.6254883e-38
0.96675009 -0.021396445 0.093481533 1.6346718e-38
0.96675009 -0.018896444 0.090981536 1.6254883e-38
0.96675009 -0.018896444 0.093481533 1.6071212e-38
0.97175008 -0.026396444 0.090981536 1.6438554e-38
0.97175008 -0.026396444 0.093481533 1.6438554e-38
0.97175008 -0.023896445 0.090981536 1.6438554e-38
0.97175008 -0.023896445 0.093481533 1.6438554e-38
0.97175008 -0.018896444 0.085981533 1.5795705e-38
0.97175008 -0.018896444 0.088481531 1.5795705e-38
0.97175008 -0.021396445 0.090981536 1.6254883e-38
0.97175008 -0.021396445 0.093481533 1.6071212e-38
0.97175008 -0.018896444 0.090981536 1.6254883e-38
0.97175008 -0.018896444 0.093481533 1.6071212e-38
0.97425008 -0.021396445 0.078481533 1.6346718e-38
0.97425008 -0.018896444 0.078481533 1.6254883e-38
0.97425008 -0.018896444 0.083481535 1.5795705e-38
0.97925013 -0.018896444 0.075981535 1.6346718e-38
0.97675014 -0.023896445 0.088481531 1.6438554e-38
0.97675014 -0.026396444 0.090981536 1.6438554e-38
0.97675014 -0.023896445 0.090981536 1.6438554e-38
0.97425008 -0.018896444 0.085981533 1.5887541e-38
0.97425008 -0.018896444 0.088481531 1.5887541e-38
0.97675014 -0.021396445 0.088481531 1.6346718e-38
0.97675014 -0.018896444 0.088481531 1.5795705e-38
0.97425008 -0.021396445 0.093481533 1.6254883e-38
0.97425008 -0.018896444 0.090981536 1.6254883e-38
0.97425008 -0.018896444 0.093481533 1.6254883e-38
0.97675014 -0.021396445 0.090981536 1.6163047e-38
0.97675014 -0.018896444 0.090981536 1.5795705e-38
0.97925013 -0.026396444 0.093481533 1.6438554e-38
0.97925013 -0.023896445 0.093481533 1.6438554e-38
0.97925013 -0.021396445 0.093481533 1.6346718e-38
0.97925013 -0.018896444 0.093481533 1.6254883e-38
0.97175008 -0.016396444 0.070981532 1.5428372e-38
0.97675014 -0.016396444 0.068481535 1.5612053e-38
0.97425008 -0.016396444 0.070981532 1.5795707e-38
0.97425008 -0.016396444 0.07348153 1.5887541e-38
0.97675014 -0.016396444 0.070981532 1.6071212e-38
0.97925013 -0.016396444 0.068481535 1.6071212e-38
0.97925013 -0.013896445 0.068481535 1.6346718e-38
0.97925013 -0.016396444 0.070981532 1.5979376e-38
0.97925013 -0.016396444 0.07348153 1.5979376e-38
0.98175013 -0.016396444 0.070981532 1.5887541e-38
0.98175013 -0.016396444 0.07348153 1.5795705e-38
0.98175013 -0.013896445 0.070981532 1.6254883e-38
0.98175013 -0.013896445 0.07348153 1.5520199e-38
0.97925013 -0.011396444 0.068481535 1.6438554e-38
0.97925013 -0.008896444 0.068481535 1.6897731e-38
0.98175013 -0.011396444 0.070981532 1.6438554e-38
0.98175013 -0.011396444 0.07348153 1.570387e-38
0.98175013 -0.008896444 0.070981532 1.671406e-38
0.98175013 -0.008896444 0.07348153 1.6071212e-38
0.97675014 -0.0013964444 0.068481535 1.7816086e-38
0.97675014 0.0011035556 0.068481535 1.8091593e-38
0.97425008 -0.0013964444 0.070981532 1.754058e-38
0.97425008 -0.0013964444 0.07348153 1.7265073e-38
0.97425008 0.0011035556 0.070981532 1.754058e-38
0.97425008 0.0011035556 0.07348153 1.7265073e-38
0.97675014 -0.0013964444 0.070981532 1.754058e-38
0.97675014 0.0011035556 0.070981532 1.754058e-38
0.97925013 -0.0063964445 0.068481535 1.6989567e-38
0.97925013 -0.0038964443 0.068481535 1.6989567e-38
0.98175013 -0.0063964445 0.070981532 1.6989567e-38
0.98175013 -0.0063964445 0.07348153 1.6346718e-38
0.98175013 -0.0038964443 0.070981532 1.6989567e-38
0.98175013 -0.0038964443 0.07348153 1.6438554e-38
0.97925013 -0.0013964444 0.068481535 1.7356909e-38
0.97925013 0.0011035556 0.068481535 1.754058e-38
0.97925013 -0.0013964444 0.070981532 1.7265073e-38
0.97925013 -0.0013964444 0.07348153 1.671406e-38
0.97925013 0.0011035556 0.070981532 1.7265073e-38
0.97925013 0.0011035556 0.07348153 1.6989567e-38
0.98175013 -0.0013964444 0.070981532 1.7265073e-38
0.98175013 -0.0013964444 0.07348153 1.6622225e-38
0.98175013 0.0011035556 0.070981532 1.7448744e-38
0.98175013 0.0011035556 0.07348153 1.6622225e-38
0.97175008 -0.016396444 0.075981535 1.6071212e-38
0.97175008 -0.016396444 0.088481531 1.5795705e-38
0.97425008 -0.016396444 0.078481533 1.5795705e-38
0.97675014 -0.016396444 0.075981535 1.5795705e-38
0.97675014 -0.016396444 0.078481533 1.5795705e-38
0.97675014 -0.013896445 0.078481533 1.5428363e-38
0.97675014 -0.016396444 0.08098153 1.5795705e-38
0.97675014 -0.016396444 0.083481535 1.5795705e-38
0.97675014 -0.011396444 0.078481533 1.570387e-38
0.97675014 -0.008896444 0.078481533 1.5979376e-38
0.97925013 -0.016396444 0.075981535 1.5795705e-38
0.98175013 -0.016396444 0.075981535 1.5795705e-38
0.98175013 -0.016396444 0.078481533 1.570387e-38
0.98175013 -0.013896445 0.075981535 1.570387e-38
0.98175013 -0.013896445 0.078481533 1.5520199e-38
0.97925013 -0.016396444 0.08098153 1.5795705e-38
0.97925013 -0.013896445 0.08098153 1.5520199e-38
0.98175013 -0.016396444 0.083481535 1.5795705e-38
0.98175013 -0.013896445 0.083481535 1.5520199e-38
0.98175013 -0.011396444 0.075981535 1.5795705e-38
0.98175013 -0.011396444 0.078481533 1.5520199e-38
0.98175013 -0.008896444 0.075981535 1.5979376e-38
0.98175013 -0.008896444 0.078481533 1.570387e-38
0.97925013 -0.011396444 0.08098153 1.5520199e-38
0.97925013 -0.008896444 0.08098153 1.5795705e-38
0.98175013 -0.011396444 0.083481535 1.5520199e-38
0.98175013 -0.008896444 0.083481535 1.5520199e-38
0.97425008 -0.016396444 0.085981533 1.5520199e-38
0.97425008 -0.016396444 0.088481531 1.5795705e-38
0.97425008 -0.013896445 0.088481531 1.570387e-38
0.97675014 -0.016396444 0.088481531 1.5795705e-38
0.97675014 -0.013896445 0.088481531 1.5520199e-38
0.97425008 -0.016396444 0.090981536 1.5795705e-38
0.97425008 -0.016396444 0.093481533 1.5795705e-38
0.97425008 -0.013896445 0.093481533 1.5520199e-38
0.97675014 -0.016396444 0.090981536 1.5795705e-38
0.97675014 -0.013896445 0.090981536 1.570387e-38
0.97425008 -0.011396444 0.088481531 1.5520199e-38
0.97675014 -0.011396444 0.088481531 1.5520199e-38
0.97675014 -0.011396444 0.090981536 1.5520199e-38
0.97675014 -0.008896444 0.090981536 1.5520199e-38
0.97925013 -0.016396444 0.085981533 1.5795705e-38
0.97925013 -0.013896445 0.085981533 1.5520199e-38
0.97925013 -0.013896445 0.088481531 1.5520199e-38
0.98175013 -0.013896445 0.085981533 1.5520199e-38
0.98175013 -0.013896445 0.088481531 1.5520199e-38
0.97925013 -0.016396444 0.093481533 1.5795705e-38
0.97925013 -0.013896445 0.093481533 1.570387e-38
0.97925013 -0.011396444 0.085981533 1.5520199e-38
0.97925013 -0.011396444 0.088481531 1.5520199e-38
0.97925013 -0.008896444 0.085981533 1.5520199e-38
0.97925013 -0.008896444 0.088481531 1.5520199e-38
0.98175013 -0.011396444 0.085981533 1.5520199e-38
0.98175013 -0.011396444 0.088481531 1.5520199e-38
0.98175013 -0.008896444 0.085981533 1.5428363e-38
0.98175013 -0.008896444 0.088481531 1.5520199e-38
0.97925013 -0.011396444 0.093481533 1.570387e-38
0.97925013 -0.008896444 0.093481533 1.570387e-38
0.98175013 -0.008896444 0.090981536 1.5336528e-38
0.98175013 -0.008896444 0.093481533 1.5428363e-38
0.97675014 -0.0013964444 0.075981535 1.6622225e-38
0.97675014 0.0011035556 0.075981535 1.6989567e-38
0.97925013 -0.0063964445 0.08098153 1.5979376e-38
0.98175013 -0.0063964445 0.083481535 1.5520199e-38
0.97925013 -0.0013964444 0.075981535 1.6346718e-38
0.97925013 0.0011035556 0.075981535 1.6438554e-38
0.98175013 -0.0013964444 0.075981535 1.6254883e-38
0.98175013 -0.0013964444 0.078481533 1.5979376e-38
0.98175013 0.0011035556 0.075981535 1.6346718e-38
0.98175013 0.0011035556 0.078481533 1.6254883e-38
0.98175013 -0.0013964444 0.083481535 1.5979376e-38
0.98175013 0.0011035556 0.083481535 1.5795705e-38
0.97675014 0.0011035556 0.090981536 1.5979376e-38
0.97925013 -0.0063964445 0.085981533 1.5520199e-38
0.97925013 -0.0063964445 0.088481531 1.570387e-38
0.98175013 -0.0063964445 0.085981533 1.5520199e-38
0.98175013 -0.0063964445 0.088481531 1.5795705e-38
0.98175013 -0.0038964443 0.085981533 1.5795705e-38
0.98175013 -0.0038964443 0.088481531 1.5795705e-38
0.97925013 -0.0063964445 0.093481533 1.5979376e-38
0.97925013 -0.0038964443 0.093481533 1.5520199e-38
0.98175013 -0.0063964445 0.090981536 1.5979376e-38
0.98175013 -0.0063964445 0.093481533 1.570387e-38
0.98175013 -0.0038964443 0.090981536 1.5979376e-38
0.98175013 -0.0038964443 0.093481533 1.5520199e-38
0.97925013 -0.0013964444 0.088481531 1.5795705e-38
0.97925013 0.0011035556 0.088481531 1.5795705e-38
0.98175013 -0.0013964444 0.085981533 1.5979376e-38
0.98175013 -0.0013964444 0.088481531 1.5979376e-38
0.98175013 0.0011035556 0.085981533 1.5795705e-38
0.98175013 0.0011035556 0.088481531 1.5979376e-38
0.97925013 -0.0013964444 0.093481533 1.6071212e-38
0.97925013 0.0011035556 0.093481533 1.6254883e-38
0.98175013 -0.0013964444 0.090981536 1.6071212e-38
0.98175013 -0.0013964444 0.093481533 1.5520199e-38
0.98175013 0.0011035556 0.090981536 1.6254883e-38
0.98175013 0.0011035556 0.093481533 1.5979376e-38
0.94425011 -0.031396445 0.10348153 1.6622225e-38
0.94425011 -0.028896444 0.10348153 1.6622225e-38
0.9492501 -0.028896444 0.10348153 1.6346718e-38
0.94425011 -0.033896446 0.11098153 1.6254883e-38
0.94425011 -0.033896446 0.11348154 1.6254883e-38
0.94425011 -0.028896444 0.10598154 1.6438554e-38
0.9467501 -0.031396445 0.10848153 1.6254883e-38
0.9467501 -0.028896444 0.10848153 1.6438554e-38
0.94425011 -0.031396445 0.11098153 1.6254883e-38
0.94425011 -0.031396445 0.11348154 1.6071212e-38
0.94425011 -0.028896444 0.11348154 1.6254883e-38
0.9492501 -0.033896446 0.11098153 1.6254883e-38
0.9492501 -0.033896446 0.11348154 1.6346718e-38
0.9492501 -0.028896444 0.10598154 1.6346718e-38
0.9492501 -0.028896444 0.10848153 1.6346718e-38
0.9517501 -0.028896444 0.10848153 1.6254883e-38
