# .PCD v0.7 - Point Cloud Data file format
VERSION 0.7
FIELDS x y z rgb
SIZE 4 4 4 4
TYPE F F F F
COUNT 1 1 1 1
WIDTH 969
HEIGHT 1
VIEWPOINT 0 0 0 1 0 0 0
POINTS 969
DATA ascii
0.85328782 0.060444556 0.066912025 1.6530406e-38
0.91828781 -0.037055444 0.10441203 1.6989567e-38
0.92078781 -0.037055444 0.10691202 1.6897731e-38
0.91828781 -0.039555445 0.10941202 1.671406e-38
0.92078781 -0.037055444 0.10941202 1.6622225e-38
0.91828781 -0.052055445 0.13191202 1.4993985e-38
0.91828781 -0.047055446 0.12691203 1.754064e-38
0.91828781 -0.049555443 0.13191202 1.5270211e-38
0.91828781 -0.047055446 0.13191202 1.9755106e-38
0.92078781 -0.049555443 0.13191202 1.334454e-38
0.92078781 -0.047055446 0.12941203 1.6897759e-38
0.92078781 -0.047055446 0.13191202 1.8569144e-38
0.92328781 -0.047055446 0.13191202 1.360208e-38
0.92578781 -0.047055446 0.13191202 1.3062223e-38
0.91828781 -0.039555445 0.11441202 1.6346718e-38
0.91828781 -0.044555444 0.12691203 1.9203304e-38
0.91828781 -0.042055447 0.12441202 1.8367099e-38
0.91828781 -0.042055447 0.12691203 1.9110752e-38
0.92078781 -0.042055447 0.12691203 1.8645834e-38
0.92078781 -0.044555444 0.12941203 1.7632415e-38
0.92078781 -0.044555444 0.13191202 1.7999781e-38
0.92078781 -0.042055447 0.12941203 1.8183451e-38
0.92078781 -0.042055447 0.13191202 1.7448764e-38
0.91828781 -0.039555445 0.12441202 1.671406e-38
0.91828781 -0.039555445 0.12691203 2.0390364e-38
0.91828781 -0.037055444 0.12441202 1.6071212e-38
0.91828781 -0.037055444 0.12691203 1.6805896e-38
0.92078781 -0.039555445 0.12441202 1.8826635e-38
0.92078781 -0.039555445 0.12691203 2.0389281e-38
0.92078781 -0.039555445 0.12941203 2.0113409e-38
0.92078781 -0.039555445 0.13191202 1.928653e-38
0.92328781 -0.044555444 0.13191202 1.8828096e-38
0.92328781 -0.042055447 0.12941203 1.7999763e-38
0.92328781 -0.042055447 0.13191202 1.7081402e-38
0.92578781 -0.044555444 0.13191202 1.8375434e-38
0.92578781 -0.042055447 0.13191202 1.5887587e-38
0.92328781 -0.039555445 0.12441202 1.8183428e-38
0.92328781 -0.037055444 0.12441202 1.5887541e-38
0.92578781 -0.039555445 0.12691203 1.9469125e-38
0.92328781 -0.039555445 0.12941203 1.9928303e-38
0.92328781 -0.039555445 0.13191202 1.6897731e-38
0.92328781 -0.037055444 0.12941203 1.8091593e-38
0.92578781 -0.039555445 0.12941203 1.8918112e-38
0.92578781 -0.039555445 0.13191202 1.7081411e-38
0.9282878 -0.037055444 0.12441202 1.6805896e-38
0.9282878 -0.037055444 0.12691203 1.8091593e-38
0.9282878 -0.039555445 0.12941203 1.7265073e-38
0.9282878 -0.039555445 0.13191202 1.7081406e-38
0.9282878 -0.037055444 0.12941203 2.0301401e-38
0.9307878 -0.039555445 0.12941203 1.8550777e-38
0.9332878 -0.037055444 0.12691203 1.9379452e-38
0.93828779 -0.039555445 0.12691203 1.7724265e-38
0.93828779 -0.037055444 0.12441202 2.0666591e-38
0.93828779 -0.037055444 0.12691203 1.8827353e-38
0.94078779 -0.039555445 0.12691203 1.6530399e-38
0.94078779 -0.037055444 0.12441202 1.9474506e-38
0.94078779 -0.037055444 0.12691203 1.7637108e-38
0.94328779 -0.039555445 0.12691203 1.6989577e-38
0.94328779 -0.037055444 0.12691203 1.6805901e-38
0.94578779 -0.039555445 0.12691203 1.8375787e-38
0.94578779 -0.037055444 0.12691203 1.6346731e-38
0.94328779 -0.039555445 0.12941203 1.7731137e-38
0.94328779 -0.037055444 0.12941203 1.680591e-38
0.95078778 -0.039555445 0.12691203 1.7186557e-38
0.94828779 -0.039555445 0.12941203 1.5898662e-38
0.94828779 -0.037055444 0.12941203 1.7449142e-38
0.95078778 -0.039555445 0.12941203 1.4889598e-38
0.95078778 -0.037055444 0.12941203 1.809231e-38
0.95328778 -0.039555445 0.12691203 1.4890649e-38
0.95328778 -0.037055444 0.12691203 1.7356961e-38
0.95578778 -0.039555445 0.12441202 1.608379e-38
0.95578778 -0.037055444 0.12441202 1.726512e-38
0.91828781 -0.034555446 0.10441203 1.7265073e-38
0.92328781 -0.034555446 0.10441203 1.6897731e-38
0.92328781 -0.034555446 0.10691202 1.6622225e-38
0.92578781 -0.034555446 0.12191202 1.6254883e-38
0.92078781 -0.034555446 0.12441202 1.6254883e-38
0.9307878 -0.034555446 0.12191202 1.6622225e-38
0.9282878 -0.034555446 0.12441202 1.6622225e-38
0.9307878 -0.034555446 0.12441202 1.754058e-38
0.9307878 -0.034555446 0.12691203 1.8091593e-38
0.9307878 -0.032055445 0.12691203 1.6622225e-38
0.9357878 -0.034555446 0.12691203 1.8642606e-38
0.9357878 -0.032055445 0.12691203 1.6989567e-38
0.95578778 -0.027055444 0.10691202 1.6163047e-38
0.95578778 -0.024555445 0.10691202 1.6438554e-38
0.93828779 -0.034555446 0.12441202 1.8458935e-38
0.93828779 -0.034555446 0.12691203 1.8642606e-38
0.94078779 -0.034555446 0.12441202 1.8645117e-38
0.94078779 -0.034555446 0.12691203 1.9200844e-38
0.94078779 -0.032055445 0.12441202 1.7265073e-38
0.94328779 -0.034555446 0.12691203 1.9110794e-38
0.94328779 -0.032055445 0.12691203 1.7632415e-38
0.94578779 -0.034555446 0.12441202 1.8834933e-38
0.94578779 -0.034555446 0.12691203 1.8277458e-38
0.94578779 -0.032055445 0.12441202 1.8275265e-38
0.94578779 -0.032055445 0.12691203 2.1315185e-38
0.94328779 -0.034555446 0.12941203 1.8367506e-38
0.94578779 -0.029555446 0.12441202 1.6254883e-38
0.95078778 -0.032055445 0.11691202 1.6622225e-38
0.94828779 -0.032055445 0.12191202 1.7632415e-38
0.95078778 -0.032055445 0.12191202 1.7448744e-38
0.95078778 -0.029555446 0.11691202 1.6622225e-38
0.95078778 -0.027055444 0.11691202 1.671406e-38
0.95078778 -0.029555446 0.12191202 1.5244692e-38
0.95078778 -0.027055444 0.12191202 1.5520199e-38
0.95578778 -0.032055445 0.11441202 1.6897731e-38
0.95328778 -0.032055445 0.11941203 1.7448744e-38
0.95578778 -0.032055445 0.12191202 1.754058e-38
0.95578778 -0.029555446 0.11441202 1.6622225e-38
0.95578778 -0.029555446 0.11691202 1.671406e-38
0.95578778 -0.027055444 0.11441202 1.671406e-38
0.95578778 -0.027055444 0.11691202 1.6805896e-38
0.95328778 -0.029555446 0.11941203 1.6254883e-38
0.95328778 -0.027055444 0.11941203 1.6346718e-38
0.95578778 -0.029555446 0.12191202 1.5244692e-38
0.95578778 -0.027055444 0.12191202 1.5428363e-38
0.94828779 -0.034555446 0.12441202 1.9018598e-38
0.94828779 -0.034555446 0.12691203 1.8648039e-38
0.94828779 -0.032055445 0.12441202 2.0762739e-38
0.94828779 -0.032055445 0.12691203 2.094607e-38
0.95078778 -0.034555446 0.12691203 1.744881e-38
0.95078778 -0.032055445 0.12691203 1.9111147e-38
0.94828779 -0.034555446 0.12941203 1.726511e-38
0.95078778 -0.034555446 0.12941203 1.6989567e-38
0.95328778 -0.034555446 0.12691203 1.7173285e-38
0.95328778 -0.032055445 0.12441202 1.846037e-38
0.95328778 -0.032055445 0.12691203 1.8742695e-38
0.95578778 -0.034555446 0.12441202 1.6897731e-38
0.95578778 -0.032055445 0.12441202 1.9203342e-38
0.95328778 -0.029555446 0.12441202 1.6530389e-38
0.95328778 -0.027055444 0.12441202 1.634672e-38
0.95578778 -0.029555446 0.12441202 2.0395402e-38
0.95578778 -0.027055444 0.12441202 1.6805896e-38
0.95578778 -0.024555445 0.11691202 1.6530389e-38
0.95328778 -0.024555445 0.11941203 1.5795705e-38
0.95578778 -0.024555445 0.11941203 1.5795705e-38
0.95578778 -0.024555445 0.12191202 1.487735e-38
0.95828778 -0.039555445 0.12691203 1.4707705e-38
0.95828778 -0.037055444 0.12691203 1.910825e-38
0.96078777 -0.037055444 0.12691203 1.873912e-38
0.96078777 -0.037055444 0.12941203 1.911905e-38
0.96328777 -0.037055444 0.12691203 1.9027205e-38
0.97078776 -0.029555446 0.07191202 1.8367099e-38
0.97078776 -0.027055444 0.07191202 1.8183428e-38
0.97328776 -0.027055444 0.069412023 1.8091593e-38
0.96828777 -0.022055445 0.069412023 1.6897731e-38
0.97078776 -0.024555445 0.069412023 1.9193619e-38
0.97078776 -0.024555445 0.07191202 1.7356909e-38
0.97078776 -0.022055445 0.069412023 1.8458935e-38
0.97078776 -0.022055445 0.07191202 1.7265073e-38
0.97328776 -0.024555445 0.069412023 1.7632415e-38
0.97328776 -0.024555445 0.07191202 1.6897731e-38
0.97328776 -0.022055445 0.069412023 1.754058e-38
0.97328776 -0.022055445 0.07191202 1.6897731e-38
0.97578782 -0.024555445 0.069412023 1.7632415e-38
0.97578782 -0.022055445 0.069412023 1.754058e-38
0.97328776 -0.019555446 0.069412023 1.6254887e-38
0.97328776 -0.019555446 0.07191202 1.6530389e-38
0.97578782 -0.019555446 0.069412023 1.6254884e-38
0.97578782 -0.017055444 0.069412023 1.5612055e-38
0.96578777 -0.027055444 0.076912023 1.7265073e-38
0.96328777 -0.027055444 0.079412021 1.6989567e-38
0.96328777 -0.027055444 0.081912026 1.7081402e-38
0.96578777 -0.029555446 0.081912026 1.6989567e-38
0.96578777 -0.027055444 0.079412021 1.7265073e-38
0.96578777 -0.027055444 0.081912026 1.6897731e-38
0.95828778 -0.027055444 0.084412023 1.6897731e-38
0.95828778 -0.027055444 0.086912021 1.6897731e-38
0.96328777 -0.027055444 0.086912021 1.6897731e-38
0.96578777 -0.027055444 0.084412023 1.6897731e-38
0.96328777 -0.027055444 0.089412026 1.6622225e-38
0.96578777 -0.024555445 0.076912023 1.7081402e-38
0.96328777 -0.024555445 0.079412021 1.671406e-38
0.96328777 -0.024555445 0.081912026 1.6989567e-38
0.96578777 -0.024555445 0.079412021 1.671406e-38
0.96578777 -0.024555445 0.081912026 1.6622225e-38
0.96578777 -0.022055445 0.079412021 1.6438554e-38
0.96578777 -0.022055445 0.081912026 1.6346718e-38
0.95828778 -0.024555445 0.084412023 1.671406e-38
0.95828778 -0.024555445 0.086912021 1.671406e-38
0.96078777 -0.024555445 0.084412023 1.671406e-38
0.96078777 -0.022055445 0.084412023 1.6438554e-38
0.96078777 -0.024555445 0.089412026 1.6622225e-38
0.96078777 -0.024555445 0.091912024 1.6438554e-38
0.96078777 -0.022055445 0.089412026 1.6346718e-38
0.96078777 -0.022055445 0.091912024 1.6254883e-38
0.96078777 -0.019555446 0.089412026 1.6254883e-38
0.96078777 -0.019555446 0.091912024 1.6254883e-38
0.96328777 -0.024555445 0.086912021 1.6622225e-38
0.96328777 -0.022055445 0.086912021 1.6346718e-38
0.96578777 -0.024555445 0.084412023 1.6622225e-38
0.96578777 -0.022055445 0.084412023 1.6346718e-38
0.96328777 -0.024555445 0.089412026 1.6622225e-38
0.96328777 -0.024555445 0.091912024 1.6622225e-38
0.96328777 -0.022055445 0.089412026 1.6346718e-38
0.96328777 -0.022055445 0.091912024 1.6346718e-38
0.96578777 -0.024555445 0.089412026 1.6622225e-38
0.96578777 -0.024555445 0.091912024 1.6622225e-38
0.96578777 -0.022055445 0.089412026 1.6346718e-38
0.96578777 -0.022055445 0.091912024 1.6071212e-38
0.96328777 -0.019555446 0.086912021 1.6254883e-38
0.96328777 -0.019555446 0.089412026 1.6254883e-38
0.96328777 -0.019555446 0.091912024 1.6254883e-38
0.96328777 -0.017055444 0.089412026 1.5795705e-38
0.96578777 -0.019555446 0.089412026 1.6254883e-38
0.96578777 -0.019555446 0.091912024 1.6071212e-38
0.96578777 -0.017055444 0.089412026 1.5795705e-38
0.96578777 -0.017055444 0.091912024 1.5795705e-38
0.96828777 -0.027055444 0.074412026 1.6989567e-38
0.96828777 -0.027055444 0.076912023 1.7081402e-38
0.97078776 -0.027055444 0.074412026 1.7265073e-38
0.96828777 -0.029555446 0.079412021 1.7265073e-38
0.96828777 -0.027055444 0.079412021 1.7265073e-38
0.96828777 -0.027055444 0.081912026 1.6897731e-38
0.97078776 -0.027055444 0.084412023 1.6622225e-38
0.97078776 -0.027055444 0.086912021 1.6622225e-38
0.97328776 -0.027055444 0.084412023 1.6438554e-38
0.96828777 -0.024555445 0.074412026 1.6989567e-38
0.96828777 -0.024555445 0.076912023 1.6897731e-38
0.96828777 -0.022055445 0.076912023 1.6530389e-38
0.97078776 -0.024555445 0.074412026 1.671406e-38
0.97078776 -0.022055445 0.074412026 1.671406e-38
0.96828777 -0.024555445 0.079412021 1.6989567e-38
0.96828777 -0.024555445 0.081912026 1.6622225e-38
0.96828777 -0.022055445 0.079412021 1.6438554e-38
0.96828777 -0.022055445 0.081912026 1.6438554e-38
0.97078776 -0.024555445 0.081912026 1.6622225e-38
0.97078776 -0.022055445 0.079412021 1.6530389e-38
0.97078776 -0.022055445 0.081912026 1.6438554e-38
0.97078776 -0.019555446 0.074412026 1.6071212e-38
0.96828777 -0.019555446 0.079412021 1.6254883e-38
0.96828777 -0.019555446 0.081912026 1.6254883e-38
0.97078776 -0.019555446 0.079412021 1.6254883e-38
0.97078776 -0.019555446 0.081912026 1.6346718e-38
0.97078776 -0.017055444 0.081912026 1.5979376e-38
0.97328776 -0.022055445 0.076912023 1.6622225e-38
0.97578782 -0.024555445 0.074412026 1.6989567e-38
0.97578782 -0.022055445 0.074412026 1.6897731e-38
0.97578782 -0.022055445 0.076912023 1.6346718e-38
0.97328776 -0.024555445 0.081912026 1.6438554e-38
0.97328776 -0.019555446 0.076912023 1.6346718e-38
0.97328776 -0.017055444 0.076912023 1.5795705e-38
0.97578782 -0.019555446 0.074412026 1.6438554e-38
0.97578782 -0.019555446 0.076912023 1.6254883e-38
0.97578782 -0.017055444 0.074412026 1.5428363e-38
0.97578782 -0.017055444 0.076912023 1.5887541e-38
0.97328776 -0.019555446 0.081912026 1.6254883e-38
0.97328776 -0.017055444 0.081912026 1.5795705e-38
0.97578782 -0.019555446 0.079412021 1.6346718e-38
0.97578782 -0.017055444 0.079412021 1.5795705e-38
0.97578782 -0.017055444 0.081912026 1.5795705e-38
0.96828777 -0.024555445 0.086912021 1.6622225e-38
0.96828777 -0.022055445 0.086912021 1.6346718e-38
0.97078776 -0.024555445 0.084412023 1.6622225e-38
0.97078776 -0.024555445 0.086912021 1.6622225e-38
0.97078776 -0.022055445 0.084412023 1.6346718e-38
0.97078776 -0.022055445 0.086912021 1.6346718e-38
0.96828777 -0.024555445 0.089412026 1.6622225e-38
0.96828777 -0.019555446 0.086912021 1.6254883e-38
0.97078776 -0.019555446 0.084412023 1.6254883e-38
0.97078776 -0.019555446 0.086912021 1.6254883e-38
0.97078776 -0.017055444 0.086912021 1.5887541e-38
0.97078776 -0.017055444 0.091912024 1.5520199e-38
0.97328776 -0.024555445 0.084412023 1.6622225e-38
0.97328776 -0.017055444 0.084412023 1.5795705e-38
0.97328776 -0.017055444 0.086912021 1.5795705e-38
0.97578782 -0.017055444 0.086912021 1.5795705e-38
0.97328776 -0.017055444 0.089412026 1.570387e-38
0.97328776 -0.017055444 0.091912024 1.5795705e-38
0.97578782 -0.017055444 0.089412026 1.5520199e-38
0.97578782 -0.014555445 0.069412023 1.5795729e-38
0.97578782 -0.014555445 0.076912023 1.5795705e-38
0.97578782 -0.014555445 0.081912026 1.5795705e-38
0.97578782 -0.012055445 0.081912026 1.5520199e-38
0.97328776 -0.014555445 0.086912021 1.5520199e-38
0.97578782 -0.014555445 0.086912021 1.5520199e-38
0.97328776 -0.014555445 0.091912024 1.5520199e-38
0.97328776 -0.012055445 0.091912024 1.5152857e-38
0.97578782 -0.014555445 0.089412026 1.570387e-38
0.97578782 -0.012055445 0.089412026 1.5520199e-38
0.97328776 0.0029445549 0.091912024 1.5979376e-38
0.97578782 0.0004445549 0.089412026 1.5979376e-38
0.97578782 0.0029445549 0.089412026 1.5979376e-38
0.97828782 -0.022055445 0.069412023 1.6897731e-38
0.98078781 -0.022055445 0.069412023 1.6438554e-38
0.98078781 -0.022055445 0.07191202 1.6438554e-38
0.97828782 -0.019555446 0.069412023 1.6438554e-38
0.97828782 -0.019555446 0.07191202 1.6438554e-38
0.97828782 -0.017055444 0.069412023 1.5887541e-38
0.97828782 -0.017055444 0.07191202 1.5887541e-38
0.98078781 -0.019555446 0.069412023 1.6438554e-38
0.98078781 -0.019555446 0.07191202 1.6438554e-38
0.98078781 -0.017055444 0.069412023 1.6071212e-38
0.98078781 -0.017055444 0.07191202 1.6071212e-38
0.98328781 -0.019555446 0.069412023 1.6346718e-38
0.98328781 -0.017055444 0.069412023 1.5979376e-38
0.98578781 -0.019555446 0.07191202 1.6346718e-38
0.97828782 -0.019555446 0.074412026 1.6438554e-38
0.97828782 -0.017055444 0.074412026 1.6071212e-38
0.98078781 -0.017055444 0.074412026 1.5979376e-38
0.97828782 -0.017055444 0.079412021 1.5979376e-38
0.97828782 -0.014555445 0.069412023 1.6071212e-38
0.98078781 -0.014555445 0.069412023 1.6071212e-38
0.98078781 -0.014555445 0.07191202 1.6071212e-38
0.98078781 -0.012055445 0.069412023 1.6530389e-38
0.98078781 -0.012055445 0.07191202 1.6071212e-38
0.98078781 -0.0095554451 0.069412023 1.6805896e-38
0.98078781 -0.0095554451 0.07191202 1.6346718e-38
0.98078781 -0.0070554451 0.069412023 1.7081402e-38
0.98078781 -0.0070554451 0.07191202 1.6346718e-38
0.98328781 -0.014555445 0.069412023 1.6071212e-38
0.98328781 -0.012055445 0.069412023 1.6438554e-38
0.98578781 -0.014555445 0.07191202 1.5887541e-38
0.98578781 -0.012055445 0.07191202 1.6071212e-38
0.98328781 -0.0095554451 0.069412023 1.671406e-38
0.98328781 -0.0070554451 0.069412023 1.671406e-38
0.98578781 -0.0095554451 0.07191202 1.6254883e-38
0.98578781 -0.0070554451 0.07191202 1.6438554e-38
0.98078781 -0.0045554452 0.069412023 1.6897731e-38
0.98078781 -0.0045554452 0.07191202 1.6622225e-38
0.98078781 -0.002055445 0.069412023 1.7265073e-38
0.98078781 -0.002055445 0.07191202 1.6622225e-38
0.98078781 0.0004445549 0.069412023 1.7356909e-38
0.98078781 0.0004445549 0.07191202 1.6622225e-38
0.98078781 0.0029445549 0.069412023 1.754058e-38
0.98078781 0.0029445549 0.07191202 1.6897731e-38
0.98328781 0.0029445549 0.069412023 1.7265073e-38
0.98578781 0.0029445549 0.07191202 1.6897731e-38
0.97828782 -0.014555445 0.074412026 1.5520199e-38
0.98078781 -0.014555445 0.074412026 1.5979376e-38
0.98078781 -0.014555445 0.076912023 1.5979376e-38
0.98078781 -0.012055445 0.074412026 1.5979376e-38
0.98078781 -0.012055445 0.076912023 1.5795705e-38
0.97828782 -0.014555445 0.079412021 1.5795705e-38
0.97828782 -0.012055445 0.079412021 1.5795705e-38
0.98078781 -0.014555445 0.081912026 1.5795705e-38
0.98078781 -0.012055445 0.081912026 1.5520199e-38
0.98078781 -0.0095554451 0.074412026 1.6254883e-38
0.98078781 -0.0095554451 0.076912023 1.5979376e-38
0.98078781 -0.0070554451 0.074412026 1.6254883e-38
0.98078781 -0.0070554451 0.076912023 1.5979376e-38
0.97828782 -0.0095554451 0.079412021 1.5979376e-38
0.97828782 -0.0070554451 0.079412021 1.5795705e-38
0.98078781 -0.0095554451 0.081912026 1.5520199e-38
0.98078781 -0.0070554451 0.081912026 1.5520199e-38
0.98328781 -0.014555445 0.074412026 1.5887541e-38
0.98328781 -0.012055445 0.074412026 1.5979376e-38
0.98328781 -0.014555445 0.079412021 1.5795705e-38
0.98328781 -0.012055445 0.079412021 1.5520199e-38
0.98328781 -0.0095554451 0.074412026 1.6071212e-38
0.98328781 -0.0070554451 0.074412026 1.6071212e-38
0.98578781 -0.0070554451 0.076912023 1.5795705e-38
0.98328781 -0.0095554451 0.079412021 1.5520199e-38
0.98328781 -0.0070554451 0.079412021 1.5520199e-38
0.97828782 -0.014555445 0.084412023 1.5795705e-38
0.97828782 -0.014555445 0.086912021 1.5520199e-38
0.97828782 -0.012055445 0.084412023 1.5520199e-38
0.97828782 -0.012055445 0.086912021 1.5520199e-38
0.98078781 -0.014555445 0.086912021 1.5520199e-38
0.98078781 -0.012055445 0.084412023 1.5520199e-38
0.98078781 -0.012055445 0.086912021 1.5520199e-38
0.97828782 -0.014555445 0.091912024 1.5520199e-38
0.97828782 -0.012055445 0.091912024 1.5152857e-38
0.98078781 -0.012055445 0.089412026 1.5520199e-38
0.97828782 -0.0095554451 0.084412023 1.5428363e-38
0.97828782 -0.0095554451 0.086912021 1.5520199e-38
0.97828782 -0.0070554451 0.084412023 1.5520199e-38
0.97828782 -0.0070554451 0.086912021 1.5520199e-38
0.98078781 -0.0095554451 0.084412023 1.5428363e-38
0.98078781 -0.0095554451 0.086912021 1.5336528e-38
0.98078781 -0.0070554451 0.084412023 1.5520199e-38
0.98078781 -0.0070554451 0.086912021 1.5428363e-38
0.97828782 -0.0095554451 0.091912024 1.5428363e-38
0.97828782 -0.0070554451 0.091912024 1.570387e-38
0.98078781 -0.0095554451 0.089412026 1.5520199e-38
0.98078781 -0.0070554451 0.089412026 1.5520199e-38
0.98078781 -0.0070554451 0.091912024 1.5520199e-38
0.98328781 -0.0095554451 0.086912021 1.5336528e-38
0.98328781 -0.0070554451 0.086912021 1.5428363e-38
0.98328781 -0.0070554451 0.091912024 1.5520199e-38
0.97828782 -0.0045554452 0.074412026 1.671406e-38
0.97828782 -0.002055445 0.074412026 1.671406e-38
0.98078781 -0.0045554452 0.074412026 1.6438554e-38
0.98078781 -0.0045554452 0.076912023 1.6254883e-38
0.98078781 -0.002055445 0.074412026 1.6438554e-38
0.98078781 -0.002055445 0.076912023 1.6254883e-38
0.98078781 0.0029445549 0.081912026 1.5979376e-38
0.98328781 -0.0045554452 0.074412026 1.6254883e-38
0.98328781 -0.002055445 0.074412026 1.6438554e-38
0.98578781 -0.0045554452 0.076912023 1.5979376e-38
0.98578781 -0.002055445 0.076912023 1.5979376e-38
0.98328781 -0.0045554452 0.079412021 1.5795705e-38
0.98328781 -0.0045554452 0.081912026 1.5795705e-38
0.98328781 -0.002055445 0.079412021 1.5979376e-38
0.98328781 -0.002055445 0.081912026 1.5979376e-38
0.98578781 -0.0045554452 0.081912026 1.570387e-38
0.98578781 -0.002055445 0.079412021 1.5979376e-38
0.98578781 -0.002055445 0.081912026 1.5979376e-38
0.98328781 0.0004445549 0.074412026 1.6438554e-38
0.98328781 0.0029445549 0.074412026 1.6622225e-38
0.98578781 0.0004445549 0.076912023 1.5979376e-38
0.98578781 0.0029445549 0.074412026 1.6254883e-38
0.98578781 0.0029445549 0.076912023 1.6254883e-38
0.98328781 0.0004445549 0.079412021 1.6071212e-38
0.98328781 0.0004445549 0.081912026 1.5979376e-38
0.98328781 0.0029445549 0.079412021 1.5979376e-38
0.98328781 0.0029445549 0.081912026 1.5979376e-38
0.98578781 0.0004445549 0.079412021 1.5979376e-38
0.98578781 0.0004445549 0.081912026 1.5979376e-38
0.98578781 0.0029445549 0.079412021 1.5979376e-38
0.98078781 -0.0045554452 0.084412023 1.5795705e-38
0.98078781 -0.0045554452 0.086912021 1.5795705e-38
0.98078781 -0.002055445 0.084412023 1.5979376e-38
0.98078781 -0.002055445 0.086912021 1.5979376e-38
0.97828782 -0.0045554452 0.091912024 1.5795705e-38
0.97828782 -0.002055445 0.091912024 1.6071212e-38
0.98078781 -0.0045554452 0.089412026 1.5795705e-38
0.98078781 -0.0045554452 0.091912024 1.5979376e-38
0.98078781 -0.002055445 0.089412026 1.5979376e-38
0.98078781 -0.002055445 0.091912024 1.6254883e-38
0.97828782 0.0004445549 0.086912021 1.5795705e-38
0.97828782 0.0029445549 0.086912021 1.5979376e-38
0.98078781 0.0004445549 0.084412023 1.5979376e-38
0.98078781 0.0004445549 0.086912021 1.5795705e-38
0.98078781 0.0029445549 0.084412023 1.5979376e-38
0.97828782 0.0004445549 0.091912024 1.5979376e-38
0.97828782 0.0029445549 0.091912024 1.6254883e-38
0.98078781 0.0004445549 0.089412026 1.5979376e-38
0.98078781 0.0004445549 0.091912024 1.6254883e-38
0.98328781 -0.0045554452 0.086912021 1.570387e-38
0.98328781 -0.002055445 0.086912021 1.5795705e-38
0.98328781 -0.0045554452 0.091912024 1.5795705e-38
0.98328781 -0.002055445 0.091912024 1.5795705e-38
0.98328781 0.0004445549 0.091912024 1.570387e-38
0.95828778 -0.027055444 0.10441203 1.6254883e-38
0.96078777 -0.027055444 0.10691202 1.6346718e-38
0.95828778 -0.027055444 0.10941202 1.6346718e-38
0.95828778 -0.027055444 0.11191203 1.6622225e-38
0.96078777 -0.029555446 0.11191203 1.6530389e-38
0.96078777 -0.027055444 0.10941202 1.6897731e-38
0.96078777 -0.027055444 0.11191203 1.671406e-38
0.96078777 -0.024555445 0.094412021 1.6438554e-38
0.96078777 -0.024555445 0.096912026 1.6438554e-38
0.96078777 -0.022055445 0.094412021 1.6254883e-38
0.96078777 -0.022055445 0.096912026 1.6346718e-38
0.96078777 -0.024555445 0.10191202 1.6346718e-38
0.96078777 -0.019555446 0.094412021 1.6254883e-38
0.96328777 -0.024555445 0.094412021 1.6438554e-38
0.96328777 -0.024555445 0.096912026 1.6438554e-38
0.96328777 -0.022055445 0.094412021 1.6346718e-38
0.96328777 -0.022055445 0.096912026 1.6346718e-38
0.96578777 -0.024555445 0.096912026 1.6438554e-38
0.96578777 -0.022055445 0.096912026 1.6071212e-38
0.96328777 -0.024555445 0.099412024 1.6530389e-38
0.96328777 -0.022055445 0.099412024 1.6346718e-38
0.96578777 -0.024555445 0.10191202 1.6438554e-38
0.96578777 -0.022055445 0.10191202 1.6530389e-38
0.96328777 -0.019555446 0.094412021 1.6254883e-38
0.96578777 -0.019555446 0.096912026 1.5979376e-38
0.96578777 -0.019555446 0.10191202 1.5979376e-38
0.95828778 -0.024555445 0.10441203 1.6346718e-38
0.96078777 -0.024555445 0.10691202 1.6254883e-38
0.95828778 -0.024555445 0.10941202 1.6254883e-38
0.95828778 -0.024555445 0.11191203 1.6438554e-38
0.96078777 -0.024555445 0.10941202 1.6438554e-38
0.96078777 -0.024555445 0.11191203 1.671406e-38
0.96078777 -0.022055445 0.10941202 1.6163047e-38
0.96078777 -0.022055445 0.11191203 1.6163047e-38
0.96078777 -0.019555446 0.10941202 1.5795705e-38
0.96328777 -0.024555445 0.10441203 1.6254883e-38
0.96578777 -0.024555445 0.10441203 1.6071212e-38
0.96578777 -0.024555445 0.10691202 1.6346718e-38
0.96578777 -0.022055445 0.10441203 1.6071212e-38
0.96578777 -0.022055445 0.10691202 1.6071212e-38
0.96328777 -0.022055445 0.11191203 1.6163047e-38
0.96578777 -0.024555445 0.10941202 1.6346718e-38
0.96578777 -0.022055445 0.10941202 1.6071212e-38
0.96578777 -0.019555446 0.10441203 1.5979376e-38
0.96578777 -0.019555446 0.10691202 1.5795705e-38
0.96328777 -0.019555446 0.11191203 1.5795705e-38
0.96578777 -0.019555446 0.10941202 1.5795705e-38
0.96828777 -0.027055444 0.10691202 1.6622225e-38
0.96828777 -0.022055445 0.094412021 1.6071212e-38
0.96828777 -0.024555445 0.099412024 1.6438554e-38
0.96828777 -0.024555445 0.10191202 1.6346718e-38
0.96828777 -0.022055445 0.099412024 1.6071212e-38
0.96828777 -0.022055445 0.10191202 1.6071212e-38
0.96828777 -0.019555446 0.094412021 1.6254883e-38
0.96828777 -0.019555446 0.096912026 1.6254883e-38
0.96828777 -0.017055444 0.094412021 1.570387e-38
0.96828777 -0.017055444 0.096912026 1.5795705e-38
0.97078776 -0.017055444 0.094412021 1.570387e-38
0.96828777 -0.019555446 0.099412024 1.6071212e-38
0.96828777 -0.019555446 0.10191202 1.6071212e-38
0.96828777 -0.017055444 0.10191202 1.5795705e-38
0.97078776 -0.019555446 0.099412024 1.6254883e-38
0.97078776 -0.017055444 0.099412024 1.5795705e-38
0.97078776 -0.017055444 0.10191202 1.5795705e-38
0.97328776 -0.017055444 0.094412021 1.5795705e-38
0.97328776 -0.017055444 0.096912026 1.570387e-38
0.97578782 -0.017055444 0.099412024 1.570387e-38
0.97578782 -0.017055444 0.10191202 1.5520199e-38
0.96828777 -0.024555445 0.10691202 1.6438554e-38
0.96828777 -0.022055445 0.10691202 1.6163047e-38
0.97078776 -0.024555445 0.10441203 1.6346718e-38
0.97078776 -0.022055445 0.10441203 1.6071212e-38
0.96828777 -0.022055445 0.10941202 1.6163047e-38
0.97078776 -0.024555445 0.10941202 1.6622225e-38
0.97078776 -0.022055445 0.10941202 1.6346744e-38
0.97078776 -0.022055445 0.11191203 1.5795745e-38
0.96828777 -0.019555446 0.10691202 1.6071212e-38
0.97078776 -0.019555446 0.10441203 1.5979376e-38
0.97078776 -0.017055444 0.10441203 1.5520199e-38
0.97078776 -0.017055444 0.10691202 1.5336528e-38
0.96828777 -0.019555446 0.10941202 1.6071212e-38
0.96828777 -0.019555446 0.11191203 1.6254883e-38
0.97078776 -0.019555446 0.10941202 1.6071234e-38
0.97078776 -0.019555446 0.11191203 1.5520232e-38
0.97078776 -0.017055444 0.11191203 1.5336528e-38
0.97328776 -0.017055444 0.10441203 1.5520199e-38
0.97328776 -0.017055444 0.10691202 1.5336528e-38
0.97578782 -0.017055444 0.10691202 1.5795705e-38
0.97328776 -0.017055444 0.10941202 1.5520199e-38
0.97328776 -0.017055444 0.11191203 1.5520199e-38
0.97578782 -0.017055444 0.10941202 1.5612034e-38
0.97578782 -0.017055444 0.11191203 1.5244692e-38
0.95828778 -0.029555446 0.11691202 1.6897731e-38
0.95828778 -0.027055444 0.11441202 1.6622225e-38
0.95828778 -0.027055444 0.11691202 1.6989567e-38
0.96078777 -0.027055444 0.11441202 1.6989567e-38
0.95828778 -0.034555446 0.12691203 1.7265115e-38
0.95828778 -0.032055445 0.12691203 1.6989567e-38
0.96078777 -0.034555446 0.12691203 1.6805896e-38
0.96078777 -0.032055445 0.12441202 1.8648345e-38
0.96078777 -0.032055445 0.12691203 1.7173238e-38
0.96078777 -0.034555446 0.12941203 1.6356404e-38
0.96078777 -0.032055445 0.12941203 1.6622263e-38
0.95828778 -0.029555446 0.12441202 1.9567439e-38
0.95828778 -0.029555446 0.12691203 2.1316282e-38
0.95828778 -0.027055444 0.12691203 1.8277775e-38
0.96078777 -0.029555446 0.12441202 2.0766677e-38
0.96078777 -0.029555446 0.12691203 1.8282846e-38
0.96078777 -0.027055444 0.12691203 1.9940926e-38
0.96078777 -0.027055444 0.12941203 1.8648767e-38
0.96078777 -0.027055444 0.13191202 1.7265149e-38
0.96328777 -0.034555446 0.12691203 1.6077672e-38
0.96328777 -0.032055445 0.12691203 1.6897731e-38
0.96328777 -0.034555446 0.12941203 1.7575125e-38
0.96328777 -0.032055445 0.12941203 2.3072312e-38
0.96578777 -0.032055445 0.12941203 2.2703899e-38
0.96328777 -0.029555446 0.12691203 1.6163071e-38
0.96328777 -0.027055444 0.12691203 1.9021857e-38
0.96328777 -0.029555446 0.12941203 1.5703922e-38
0.96328777 -0.027055444 0.12941203 1.7540662e-38
0.96328777 -0.027055444 0.13191202 1.6989984e-38
0.96578777 -0.029555446 0.12941203 1.5703924e-38
0.96578777 -0.027055444 0.12941203 1.7358787e-38
0.95828778 -0.024555445 0.11441202 1.6622225e-38
0.95828778 -0.024555445 0.11691202 1.6805896e-38
0.95828778 -0.022055445 0.11691202 1.6163053e-38
0.96078777 -0.024555445 0.11441202 1.6438554e-38
0.96078777 -0.022055445 0.11441202 1.6346718e-38
0.95828778 -0.024555445 0.11941203 1.5061021e-38
0.95828778 -0.024555445 0.12191202 1.4785525e-38
0.96078777 -0.022055445 0.11941203 1.5428363e-38
0.96078777 -0.019555446 0.11941203 1.4785515e-38
0.96328777 -0.022055445 0.11441202 1.6530389e-38
0.96328777 -0.022055445 0.11691202 1.5061037e-38
0.96578777 -0.022055445 0.11441202 1.5979392e-38
0.96328777 -0.024555445 0.12191202 1.4418173e-38
0.96328777 -0.022055445 0.11941203 1.4877367e-38
0.96328777 -0.022055445 0.12191202 1.4785515e-38
0.96578777 -0.022055445 0.12191202 1.4418179e-38
0.96328777 -0.019555446 0.11441202 1.6071212e-38
0.96328777 -0.019555446 0.11691202 1.5336528e-38
0.96578777 -0.019555446 0.11441202 1.5520199e-38
0.96578777 -0.019555446 0.11691202 1.4877362e-38
0.96328777 -0.019555446 0.11941203 1.478552e-38
0.96328777 -0.019555446 0.12191202 1.4785515e-38
0.96578777 -0.019555446 0.12191202 1.4693689e-38
0.95828778 -0.024555445 0.12441202 1.4234502e-38
0.95828778 -0.024555445 0.12691203 1.7448744e-38
0.96078777 -0.024555445 0.12441202 1.5979376e-38
0.96078777 -0.024555445 0.12691203 1.7356909e-38
0.96078777 -0.022055445 0.12441202 1.4418183e-38
0.96078777 -0.022055445 0.12691203 1.4234502e-38
0.96078777 -0.024555445 0.12941203 1.8275264e-38
0.96078777 -0.019555446 0.12441202 1.478553e-38
0.96078777 -0.019555446 0.12691203 1.4785516e-38
0.96328777 -0.024555445 0.12441202 1.5887541e-38
0.96328777 -0.024555445 0.12691203 1.8091594e-38
0.96328777 -0.022055445 0.12441202 1.4234502e-38
0.96578777 -0.024555445 0.12691203 1.8183428e-38
0.96578777 -0.022055445 0.12441202 1.386716e-38
0.96578777 -0.022055445 0.12691203 1.6071212e-38
0.96328777 -0.024555445 0.12941203 1.9660348e-38
0.96578777 -0.024555445 0.12941203 1.9289424e-38
0.96578777 -0.022055445 0.12941203 1.8552205e-38
0.96328777 -0.019555446 0.12441202 1.4601845e-38
0.96578777 -0.019555446 0.12441202 1.4601845e-38
0.96578777 -0.019555446 0.12691203 1.5795708e-38
0.96578777 -0.019555446 0.12941203 1.6805896e-38
0.96828777 -0.027055444 0.12941203 1.6897793e-38
0.96828777 -0.027055444 0.13191202 1.616631e-38
0.97078776 -0.027055444 0.12941203 1.5979414e-38
0.96828777 -0.019555446 0.11441202 1.5244697e-38
0.97078776 -0.019555446 0.11441202 1.5061021e-38
0.97078776 -0.019555446 0.11691202 1.4877353e-38
0.97078776 -0.017055444 0.11441202 1.5152857e-38
0.97078776 -0.017055444 0.11691202 1.5061021e-38
0.96828777 -0.019555446 0.11941203 1.478552e-38
0.96828777 -0.019555446 0.12191202 1.4877364e-38
0.97078776 -0.019555446 0.12191202 1.4969186e-38
0.97328776 -0.017055444 0.11441202 1.5244692e-38
0.97328776 -0.017055444 0.11691202 1.5152857e-38
0.97578782 -0.017055444 0.11441202 1.5152857e-38
0.97328776 -0.017055444 0.11941203 1.4969186e-38
0.97328776 -0.017055444 0.12191202 1.4693679e-38
0.97578782 -0.017055444 0.11941203 1.4785515e-38
0.96828777 -0.022055445 0.12441202 1.5795708e-38
0.96828777 -0.022055445 0.12691203 1.8091593e-38
0.96828777 -0.024555445 0.12941203 1.8280645e-38
0.96828777 -0.024555445 0.13191202 1.7914787e-38
0.96828777 -0.022055445 0.12941203 2.0945717e-38
0.96828777 -0.022055445 0.13191202 1.957357e-38
0.97078776 -0.024555445 0.12941203 1.5979396e-38
0.97078776 -0.024555445 0.13191202 1.726583e-38
0.97078776 -0.022055445 0.12941203 2.1038969e-38
0.97078776 -0.022055445 0.13191202 1.6820298e-38
0.96828777 -0.019555446 0.12441202 1.5979376e-38
0.96828777 -0.019555446 0.12691203 1.671406e-38
0.97078776 -0.019555446 0.12441202 1.4693691e-38
0.97078776 -0.019555446 0.12691203 1.3775324e-38
0.97078776 -0.017055444 0.12441202 1.4418176e-38
0.97078776 -0.017055444 0.12691203 1.4234502e-38
0.97078776 -0.019555446 0.12941203 1.9757961e-38
0.97078776 -0.019555446 0.13191202 1.8753893e-38
0.97078776 -0.017055444 0.12941203 1.4969215e-38
0.97328776 -0.022055445 0.12941203 1.9297353e-38
0.97328776 -0.019555446 0.12691203 1.7816086e-38
0.97328776 -0.017055444 0.12691203 1.4877378e-38
0.97578782 -0.017055444 0.12441202 1.3958995e-38
0.97578782 -0.017055444 0.12691203 1.4877362e-38
0.97328776 -0.019555446 0.12941203 1.9757611e-38
0.97078776 -0.014555445 0.094412021 1.5520199e-38
0.97328776 -0.014555445 0.094412021 1.5520199e-38
0.97328776 -0.014555445 0.096912026 1.5520199e-38
0.97578782 -0.014555445 0.094412021 1.5520199e-38
0.97578782 -0.012055445 0.094412021 1.5520199e-38
0.97578782 -0.014555445 0.099412024 1.5520199e-38
0.97578782 -0.014555445 0.10191202 1.5428363e-38
0.97578782 -0.012055445 0.099412024 1.5244692e-38
0.97578782 -0.012055445 0.10191202 1.5520199e-38
0.97328776 -0.014555445 0.10691202 1.5244692e-38
0.97328776 -0.012055445 0.10691202 1.5244692e-38
0.97328776 -0.014555445 0.10941202 1.5428363e-38
0.97328776 -0.012055445 0.10941202 1.5428363e-38
0.97578782 -0.0095554451 0.10691202 1.5336528e-38
0.97578782 0.0004445549 0.094412021 1.6254883e-38
0.97578782 0.0029445549 0.094412021 1.6071212e-38
0.97578782 -0.014555445 0.11441202 1.2125877e-38
0.97328776 -0.014555445 0.12191202 1.1029591e-38
0.97578782 -0.014555445 0.11941203 1.2220937e-38
0.97578782 -0.014555445 0.12441202 1.2514823e-38
0.97828782 -0.017055444 0.10191202 1.5795705e-38
0.97828782 -0.017055444 0.10441203 1.5520199e-38
0.98078781 -0.017055444 0.10691202 1.570387e-38
0.97828782 -0.017055444 0.11191203 1.5244692e-38
0.98078781 -0.017055444 0.10941202 1.5061023e-38
0.98328781 -0.017055444 0.11191203 1.4969187e-38
0.97828782 -0.017055444 0.11691202 1.4877362e-38
0.98078781 -0.017055444 0.11441202 1.5061021e-38
0.98078781 -0.017055444 0.11691202 1.4877362e-38
0.97828782 -0.017055444 0.11941203 1.4969186e-38
0.97828782 -0.017055444 0.12191202 1.4785515e-38
0.98078781 -0.017055444 0.11941203 1.4601844e-38
0.98078781 -0.017055444 0.12191202 1.4326337e-38
0.97828782 -0.017055444 0.12441202 1.4877373e-38
0.97828782 -0.017055444 0.12691203 1.8382188e-38
0.97828782 -0.017055444 0.12941203 1.857955e-38
0.98328781 -0.017055444 0.12441202 1.8108481e-38
0.97828782 -0.014555445 0.096912026 1.5795705e-38
0.97828782 -0.012055445 0.096912026 1.5520199e-38
0.97828782 -0.014555445 0.099412024 1.5520199e-38
0.97828782 -0.014555445 0.10191202 1.5520199e-38
0.97828782 -0.012055445 0.099412024 1.570387e-38
0.97828782 -0.012055445 0.10191202 1.570387e-38
0.98078781 -0.014555445 0.10191202 1.5795705e-38
0.98078781 -0.012055445 0.10191202 1.570387e-38
0.97828782 -0.0095554451 0.094412021 1.5520199e-38
0.97828782 -0.0095554451 0.096912026 1.5887541e-38
0.97828782 -0.0070554451 0.094412021 1.5520199e-38
0.98078781 -0.0095554451 0.096912026 1.5887541e-38
0.98078781 -0.0070554451 0.096912026 1.8642645e-38
0.97828782 -0.0095554451 0.099412024 1.570387e-38
0.98078781 -0.0095554451 0.10191202 1.5979376e-38
0.98078781 -0.0070554451 0.10191202 1.7178669e-38
0.98328781 -0.0070554451 0.094412021 1.6622225e-38
0.98328781 -0.0095554451 0.099412024 1.6530389e-38
0.98328781 -0.0095554451 0.10191202 1.6071217e-38
0.98328781 -0.0070554451 0.099412024 1.7820426e-38
0.98328781 -0.0070554451 0.10191202 1.3136781e-38
0.97828782 -0.014555445 0.10441203 1.570387e-38
0.97828782 -0.012055445 0.10441203 1.570387e-38
0.98078781 -0.014555445 0.10441203 1.5428363e-38
0.98078781 -0.014555445 0.10691202 1.570387e-38
0.98078781 -0.012055445 0.10441203 1.5612034e-38
0.98078781 -0.012055445 0.10691202 1.570387e-38
0.97828782 -0.014555445 0.11191203 1.3132476e-38
0.97828782 -0.012055445 0.11191203 1.4326371e-38
0.98078781 -0.014555445 0.10941202 1.5061021e-38
0.98078781 -0.012055445 0.10941202 1.5336528e-38
0.97828782 -0.0095554451 0.10441203 1.5795705e-38
0.98078781 -0.0095554451 0.10441203 1.5520199e-38
0.98078781 -0.0095554451 0.10691202 1.4601844e-38
0.98078781 -0.0070554451 0.10441203 1.3505558e-38
0.98078781 -0.0070554451 0.10691202 1.1407762e-38
0.98078781 -0.0095554451 0.10941202 1.2134161e-38
0.98328781 -0.014555445 0.10441203 1.5520199e-38
0.98328781 -0.014555445 0.10691202 1.5336539e-38
0.98328781 -0.012055445 0.10441203 1.5612034e-38
0.98328781 -0.012055445 0.10691202 1.5244694e-38
0.98328781 -0.014555445 0.10941202 1.5244697e-38
0.98328781 -0.014555445 0.11191203 1.3958995e-38
0.98328781 -0.012055445 0.10941202 1.5336533e-38
0.98328781 -0.012055445 0.11191203 1.5157162e-38
0.98578781 -0.014555445 0.10941202 1.3591653e-38
0.98578781 -0.012055445 0.10941202 1.4510042e-38
0.98578781 -0.012055445 0.11191203 1.3877572e-38
0.98328781 -0.0095554451 0.10441203 1.5612037e-38
0.98328781 -0.0095554451 0.10691202 1.4516865e-38
0.98328781 -0.0070554451 0.10441203 1.3239447e-38
0.98328781 -0.0070554451 0.10691202 1.1314497e-38
0.98578781 -0.0095554451 0.10441203 1.5520206e-38
0.98578781 -0.0095554451 0.10691202 1.1950491e-38
0.98578781 -0.0070554451 0.10441203 1.2410765e-38
0.98328781 -0.0095554451 0.10941202 1.3241582e-38
0.98328781 -0.0095554451 0.11191203 1.1864406e-38
0.98578781 -0.0095554451 0.10941202 1.1219037e-38
0.97828782 -0.0045554452 0.094412021 1.5520199e-38
0.97828782 -0.002055445 0.094412021 1.570387e-38
0.98078781 -0.0045554452 0.096912026 1.6805896e-38
0.98078781 -0.002055445 0.096912026 1.7265073e-38
0.98078781 -0.0045554452 0.10191202 2.0036735e-38
0.97828782 0.0004445549 0.094412021 1.570387e-38
0.97828782 0.0004445549 0.096912026 1.7632415e-38
0.97828782 0.0029445549 0.094412021 1.5795705e-38
0.97828782 0.0029445549 0.096912026 1.7448744e-38
0.98078781 0.0004445549 0.096912026 2.085857e-38
0.98078781 0.0029445549 0.096912026 1.7448744e-38
0.98328781 -0.0045554452 0.094412021 1.6438554e-38
0.98328781 -0.002055445 0.094412021 1.7173238e-38
0.98328781 -0.0045554452 0.099412024 2.0033123e-38
0.98328781 -0.0045554452 0.10191202 1.7193735e-38
0.98328781 -0.002055445 0.099412024 2.1227327e-38
0.98328781 -0.002055445 0.10191202 1.7194816e-38
0.98578781 -0.002055445 0.099412024 2.1049403e-38
0.98328781 0.0004445549 0.094412021 1.7265073e-38
0.98578781 0.0004445549 0.096912026 2.0856788e-38
0.98578781 0.0029445549 0.096912026 2.0948983e-38
0.98328781 0.0004445549 0.099412024 2.095074e-38
0.98328781 0.0004445549 0.10191202 1.6919308e-38
0.98328781 0.0029445549 0.099412024 2.0491595e-38
0.98578781 0.0004445549 0.099412024 2.141606e-38
0.98578781 0.0029445549 0.099412024 1.9848374e-38
0.98078781 -0.0045554452 0.10441203 1.7377766e-38
0.98328781 -0.0045554452 0.10441203 1.296322e-38
0.98578781 -0.0045554452 0.10441203 1.3423472e-38
0.98828781 -0.012055445 0.11191203 1.3974438e-38
0.98828781 -0.0095554451 0.10941202 1.2047725e-38
0.98828781 0.0004445549 0.099412024 1.6826394e-38
0.97828782 -0.014555445 0.11691202 1.1667772e-38
0.97828782 -0.012055445 0.11691202 1.3974062e-38
0.98078781 -0.014555445 0.11441202 1.2677245e-38
0.98078781 -0.014555445 0.11691202 1.1759248e-38
0.98078781 -0.012055445 0.11441202 1.396725e-38
0.97828782 -0.014555445 0.11941203 1.203906e-38
0.97828782 -0.014555445 0.12191202 1.1121452e-38
0.97828782 -0.012055445 0.11941203 1.369644e-38
0.98078781 -0.014555445 0.11941203 1.1767153e-38
0.95578778 0.040444557 0.10191202 1.9749344e-38
0.95578778 0.042944554 0.10191202 1.9749344e-38
0.91828781 0.077944554 0.066912025 1.8095553e-38
0.91828781 0.077944554 0.069412023 1.9204049e-38
0.92078781 0.077944554 0.07191202 1.8293958e-38
0.91828781 0.080444552 0.066912025 1.6346718e-38
0.91828781 0.082944557 0.066912025 1.6071231e-38
0.92078781 0.080444552 0.066912025 1.8742399e-38
0.92078781 0.082944557 0.066912025 1.6438554e-38
0.91828781 0.080444552 0.069412023 1.6346718e-38
0.91828781 0.082944557 0.069412023 1.5887579e-38
0.92078781 0.080444552 0.07191202 1.7095415e-38
0.92328781 0.080444552 0.069412023 1.6163779e-38
0.92328781 0.082944557 0.069412023 1.616307e-38
0.92328781 0.082944557 0.07191202 1.9663602e-38
0.9357878 0.082944557 0.069412023 1.8212591e-38
0.91828781 0.077944554 0.074412026 1.8199633e-38
0.92078781 0.077944554 0.074412026 1.8481627e-38
0.91828781 0.080444552 0.074412026 1.6724503e-38
0.91828781 0.082944557 0.074412026 1.6714102e-38
0.92078781 0.080444552 0.074412026 1.7006857e-38
0.92078781 0.082944557 0.074412026 1.938701e-38
0.92328781 0.075444557 0.076912023 1.8028194e-38
0.92328781 0.077944554 0.076912023 1.8488101e-38
0.92328781 0.075444557 0.079412021 1.7937799e-38
0.92328781 0.077944554 0.079412021 1.8306221e-38
0.92578781 0.077944554 0.079412021 1.8401291e-38
0.92328781 0.080444552 0.076912023 1.8027123e-38
0.92328781 0.082944557 0.076912023 2.1415314e-38
0.92578781 0.080444552 0.074412026 1.8302225e-38
0.92578781 0.082944557 0.074412026 1.9479575e-38
0.92328781 0.080444552 0.079412021 1.9044827e-38
0.92578781 0.080444552 0.079412021 1.8862629e-38
0.9282878 0.080444552 0.076912023 1.9044843e-38
0.9282878 0.082944557 0.074412026 2.1692274e-38
0.9282878 0.082944557 0.076912023 2.1416033e-38
0.9307878 0.080444552 0.074412026 1.8491676e-38
0.9307878 0.082944557 0.074412026 1.8952294e-38
0.9332878 0.080444552 0.074412026 1.840018e-38
0.9332878 0.082944557 0.074412026 1.9412888e-38
0.9357878 0.082944557 0.074412026 1.9138506e-38
0.9307878 0.080444552 0.091912024 1.9508383e-38
0.9357878 0.080444552 0.091912024 2.0058664e-38
0.9357878 0.082944557 0.089412026 2.1619882e-38
0.9357878 0.082944557 0.091912024 2.1343314e-38
0.93828779 0.082944557 0.07191202 1.8678251e-38
0.95328778 0.067944556 0.07191202 1.6989567e-38
0.95328778 0.070444554 0.07191202 1.7356914e-38
0.95328778 0.072944552 0.07191202 1.8739159e-38
0.95328778 0.075444557 0.07191202 1.5622122e-38
0.94078779 0.082944557 0.074412026 1.9505848e-38
0.94078779 0.082944557 0.076912023 1.9323264e-38
0.94328779 0.082944557 0.079412021 1.94151e-38
0.94578779 0.075444557 0.084412023 1.8742033e-38
0.94578779 0.077944554 0.084412023 1.6181065e-38
0.94578779 0.077944554 0.091912024 1.8927086e-38
0.94578779 0.080444552 0.084412023 1.8848985e-38
0.94328779 0.080444552 0.091912024 1.7831226e-38
0.94328779 0.082944557 0.091912024 1.8107814e-38
0.94578779 0.080444552 0.091912024 1.8107069e-38
0.94578779 0.082944557 0.091912024 1.801417e-38
0.94828779 0.072944552 0.081912026 1.7081402e-38
0.95078778 0.070444554 0.079412021 1.6530389e-38
0.95078778 0.072944552 0.079412021 1.7724254e-38
0.95578778 0.065444551 0.076912023 1.6346718e-38
0.95578778 0.067944556 0.074412026 1.6438554e-38
0.95578778 0.067944556 0.076912023 1.5887541e-38
0.95328778 0.067944556 0.081912026 1.6071212e-38
0.95578778 0.065444551 0.081912026 1.5795705e-38
0.95578778 0.067944556 0.079412021 1.5795705e-38
0.95578778 0.067944556 0.081912026 1.5979376e-38
0.95328778 0.070444554 0.076912023 1.6071212e-38
0.95328778 0.072944552 0.076912023 1.8555134e-38
0.95578778 0.070444554 0.074412026 1.6622258e-38
0.95578778 0.070444554 0.076912023 1.5795705e-38
0.95578778 0.072944552 0.074412026 1.8183432e-38
0.95328778 0.070444554 0.081912026 1.6438554e-38
0.95328778 0.072944552 0.081912026 1.6622225e-38
0.95578778 0.070444554 0.079412021 1.5979376e-38
0.95578778 0.070444554 0.081912026 1.5979376e-38
0.95578778 0.072944552 0.079412021 1.7081446e-38
0.95578778 0.072944552 0.081912026 1.6438554e-38
0.95078778 0.072944552 0.084412023 1.6622225e-38
0.95328778 0.067944556 0.084412023 1.5795705e-38
0.95578778 0.067944556 0.084412023 1.5795705e-38
0.95578778 0.067944556 0.086912021 1.5795705e-38
0.95578778 0.067944556 0.089412026 1.5795705e-38
0.95328778 0.070444554 0.084412023 1.5979376e-38
0.95328778 0.072944552 0.084412023 1.5979376e-38
0.95328778 0.072944552 0.086912021 1.5520199e-38
0.95578778 0.070444554 0.084412023 1.5520199e-38
0.95578778 0.070444554 0.086912021 1.570387e-38
0.95578778 0.072944552 0.084412023 1.5336528e-38
0.95578778 0.072944552 0.086912021 1.5795705e-38
0.95328778 0.072944552 0.089412026 1.5795705e-38
0.95578778 0.070444554 0.089412026 1.5979376e-38
0.95578778 0.072944552 0.089412026 1.6071212e-38
0.95078778 0.075444557 0.076912023 1.7732193e-38
0.94828779 0.075444557 0.079412021 1.8004466e-38
0.94828779 0.075444557 0.081912026 1.7356977e-38
0.94828779 0.077944554 0.081912026 1.664205e-38
0.95078778 0.075444557 0.079412021 1.8464736e-38
0.95078778 0.077944554 0.079412021 1.6826432e-38
0.94828779 0.080444552 0.081912026 1.968484e-38
0.95078778 0.080444552 0.079412021 1.9591575e-38
0.95328778 0.075444557 0.076912023 1.7918384e-38
0.95328778 0.077944554 0.076912023 1.9018598e-38
0.95578778 0.075444557 0.074412026 1.700004e-38
0.95578778 0.077944554 0.074412026 1.865809e-38
0.95328778 0.075444557 0.081912026 1.6897745e-38
0.95328778 0.077944554 0.081912026 1.6822116e-38
0.95328778 0.080444552 0.081912026 1.885042e-38
0.95328778 0.082944557 0.081912026 1.8124023e-38
0.95578778 0.082944557 0.081912026 1.8218721e-38
0.94828779 0.075444557 0.086912021 1.7999802e-38
0.94828779 0.077944554 0.086912021 1.782904e-38
0.95078778 0.075444557 0.084412023 1.6622258e-38
0.95078778 0.077944554 0.084412023 1.7374218e-38
0.94828779 0.075444557 0.089412026 1.7265124e-38
0.94828779 0.077944554 0.089412026 1.8557986e-38
0.94828779 0.077944554 0.091912024 1.8740587e-38
0.95078778 0.075444557 0.091912024 1.6254883e-38
0.95078778 0.077944554 0.091912024 1.579571e-38
0.94828779 0.080444552 0.086912021 1.9490009e-38
0.95078778 0.080444552 0.084412023 1.8664954e-38
0.94828779 0.080444552 0.089412026 1.8926032e-38
0.94828779 0.080444552 0.091912024 1.8838876e-38
0.94828779 0.082944557 0.091912024 1.8100603e-38
0.95078778 0.080444552 0.091912024 1.8647314e-38
0.95328778 0.075444557 0.084412023 1.6530406e-38
0.95328778 0.075444557 0.086912021 1.5979397e-38
0.95328778 0.077944554 0.084412023 1.7827924e-38
0.95328778 0.077944554 0.086912021 1.8743103e-38
0.95578778 0.075444557 0.084412023 1.5979407e-38
0.95578778 0.075444557 0.086912021 1.6163053e-38
0.95578778 0.077944554 0.084412023 1.7548487e-38
0.95328778 0.075444557 0.089412026 1.6254883e-38
0.95328778 0.077944554 0.089412026 1.6254883e-38
0.95578778 0.075444557 0.089412026 1.5979376e-38
0.95578778 0.075444557 0.091912024 1.6254883e-38
0.95578778 0.077944554 0.091912024 1.570387e-38
0.95328778 0.080444552 0.084412023 1.9398163e-38
0.95328778 0.080444552 0.086912021 1.8834553e-38
0.95328778 0.082944557 0.084412023 1.7385347e-38
0.95578778 0.080444552 0.084412023 1.874455e-38
0.95328778 0.080444552 0.089412026 1.8278174e-38
0.95578778 0.080444552 0.089412026 1.8190651e-38
0.95578778 0.080444552 0.091912024 1.8187411e-38
0.9332878 0.077944554 0.094412021 1.7379268e-38
0.9332878 0.080444552 0.094412021 1.8301584e-38
0.9332878 0.082944557 0.094412021 2.0041032e-38
0.9357878 0.082944557 0.096912026 1.883887e-38
0.9357878 0.082944557 0.099412024 1.8191354e-38
0.93828779 0.080444552 0.094412021 1.7379271e-38
0.94078779 0.080444552 0.096912026 1.7918384e-38
0.93828779 0.082944557 0.10191202 1.9291237e-38
0.94078779 0.080444552 0.099412024 1.8466523e-38
0.94328779 0.082944557 0.094412021 1.8102402e-38
0.94328779 0.082944557 0.096912026 1.8373579e-38
0.94578779 0.080444552 0.094412021 1.8834903e-38
0.94578779 0.080444552 0.096912026 1.8554007e-38
0.94578779 0.082944557 0.094412021 1.8466481e-38
0.94578779 0.082944557 0.096912026 1.8738398e-38
0.94328779 0.082944557 0.10191202 1.810166e-38
0.94328779 0.082944557 0.10441203 1.764246e-38
0.94828779 0.077944554 0.094412021 1.8463975e-38
0.95078778 0.077944554 0.096912026 1.7173238e-38
0.94828779 0.080444552 0.094412021 1.8650169e-38
0.94828779 0.082944557 0.094412021 1.8465777e-38
0.95078778 0.080444552 0.096912026 1.8278515e-38
0.95078778 0.082944557 0.096912026 1.8831689e-38
0.95328778 0.075444557 0.094412021 1.5520199e-38
0.95328778 0.075444557 0.096912026 1.7632415e-38
0.95328778 0.077944554 0.094412021 1.6530389e-38
0.95328778 0.077944554 0.096912026 1.8183445e-38
0.95328778 0.080444552 0.094412021 1.7356909e-38
0.95328778 0.080444552 0.096912026 1.8826303e-38
0.97578782 0.007944555 0.079412021 1.6254883e-38
0.97578782 0.007944555 0.081912026 1.5979376e-38
0.97578782 0.010444555 0.076912023 1.6346718e-38
0.97578782 0.012944555 0.076912023 1.6346718e-38
0.97578782 0.010444555 0.079412021 1.6254883e-38
0.97578782 0.010444555 0.081912026 1.5979376e-38
0.97578782 0.012944555 0.079412021 1.6254883e-38
0.97578782 0.012944555 0.081912026 1.5979376e-38
0.97078776 0.0054445551 0.091912024 1.5979376e-38
0.97078776 0.007944555 0.091912024 1.6071212e-38
0.97078776 0.010444555 0.091912024 1.6071212e-38
