# .PCD v0.7 - Point Cloud Data file format
VERSION 0.7
FIELDS x y z rgb
SIZE 4 4 4 4
TYPE F F F F
COUNT 1 1 1 1
WIDTH 971
HEIGHT 1
VIEWPOINT 0 0 0 1 0 0 0
POINTS 971
DATA ascii
0.91078776 -0.043896444 0.12191202 1.6438554e-38
0.91078776 -0.041396443 0.11691202 1.6254883e-38
0.91078776 -0.041396443 0.11941203 1.6438554e-38
0.91078776 -0.041396443 0.12191202 1.6346718e-38
0.91328782 -0.046396445 0.11441202 1.6438554e-38
0.91328782 -0.043896444 0.11691202 1.6438554e-38
0.91578782 -0.043896444 0.11691202 1.6346718e-38
0.91328782 -0.043896444 0.11941203 1.6071212e-38
0.91578782 -0.043896444 0.12191202 1.7356909e-38
0.91328782 -0.041396443 0.11441202 1.6438554e-38
0.91328782 -0.041396443 0.11691202 1.6438554e-38
0.91328782 -0.038896445 0.11441202 1.6346718e-38
0.91578782 -0.041396443 0.11691202 1.6254883e-38
0.91578782 -0.038896445 0.11691202 1.6254883e-38
0.91328782 -0.041396443 0.11941203 1.6346718e-38
0.91578782 -0.041396443 0.12191202 1.7265073e-38
0.91578782 -0.038896445 0.12191202 1.6254883e-38
0.90828776 -0.046396445 0.12691203 2.0946039e-38
0.91078776 -0.046396445 0.12441202 1.8642606e-38
0.91078776 -0.046396445 0.12691203 1.9383039e-38
0.91078776 -0.043896444 0.12441202 1.7448744e-38
0.91078776 -0.043896444 0.12691203 1.9561319e-38
0.90828776 -0.046396445 0.12941203 1.7265073e-38
0.91328782 -0.046396445 0.12441202 1.8461446e-38
0.91328782 -0.046396445 0.12691203 1.7081402e-38
0.91328782 -0.043896444 0.12441202 1.7632415e-38
0.91578782 -0.046396445 0.12441202 1.9291923e-38
0.91578782 -0.046396445 0.12691203 1.671408e-38
0.91578782 -0.043896444 0.12441202 2.0022656e-38
0.91328782 -0.041396443 0.12441202 1.6989567e-38
0.91578782 -0.041396443 0.12441202 1.8091593e-38
0.91578782 -0.038896445 0.12441202 1.6254883e-38
0.91578782 -0.036396444 0.12191202 1.6071212e-38
0.91328782 -0.036396444 0.12441202 1.6254883e-38
0.91328782 -0.033896446 0.12441202 1.6254883e-38
0.91578782 -0.036396444 0.12441202 1.6254883e-38
0.91828781 -0.043896444 0.11441202 1.5979376e-38
0.91828781 -0.043896444 0.11691202 1.6254883e-38
0.92078781 -0.043896444 0.11691202 1.6346718e-38
0.91828781 -0.043896444 0.11941203 1.6438554e-38
0.91828781 -0.043896444 0.12191202 1.7632415e-38
0.91828781 -0.041396443 0.11441202 1.6346718e-38
0.91828781 -0.041396443 0.11691202 1.6254883e-38
0.91828781 -0.038896445 0.11441202 1.6346718e-38
0.91828781 -0.038896445 0.11691202 1.6254883e-38
0.92078781 -0.041396443 0.11441202 1.6254883e-38
0.92078781 -0.041396443 0.11691202 1.6438554e-38
0.92078781 -0.038896445 0.11441202 1.6254883e-38
0.92078781 -0.038896445 0.11691202 1.6254883e-38
0.91828781 -0.041396443 0.11941203 1.6346718e-38
0.91828781 -0.041396443 0.12191202 1.7265073e-38
0.91828781 -0.038896445 0.11941203 1.6254883e-38
0.91828781 -0.038896445 0.12191202 1.6346718e-38
0.92078781 -0.041396443 0.11941203 1.6254883e-38
0.92078781 -0.041396443 0.12191202 1.6071212e-38
0.92078781 -0.038896445 0.11941203 1.6254883e-38
0.92078781 -0.038896445 0.12191202 1.5979376e-38
0.92328781 -0.041396443 0.11691202 1.6438554e-38
0.92328781 -0.038896445 0.11691202 1.6346718e-38
0.92328781 -0.041396443 0.12191202 1.6805896e-38
0.92328781 -0.038896445 0.11941203 1.6254883e-38
0.92328781 -0.038896445 0.12191202 1.6438554e-38
0.92578781 -0.041396443 0.12191202 1.8642606e-38
0.91828781 -0.046396445 0.12441202 1.8735876e-38
0.91828781 -0.046396445 0.12691203 1.7356938e-38
0.91828781 -0.043896444 0.12441202 2.1035733e-38
0.91828781 -0.043896444 0.12691203 1.855584e-38
0.92078781 -0.043896444 0.12441202 1.8557227e-38
0.92078781 -0.043896444 0.12691203 1.7173238e-38
0.92078781 -0.046396445 0.12941203 2.0674175e-38
0.92078781 -0.046396445 0.13191202 1.939318e-38
0.92078781 -0.043896444 0.12941203 1.7081404e-38
0.91828781 -0.041396443 0.12441202 1.8275264e-38
0.91828781 -0.038896445 0.12441202 1.6622225e-38
0.91828781 -0.038896445 0.12691203 1.7265073e-38
0.92078781 -0.041396443 0.12441202 1.8367099e-38
0.92078781 -0.041396443 0.12691203 1.8643682e-38
0.92078781 -0.038896445 0.12441202 1.671406e-38
0.92578781 -0.043896444 0.12691203 1.7265075e-38
0.92328781 -0.046396445 0.12941203 1.5988387e-38
0.92328781 -0.046396445 0.13191202 1.4893898e-38
0.92328781 -0.043896444 0.12941203 1.6989603e-38
0.92328781 -0.043896444 0.13191202 1.9011761e-38
0.92578781 -0.043896444 0.12941203 1.7356917e-38
0.92328781 -0.041396443 0.12441202 1.8826635e-38
0.92328781 -0.038896445 0.12441202 1.8091593e-38
0.92578781 -0.041396443 0.12691203 1.7999808e-38
0.92578781 -0.038896445 0.12691203 1.9193652e-38
0.92328781 -0.041396443 0.12941203 1.8275283e-38
0.92328781 -0.041396443 0.13191202 1.6989567e-38
0.92578781 -0.041396443 0.12941203 1.7632415e-38
0.92578781 -0.038896445 0.12941203 1.9009988e-38
0.91828781 -0.036396444 0.11441202 1.6438554e-38
0.91828781 -0.036396444 0.11691202 1.6254883e-38
0.92078781 -0.036396444 0.11441202 1.6346718e-38
0.92078781 -0.036396444 0.11691202 1.6254883e-38
0.91828781 -0.036396444 0.11941203 1.5979376e-38
0.91828781 -0.036396444 0.12191202 1.6254883e-38
0.92078781 -0.036396444 0.11941203 1.6254883e-38
0.92078781 -0.036396444 0.12191202 1.6254883e-38
0.92078781 -0.033896446 0.11941203 1.6346718e-38
0.92078781 -0.033896446 0.12191202 1.6254883e-38
0.92328781 -0.036396444 0.11441202 1.6254883e-38
0.92328781 -0.036396444 0.11691202 1.6254883e-38
0.92328781 -0.036396444 0.11941203 1.6254883e-38
0.92328781 -0.036396444 0.12191202 1.6071212e-38
0.92328781 -0.033896446 0.12191202 1.6254883e-38
0.92578781 -0.036396444 0.12191202 1.6071212e-38
0.91828781 -0.036396444 0.12441202 1.6071212e-38
0.91828781 -0.036396444 0.12691203 1.5887541e-38
0.92078781 -0.036396444 0.12441202 1.6254883e-38
0.92078781 -0.033896446 0.12441202 1.6254883e-38
0.92078781 -0.031396445 0.12441202 1.6254883e-38
0.92078781 -0.031396445 0.12691203 1.6438554e-38
0.92078781 -0.028896444 0.12441202 1.6346718e-38
0.92078781 -0.028896444 0.12691203 1.6346718e-38
0.92328781 -0.036396444 0.12441202 1.5795705e-38
0.92328781 -0.033896446 0.12441202 1.5979376e-38
0.92578781 -0.036396444 0.12691203 1.7907922e-38
0.92578781 -0.033896446 0.12691203 1.6346718e-38
0.92578781 -0.036396444 0.12941203 1.9469125e-38
0.92328781 -0.031396445 0.12441202 1.6071212e-38
0.92578781 -0.031396445 0.12691203 1.6438554e-38
0.92578781 -0.031396445 0.12941203 1.671406e-38
0.9282878 -0.046396445 0.12941203 1.4800251e-38
0.9282878 -0.043896444 0.12941203 1.8460389e-38
0.9307878 -0.046396445 0.12941203 1.507973e-38
0.9307878 -0.043896444 0.12941203 1.938197e-38
0.9282878 -0.041396443 0.12441202 2.002195e-38
0.9282878 -0.041396443 0.12691203 1.9653872e-38
0.9282878 -0.038896445 0.12441202 1.7999757e-38
0.9282878 -0.038896445 0.12691203 1.9469125e-38
0.9282878 -0.041396443 0.12941203 1.689774e-38
0.9282878 -0.038896445 0.12941203 1.8644774e-38
0.9307878 -0.041396443 0.12941203 1.6622225e-38
0.9307878 -0.041396443 0.13191202 1.5809008e-38
0.9307878 -0.038896445 0.12941203 1.8554004e-38
0.9332878 -0.043896444 0.12941203 1.8468702e-38
0.9357878 -0.043896444 0.12941203 1.6546932e-38
0.9332878 -0.041396443 0.12691203 1.7081402e-38
0.9332878 -0.038896445 0.12691203 1.8644774e-38
0.9332878 -0.041396443 0.12941203 1.5979421e-38
0.9332878 -0.038896445 0.12941203 1.7907923e-38
0.9357878 -0.041396443 0.12941203 1.572002e-38
0.9357878 -0.038896445 0.12941203 1.7173246e-38
0.9307878 -0.036396444 0.12191202 1.6622225e-38
0.9307878 -0.033896446 0.12191202 1.6071212e-38
0.9307878 -0.031396445 0.12191202 1.6346718e-38
0.9332878 -0.033896446 0.11691202 1.6071212e-38
0.9332878 -0.033896446 0.11941203 1.5979376e-38
0.9357878 -0.033896446 0.11941203 1.6254883e-38
0.9357878 -0.033896446 0.12191202 1.6530389e-38
0.9357878 -0.028896444 0.12191202 1.671406e-38
0.9282878 -0.036396444 0.12441202 1.6438554e-38
0.9282878 -0.036396444 0.12691203 1.7907922e-38
0.9282878 -0.033896446 0.12441202 1.6071212e-38
0.9282878 -0.033896446 0.12691203 1.6622225e-38
0.9307878 -0.036396444 0.12441202 1.7448744e-38
0.9307878 -0.036396444 0.12691203 1.8091593e-38
0.9307878 -0.033896446 0.12441202 1.6254883e-38
0.9307878 -0.036396444 0.12941203 2.0393587e-38
0.9282878 -0.031396445 0.12691203 1.671406e-38
0.9282878 -0.028896444 0.12691203 1.6622225e-38
0.9307878 -0.031396445 0.12691203 1.671406e-38
0.9307878 -0.028896444 0.12691203 1.671406e-38
0.9332878 -0.036396444 0.12691203 1.8734441e-38
0.9357878 -0.036396444 0.12441202 1.7907922e-38
0.9357878 -0.036396444 0.12691203 1.8367099e-38
0.9332878 -0.036396444 0.12941203 1.9194339e-38
0.9357878 -0.031396445 0.12441202 1.6622225e-38
0.9357878 -0.028896444 0.12441202 1.671406e-38
0.93828779 -0.041396443 0.12941203 1.5901206e-38
0.93828779 -0.038896445 0.12941203 1.68059e-38
0.94578779 -0.041396443 0.12691203 1.810098e-38
0.94578779 -0.038896445 0.12691203 1.6348903e-38
0.94328779 -0.041396443 0.12941203 1.8559392e-38
0.94328779 -0.038896445 0.12941203 1.6254883e-38
0.93828779 -0.033896446 0.12191202 1.6346718e-38
0.94078779 -0.033896446 0.11941203 1.6530389e-38
0.94078779 -0.033896446 0.12191202 1.6805896e-38
0.93828779 -0.031396445 0.12191202 1.6438554e-38
0.93828779 -0.028896444 0.12191202 1.6897731e-38
0.94078779 -0.031396445 0.12191202 1.6897731e-38
0.94078779 -0.028896444 0.11941203 1.671406e-38
0.94078779 -0.028896444 0.12191202 1.6530389e-38
0.94328779 -0.033896446 0.12191202 1.671406e-38
0.94328779 -0.031396445 0.12191202 1.6897731e-38
0.94328779 -0.028896444 0.12191202 1.6897731e-38
0.94578779 -0.031396445 0.12191202 1.671406e-38
0.94578779 -0.028896444 0.12191202 1.671406e-38
0.93828779 -0.036396444 0.12691203 1.9286903e-38
0.93828779 -0.033896446 0.12441202 1.855077e-38
0.93828779 -0.033896446 0.12691203 1.8643682e-38
0.94078779 -0.036396444 0.12691203 1.8093754e-38
0.94078779 -0.033896446 0.12441202 1.7265073e-38
0.93828779 -0.031396445 0.12441202 1.6805896e-38
0.94328779 -0.036396444 0.12691203 1.6072296e-38
0.94328779 -0.033896446 0.12691203 1.9107547e-38
0.94578779 -0.036396444 0.12691203 1.7173238e-38
0.94578779 -0.033896446 0.12441202 1.7724251e-38
0.94578779 -0.033896446 0.12691203 1.8183798e-38
0.94328779 -0.036396444 0.12941203 1.6622246e-38
0.94578779 -0.031396445 0.12441202 1.754058e-38
0.95828778 -0.026396444 0.086912021 1.6622225e-38
0.96078777 -0.026396444 0.084412023 1.6897731e-38
0.96078777 -0.023896445 0.084412023 1.6805896e-38
0.96078777 -0.026396444 0.089412026 1.6622225e-38
0.96078777 -0.023896445 0.091912024 1.6438554e-38
0.96078777 -0.021396445 0.091912024 1.6346718e-38
0.96328777 -0.026396444 0.086912021 1.6897731e-38
0.96328777 -0.023896445 0.086912021 1.6622225e-38
0.96578777 -0.026396444 0.084412023 1.6897731e-38
0.96328777 -0.026396444 0.089412026 1.6622225e-38
0.96328777 -0.023896445 0.089412026 1.6622225e-38
0.96578777 -0.026396444 0.089412026 1.6622225e-38
0.96328777 -0.021396445 0.091912024 1.6346718e-38
0.96328777 -0.018896444 0.091912024 1.6254883e-38
0.96578777 -0.021396445 0.089412026 1.6254883e-38
0.96578777 -0.021396445 0.091912024 1.6346718e-38
0.96578777 -0.018896444 0.089412026 1.6254883e-38
0.96578777 -0.018896444 0.091912024 1.6254883e-38
0.97328776 -0.018896444 0.069412023 1.6254884e-38
0.97328776 -0.018896444 0.07191202 1.6071212e-38
0.97328776 -0.016396444 0.069412023 1.5612046e-38
0.97328776 -0.016396444 0.07191202 1.5520199e-38
0.97578782 -0.011396444 0.069412023 1.6897731e-38
0.97578782 -0.008896444 0.069412023 1.7724258e-38
0.97828782 -0.018896444 0.07191202 1.6254883e-38
0.98078781 -0.021396445 0.069412023 1.6530389e-38
0.98078781 -0.021396445 0.07191202 1.6346718e-38
0.98078781 -0.018896444 0.069412023 1.6346718e-38
0.98078781 -0.018896444 0.07191202 1.6438554e-38
0.98578781 -0.026396444 0.07191202 1.6989567e-38
0.98578781 -0.023896445 0.07191202 1.671406e-38
0.98328781 -0.018896444 0.069412023 1.6254883e-38
0.98578781 -0.018896444 0.07191202 1.6254883e-38
0.97828782 -0.016396444 0.07191202 1.5979376e-38
0.98078781 -0.016396444 0.069412023 1.6071212e-38
0.98078781 -0.016396444 0.07191202 1.6071212e-38
0.98078781 -0.013896445 0.069412023 1.6254884e-38
0.98078781 -0.013896445 0.07191202 1.6071212e-38
0.97828782 -0.008896444 0.069412023 1.6897731e-38
0.98078781 -0.011396444 0.069412023 1.662223e-38
0.98078781 -0.011396444 0.07191202 1.6071212e-38
0.98078781 -0.008896444 0.069412023 1.6897731e-38
0.98078781 -0.008896444 0.07191202 1.6438554e-38
0.98328781 -0.016396444 0.069412023 1.5887541e-38
0.98328781 -0.013896445 0.069412023 1.6254883e-38
0.98578781 -0.016396444 0.07191202 1.5979376e-38
0.98578781 -0.013896445 0.07191202 1.6071212e-38
0.98328781 -0.011396444 0.069412023 1.6346718e-38
0.98328781 -0.008896444 0.069412023 1.671406e-38
0.98578781 -0.011396444 0.07191202 1.6163047e-38
0.96828777 -0.026396444 0.081912026 1.6897731e-38
0.96828777 -0.023896445 0.081912026 1.6897731e-38
0.97078776 -0.023896445 0.081912026 1.6622225e-38
0.96828777 -0.021396445 0.081912026 1.6346718e-38
0.97078776 -0.021396445 0.079412021 1.6346718e-38
0.97078776 -0.021396445 0.081912026 1.6530389e-38
0.97078776 -0.018896444 0.079412021 1.6254883e-38
0.97078776 -0.018896444 0.081912026 1.6254883e-38
0.97328776 -0.023896445 0.081912026 1.6622225e-38
0.97328776 -0.021396445 0.076912023 1.6438554e-38
0.97328776 -0.018896444 0.076912023 1.6438554e-38
0.97578782 -0.018896444 0.076912023 1.6254883e-38
0.97328776 -0.021396445 0.081912026 1.6346718e-38
0.97328776 -0.018896444 0.081912026 1.6254883e-38
0.97578782 -0.021396445 0.079412021 1.6346718e-38
0.97578782 -0.021396445 0.081912026 1.6346718e-38
0.97578782 -0.018896444 0.079412021 1.6346718e-38
0.97578782 -0.018896444 0.081912026 1.6254883e-38
0.97078776 -0.026396444 0.084412023 1.671406e-38
0.97078776 -0.023896445 0.084412023 1.6622225e-38
0.97078776 -0.023896445 0.086912021 1.6622225e-38
0.97078776 -0.023896445 0.089412026 1.6438554e-38
0.97078776 -0.023896445 0.091912024 1.6438554e-38
0.97078776 -0.021396445 0.084412023 1.6254883e-38
0.97078776 -0.021396445 0.086912021 1.6438554e-38
0.97078776 -0.018896444 0.084412023 1.6254883e-38
0.97078776 -0.018896444 0.086912021 1.6438554e-38
0.96828777 -0.021396445 0.089412026 1.6346718e-38
0.96828777 -0.018896444 0.089412026 1.6254883e-38
0.97078776 -0.021396445 0.091912024 1.6254883e-38
0.97078776 -0.018896444 0.089412026 1.5795705e-38
0.97078776 -0.018896444 0.091912024 1.5795705e-38
0.97328776 -0.021396445 0.084412023 1.6346718e-38
0.97328776 -0.018896444 0.084412023 1.5795705e-38
0.97328776 -0.018896444 0.086912021 1.570387e-38
0.97328776 -0.018896444 0.089412026 1.5795705e-38
0.97328776 -0.018896444 0.091912024 1.5795705e-38
0.97328776 -0.016396444 0.076912023 1.5795705e-38
0.97578782 -0.016396444 0.076912023 1.6071212e-38
0.97578782 -0.016396444 0.079412021 1.6071212e-38
0.97578782 -0.016396444 0.081912026 1.5795705e-38
0.97578782 -0.013896445 0.081912026 1.5520199e-38
0.97078776 -0.016396444 0.086912021 1.5795705e-38
0.97078776 -0.016396444 0.089412026 1.5795705e-38
0.97078776 -0.016396444 0.091912024 1.5795705e-38
0.97328776 -0.016396444 0.086912021 1.5520199e-38
0.97578782 -0.016396444 0.086912021 1.5795705e-38
0.97578782 -0.013896445 0.086912021 1.5520199e-38
0.97328776 -0.016396444 0.089412026 1.5795705e-38
0.97328776 -0.016396444 0.091912024 1.5795705e-38
0.97328776 -0.013896445 0.089412026 1.5520199e-38
0.97328776 -0.013896445 0.091912024 1.5520199e-38
0.97578782 -0.016396444 0.089412026 1.5520199e-38
0.97578782 -0.013896445 0.089412026 1.5520199e-38
0.97578782 -0.011396444 0.086912021 1.5520199e-38
0.97328776 -0.011396444 0.091912024 1.5520199e-38
0.97578782 -0.011396444 0.089412026 1.5520199e-38
0.97828782 -0.018896444 0.074412026 1.6254883e-38
0.98078781 -0.018896444 0.074412026 1.6346718e-38
0.98328781 -0.021396445 0.074412026 1.6346718e-38
0.98328781 -0.018896444 0.074412026 1.6346718e-38
0.97828782 -0.016396444 0.074412026 1.6071212e-38
0.98078781 -0.016396444 0.074412026 1.5887541e-38
0.98078781 -0.016396444 0.076912023 1.5795705e-38
0.98078781 -0.013896445 0.074412026 1.5887541e-38
0.98078781 -0.013896445 0.076912023 1.570387e-38
0.97828782 -0.016396444 0.079412021 1.5795705e-38
0.97828782 -0.013896445 0.079412021 1.5795705e-38
0.98078781 -0.016396444 0.081912026 1.5795705e-38
0.98078781 -0.013896445 0.081912026 1.5520199e-38
0.98078781 -0.011396444 0.074412026 1.5979376e-38
0.98078781 -0.011396444 0.076912023 1.570387e-38
0.98078781 -0.008896444 0.076912023 1.5979376e-38
0.97828782 -0.011396444 0.079412021 1.5795705e-38
0.98078781 -0.011396444 0.081912026 1.5520199e-38
0.98078781 -0.008896444 0.081912026 1.5520199e-38
0.98328781 -0.016396444 0.074412026 1.5979376e-38
0.98328781 -0.013896445 0.074412026 1.5979376e-38
0.98328781 -0.016396444 0.079412021 1.5795705e-38
0.98328781 -0.013896445 0.079412021 1.5520199e-38
0.98328781 -0.011396444 0.074412026 1.5979376e-38
0.98328781 -0.008896444 0.074412026 1.6071212e-38
0.98578781 -0.008896444 0.076912023 1.570387e-38
0.98328781 -0.011396444 0.079412021 1.5520199e-38
0.98328781 -0.008896444 0.079412021 1.5520199e-38
0.98328781 -0.008896444 0.081912026 1.5428363e-38
0.98578781 -0.008896444 0.079412021 1.5520199e-38
0.97828782 -0.016396444 0.084412023 1.5795705e-38
0.97828782 -0.013896445 0.084412023 1.5520199e-38
0.97828782 -0.013896445 0.086912021 1.5520199e-38
0.98078781 -0.013896445 0.086912021 1.5520199e-38
0.97828782 -0.011396444 0.086912021 1.5520199e-38
0.98078781 -0.011396444 0.084412023 1.5520199e-38
0.98078781 -0.011396444 0.086912021 1.5520199e-38
0.98078781 -0.008896444 0.084412023 1.5428363e-38
0.98078781 -0.008896444 0.086912021 1.5520199e-38
0.97828782 -0.011396444 0.091912024 1.5520199e-38
0.97828782 -0.008896444 0.091912024 1.5520199e-38
0.98078781 -0.008896444 0.089412026 1.5520199e-38
0.98078781 -0.008896444 0.091912024 1.570387e-38
0.98328781 -0.008896444 0.086912021 1.5520199e-38
0.98328781 -0.008896444 0.091912024 1.570387e-38
0.95828778 -0.028896444 0.11191203 1.6622225e-38
0.96578777 -0.028896444 0.10941202 1.671406e-38
0.95078778 -0.041396443 0.12691203 1.6543696e-38
0.95078778 -0.038896445 0.12691203 1.5805771e-38
0.94828779 -0.041396443 0.12941203 1.6912456e-38
0.94828779 -0.038896445 0.12941203 1.599014e-38
0.95328778 -0.041396443 0.12691203 1.535199e-38
0.95328778 -0.038896445 0.12691203 1.4982847e-38
0.95578778 -0.041396443 0.12441202 1.7002519e-38
0.95578778 -0.038896445 0.12441202 1.5988367e-38
0.94828779 -0.033896446 0.12191202 1.7907933e-38
0.94828779 -0.031396445 0.11941203 1.671406e-38
0.94828779 -0.031396445 0.12191202 1.7081402e-38
0.94828779 -0.028896444 0.11941203 1.6989567e-38
0.94828779 -0.028896444 0.12191202 1.5795705e-38
0.95078778 -0.031396445 0.12191202 1.7173238e-38
0.95078778 -0.028896444 0.12191202 1.6254883e-38
0.95578778 -0.031396445 0.11441202 1.671406e-38
0.95578778 -0.028896444 0.11441202 1.671406e-38
0.95578778 -0.028896444 0.11691202 1.7081402e-38
0.95328778 -0.028896444 0.11941203 1.6897731e-38
0.94828779 -0.033896446 0.12441202 1.9839711e-38
0.94828779 -0.033896446 0.12691203 2.0763446e-38
0.95078778 -0.036396444 0.12691203 1.7081432e-38
0.95078778 -0.033896446 0.12691203 1.7356928e-38
0.94828779 -0.036396444 0.12941203 1.7265115e-38
0.94828779 -0.033896446 0.12941203 1.7265115e-38
0.94828779 -0.031396445 0.12441202 1.7907922e-38
0.94828779 -0.031396445 0.12691203 1.8367099e-38
0.95328778 -0.036396444 0.12691203 1.8277811e-38
0.95328778 -0.033896446 0.12441202 2.03032e-38
0.95328778 -0.033896446 0.12691203 1.6989595e-38
0.95328778 -0.031396445 0.12441202 1.8275264e-38
0.95328778 -0.031396445 0.12691203 1.9390637e-38
0.95328778 -0.028896444 0.12441202 1.68059e-38
0.95328778 -0.028896444 0.12691203 2.0856377e-38
0.95578778 -0.031396445 0.12441202 1.9389156e-38
0.95578778 -0.028896444 0.12441202 2.0117739e-38
0.95828778 -0.041396443 0.12691203 1.5353428e-38
0.95828778 -0.038896445 0.12691203 1.4342482e-38
0.95828778 -0.036396444 0.12691203 1.9383045e-38
0.95828778 -0.033896446 0.12691203 1.7448768e-38
0.96078777 -0.033896446 0.12691203 1.6805896e-38
0.96078777 -0.033896446 0.12941203 1.6168428e-38
0.95828778 -0.031396445 0.12691203 1.9112959e-38
0.95828778 -0.028896444 0.12691203 1.8927099e-38
0.96078777 -0.031396445 0.12691203 1.7448781e-38
0.96078777 -0.028896444 0.12441202 2.094857e-38
0.96078777 -0.028896444 0.12691203 1.855979e-38
0.96078777 -0.028896444 0.12941203 1.6622225e-38
0.96078777 -0.028896444 0.13191202 1.5795724e-38
0.96328777 -0.036396444 0.12691203 1.9579658e-38
0.96328777 -0.033896446 0.12691203 1.5890769e-38
0.96328777 -0.033896446 0.12941203 1.7943534e-38
0.96328777 -0.033896446 0.13191202 2.2714354e-38
0.96328777 -0.031396445 0.12691203 1.6897773e-38
0.96328777 -0.028896444 0.12691203 1.6346737e-38
0.96578777 -0.028896444 0.12691203 1.6256342e-38
0.96328777 -0.031396445 0.12941203 1.6254883e-38
0.96328777 -0.031396445 0.13191202 1.5799682e-38
0.96328777 -0.028896444 0.12941203 1.7633203e-38
0.96328777 -0.028896444 0.13191202 1.708146e-38
0.96578777 -0.031396445 0.12941203 1.6163047e-38
0.96578777 -0.028896444 0.12941203 1.5979421e-38
0.96578777 -0.028896444 0.13191202 1.6071231e-38
0.96078777 -0.023896445 0.094412021 1.6622225e-38
0.96078777 -0.023896445 0.096912026 1.6622225e-38
0.96078777 -0.021396445 0.094412021 1.6346718e-38
0.96078777 -0.021396445 0.096912026 1.6346718e-38
0.96328777 -0.023896445 0.094412021 1.6438554e-38
0.96328777 -0.023896445 0.096912026 1.6622225e-38
0.96578777 -0.023896445 0.096912026 1.6438554e-38
0.96328777 -0.023896445 0.099412024 1.6254883e-38
0.96578777 -0.026396444 0.10191202 1.6254883e-38
0.96578777 -0.023896445 0.10191202 1.6254883e-38
0.96328777 -0.021396445 0.094412021 1.6071212e-38
0.96328777 -0.021396445 0.096912026 1.6530389e-38
0.96328777 -0.018896444 0.094412021 1.6071212e-38
0.96578777 -0.021396445 0.096912026 1.6071212e-38
0.96578777 -0.018896444 0.096912026 1.6071212e-38
0.96328777 -0.021396445 0.099412024 1.6071212e-38
0.96578777 -0.021396445 0.10191202 1.6071212e-38
0.96578777 -0.018896444 0.10191202 1.5979376e-38
0.95828778 -0.026396444 0.10441203 1.6254883e-38
0.95828778 -0.023896445 0.10441203 1.6254883e-38
0.96078777 -0.026396444 0.10691202 1.6254883e-38
0.96078777 -0.023896445 0.10691202 1.6254883e-38
0.95828778 -0.026396444 0.11191203 1.671406e-38
0.95828778 -0.023896445 0.11191203 1.6622225e-38
0.96078777 -0.026396444 0.10941202 1.6438554e-38
0.96328777 -0.023896445 0.10441203 1.6254883e-38
0.96578777 -0.026396444 0.10441203 1.6254883e-38
0.96578777 -0.026396444 0.10691202 1.6254883e-38
0.96578777 -0.023896445 0.10441203 1.6254883e-38
0.96578777 -0.023896445 0.10691202 1.6254883e-38
0.96328777 -0.026396444 0.11191203 1.671406e-38
0.96328777 -0.023896445 0.11191203 1.671406e-38
0.96578777 -0.026396444 0.10941202 1.6438554e-38
0.96578777 -0.023896445 0.10941202 1.6438554e-38
0.96328777 -0.021396445 0.10441203 1.6071212e-38
0.96328777 -0.018896444 0.10441203 1.5979376e-38
0.96578777 -0.021396445 0.10441203 1.5887541e-38
0.96578777 -0.021396445 0.10691202 1.6071212e-38
0.96578777 -0.018896444 0.10441203 1.570387e-38
0.96578777 -0.018896444 0.10691202 1.5979376e-38
0.96328777 -0.021396445 0.11191203 1.6163047e-38
0.96578777 -0.021396445 0.10941202 1.6071212e-38
0.96578777 -0.018896444 0.10941202 1.6071212e-38
0.95078778 -0.026396444 0.11691202 1.671406e-38
0.95078778 -0.023896445 0.11691202 1.6622225e-38
0.94828779 -0.026396444 0.11941203 1.6530389e-38
0.95078778 -0.026396444 0.12191202 1.6071212e-38
0.95078778 -0.023896445 0.12191202 1.5244692e-38
0.95578778 -0.026396444 0.11441202 1.6438554e-38
0.95578778 -0.026396444 0.11691202 1.7081402e-38
0.95578778 -0.023896445 0.11441202 1.6438554e-38
0.95578778 -0.023896445 0.11691202 1.6805896e-38
0.95328778 -0.026396444 0.11941203 1.7081402e-38
0.95328778 -0.023896445 0.11941203 1.6897731e-38
0.95578778 -0.023896445 0.12191202 1.5061035e-38
0.95578778 -0.021396445 0.11691202 1.6530389e-38
0.95328778 -0.021396445 0.11941203 1.570387e-38
0.95578778 -0.021396445 0.11941203 1.6254907e-38
0.95578778 -0.021396445 0.12191202 1.5428363e-38
0.95328778 -0.026396444 0.12441202 1.4785525e-38
0.95328778 -0.026396444 0.12691203 1.4510008e-38
0.95328778 -0.023896445 0.12441202 1.5061021e-38
0.95578778 -0.026396444 0.12441202 1.3958995e-38
0.95578778 -0.023896445 0.12441202 1.4601844e-38
0.95578778 -0.021396445 0.12441202 1.4785515e-38
0.95828778 -0.021396445 0.11691202 1.6530389e-38
0.96078777 -0.021396445 0.11441202 1.6530389e-38
0.95828778 -0.021396445 0.11941203 1.5244701e-38
0.95828778 -0.021396445 0.12191202 1.49692e-38
0.96078777 -0.021396445 0.11941203 1.4877356e-38
0.96328777 -0.021396445 0.11441202 1.6254883e-38
0.96328777 -0.021396445 0.11691202 1.4969186e-38
0.96578777 -0.021396445 0.11441202 1.5336528e-38
0.96578777 -0.021396445 0.11691202 1.4785515e-38
0.96328777 -0.021396445 0.11941203 1.4785516e-38
0.96328777 -0.021396445 0.12191202 1.4693689e-38
0.96578777 -0.021396445 0.12191202 1.4601849e-38
0.95828778 -0.026396444 0.12691203 1.6346718e-38
0.95828778 -0.023896445 0.12441202 1.4234502e-38
0.95828778 -0.023896445 0.12691203 1.5979376e-38
0.96078777 -0.023896445 0.12441202 1.5612034e-38
0.96078777 -0.023896445 0.12691203 1.7081402e-38
0.96078777 -0.026396444 0.12941203 2.1592143e-38
0.96078777 -0.026396444 0.13191202 1.9753622e-38
0.96078777 -0.023896445 0.12941203 1.8275264e-38
0.95828778 -0.021396445 0.12441202 1.4877359e-38
0.96078777 -0.021396445 0.12441202 1.4418173e-38
0.96078777 -0.021396445 0.12691203 1.3775324e-38
0.96328777 -0.026396444 0.12691203 2.2053128e-38
0.96328777 -0.023896445 0.12691203 1.8367099e-38
0.96578777 -0.023896445 0.12691203 1.7999759e-38
0.96328777 -0.026396444 0.12941203 1.9018931e-38
0.96328777 -0.026396444 0.13191202 1.7907923e-38
0.96328777 -0.023896445 0.12941203 1.9569233e-38
0.96328777 -0.023896445 0.13191202 1.8644055e-38
0.96578777 -0.026396444 0.12941203 1.7358787e-38
0.96578777 -0.026396444 0.13191202 1.5795725e-38
0.96578777 -0.023896445 0.12941203 1.9291941e-38
0.96578777 -0.023896445 0.13191202 1.7726452e-38
0.96328777 -0.021396445 0.12441202 1.4418173e-38
0.96328777 -0.021396445 0.12691203 1.5795724e-38
0.96578777 -0.021396445 0.12441202 1.4693679e-38
0.96578777 -0.021396445 0.12691203 1.5979376e-38
0.96578777 -0.021396445 0.12941203 1.8367817e-38
0.96578777 -0.021396445 0.13191202 1.9206229e-38
0.96578777 -0.018896444 0.13191202 1.865626e-38
0.96828777 -0.028896444 0.12691203 1.5887602e-38
0.96828777 -0.031396445 0.12941203 1.608019e-38
0.96828777 -0.028896444 0.12941203 1.5795743e-38
0.96828777 -0.023896445 0.099412024 1.6346718e-38
0.96828777 -0.023896445 0.10191202 1.6346718e-38
0.96828777 -0.021396445 0.094412021 1.6254883e-38
0.96828777 -0.021396445 0.096912026 1.6071212e-38
0.96828777 -0.018896444 0.094412021 1.6254883e-38
0.96828777 -0.018896444 0.096912026 1.5795705e-38
0.97078776 -0.018896444 0.094412021 1.570387e-38
0.96828777 -0.021396445 0.099412024 1.6254883e-38
0.96828777 -0.021396445 0.10191202 1.6071212e-38
0.96828777 -0.018896444 0.099412024 1.6071212e-38
0.96828777 -0.018896444 0.10191202 1.5979376e-38
0.97078776 -0.021396445 0.099412024 1.6254883e-38
0.97078776 -0.018896444 0.099412024 1.5795705e-38
0.97078776 -0.018896444 0.10191202 1.5795705e-38
0.97328776 -0.018896444 0.094412021 1.5795705e-38
0.97328776 -0.018896444 0.096912026 1.5795705e-38
0.97578782 -0.018896444 0.099412024 1.5795705e-38
0.96828777 -0.026396444 0.10691202 1.6346718e-38
0.96828777 -0.023896445 0.10691202 1.6346718e-38
0.97078776 -0.026396444 0.10691202 1.6438554e-38
0.97078776 -0.023896445 0.10441203 1.6346718e-38
0.97078776 -0.023896445 0.10691202 1.6438554e-38
0.96828777 -0.026396444 0.10941202 1.671406e-38
0.96828777 -0.026396444 0.11191203 1.6989567e-38
0.96828777 -0.023896445 0.10941202 1.671406e-38
0.96828777 -0.021396445 0.10691202 1.6071212e-38
0.96828777 -0.018896444 0.10691202 1.5979376e-38
0.97078776 -0.021396445 0.10441203 1.6071212e-38
0.97078776 -0.021396445 0.10691202 1.6163047e-38
0.97078776 -0.018896444 0.10441203 1.5979376e-38
0.97078776 -0.018896444 0.10691202 1.5979376e-38
0.96828777 -0.021396445 0.10941202 1.6530389e-38
0.96828777 -0.021396445 0.11191203 1.6163047e-38
0.96828777 -0.018896444 0.10941202 1.6071212e-38
0.96828777 -0.018896444 0.11191203 1.5887541e-38
0.97078776 -0.018896444 0.10941202 1.6254883e-38
0.97078776 -0.018896444 0.11191203 1.5428375e-38
0.97328776 -0.026396444 0.10691202 1.671406e-38
0.97328776 -0.023896445 0.10441203 1.6438554e-38
0.97328776 -0.023896445 0.10691202 1.6622225e-38
0.97578782 -0.026396444 0.10691202 1.6530389e-38
0.97578782 -0.023896445 0.10691202 1.6438554e-38
0.97328776 -0.021396445 0.10441203 1.5887541e-38
0.97328776 -0.021396445 0.10691202 1.6163047e-38
0.97328776 -0.018896444 0.10441203 1.5520199e-38
0.97328776 -0.018896444 0.10691202 1.6071212e-38
0.97578782 -0.021396445 0.10691202 1.6163047e-38
0.97578782 -0.018896444 0.10691202 1.570387e-38
0.97328776 -0.021396445 0.10941202 1.6163047e-38
0.97328776 -0.021396445 0.11191203 1.5612034e-38
0.97328776 -0.018896444 0.10941202 1.570387e-38
0.97328776 -0.018896444 0.11191203 1.5428363e-38
0.97578782 -0.021396445 0.11191203 1.5152857e-38
0.97578782 -0.018896444 0.10941202 1.5428363e-38
0.97578782 -0.018896444 0.11191203 1.5244692e-38
0.96828777 -0.016396444 0.094412021 1.5795705e-38
0.96828777 -0.016396444 0.096912026 1.5795705e-38
0.97078776 -0.016396444 0.094412021 1.5520199e-38
0.97078776 -0.013896445 0.094412021 1.5520199e-38
0.97078776 -0.016396444 0.099412024 1.5795705e-38
0.97078776 -0.016396444 0.10191202 1.570387e-38
0.97078776 -0.011396444 0.094412021 1.5520199e-38
0.97328776 -0.016396444 0.094412021 1.570387e-38
0.97328776 -0.016396444 0.096912026 1.5795705e-38
0.97328776 -0.013896445 0.094412021 1.5520199e-38
0.97328776 -0.013896445 0.096912026 1.5520199e-38
0.97578782 -0.016396444 0.099412024 1.570387e-38
0.97578782 -0.016396444 0.10191202 1.5520199e-38
0.97578782 -0.013896445 0.099412024 1.5520199e-38
0.97578782 -0.013896445 0.10191202 1.5520199e-38
0.97328776 -0.011396444 0.094412021 1.5520199e-38
0.97328776 -0.011396444 0.096912026 1.570387e-38
0.97578782 -0.011396444 0.094412021 1.5428363e-38
0.97578782 -0.011396444 0.099412024 1.5520199e-38
0.97578782 -0.011396444 0.10191202 1.570387e-38
0.97328776 -0.016396444 0.10441203 1.5520199e-38
0.97578782 -0.016396444 0.10691202 1.570387e-38
0.97578782 -0.013896445 0.10691202 1.570387e-38
0.97578782 -0.016396444 0.10941202 1.5428363e-38
0.97578782 -0.016396444 0.11191203 1.5244692e-38
0.97578782 -0.013896445 0.10941202 1.5152865e-38
0.97578782 -0.013896445 0.11191203 1.5061028e-38
0.97828782 -0.018896444 0.11191203 1.5336528e-38
0.98328781 -0.018896444 0.11191203 1.5061031e-38
0.97828782 -0.013896445 0.096912026 1.5795705e-38
0.97828782 -0.016396444 0.10191202 1.5520199e-38
0.97828782 -0.013896445 0.10191202 1.5336528e-38
0.98078781 -0.013896445 0.10191202 1.5244692e-38
0.97828782 -0.011396444 0.094412021 1.5520199e-38
0.97828782 -0.011396444 0.096912026 1.5887541e-38
0.97828782 -0.008896444 0.094412021 1.5520199e-38
0.97828782 -0.008896444 0.096912026 1.5795705e-38
0.98078781 -0.011396444 0.096912026 1.5887541e-38
0.98078781 -0.008896444 0.096912026 1.5979376e-38
0.97828782 -0.011396444 0.099412024 1.5887541e-38
0.97828782 -0.011396444 0.10191202 1.570387e-38
0.97828782 -0.008896444 0.099412024 1.5887541e-38
0.98078781 -0.011396444 0.10191202 1.5428363e-38
0.98078781 -0.008896444 0.10191202 1.6530389e-38
0.98328781 -0.011396444 0.099412024 1.5887541e-38
0.98328781 -0.011396444 0.10191202 1.5244692e-38
0.98328781 -0.008896444 0.099412024 1.6805896e-38
0.98328781 -0.008896444 0.10191202 1.570387e-38
0.98578781 -0.008896444 0.099412024 1.6622225e-38
0.97828782 -0.016396444 0.10441203 1.5520199e-38
0.97828782 -0.013896445 0.10441203 1.5520199e-38
0.98078781 -0.016396444 0.10691202 1.5520199e-38
0.98078781 -0.013896445 0.10441203 1.5428363e-38
0.98078781 -0.013896445 0.10691202 1.5520199e-38
0.97828782 -0.016396444 0.11191203 1.5152857e-38
0.97828782 -0.013896445 0.11191203 1.359166e-38
0.98078781 -0.013896445 0.10941202 1.5244692e-38
0.97828782 -0.011396444 0.10441203 1.5795705e-38
0.98078781 -0.011396444 0.10441203 1.5428363e-38
0.98078781 -0.011396444 0.10691202 1.5336528e-38
0.98078781 -0.008896444 0.10441203 1.6071212e-38
0.98078781 -0.008896444 0.10691202 1.5612037e-38
0.97828782 -0.011396444 0.11191203 1.5152857e-38
0.97828782 -0.008896444 0.11191203 1.3519248e-38
0.98078781 -0.011396444 0.10941202 1.5152857e-38
0.98078781 -0.008896444 0.10941202 1.3519248e-38
0.98328781 -0.016396444 0.11191203 1.4877356e-38
0.98328781 -0.013896445 0.10941202 1.4785515e-38
0.98328781 -0.013896445 0.11191203 1.2583262e-38
0.98578781 -0.013896445 0.10941202 1.3499818e-38
0.98578781 -0.013896445 0.11191203 1.212659e-38
0.98328781 -0.011396444 0.10441203 1.5428363e-38
0.98328781 -0.011396444 0.10691202 1.5336533e-38
0.98328781 -0.008896444 0.10441203 1.5612034e-38
0.98328781 -0.008896444 0.10691202 1.4612976e-38
0.98578781 -0.011396444 0.10691202 1.1583506e-38
0.98578781 -0.008896444 0.10441203 1.5520199e-38
0.98578781 -0.008896444 0.10691202 1.3334864e-38
0.98328781 -0.011396444 0.10941202 1.5336528e-38
0.98328781 -0.011396444 0.11191203 1.4334979e-38
0.98328781 -0.008896444 0.10941202 1.3149387e-38
0.98578781 -0.011396444 0.10941202 1.4973492e-38
0.98578781 -0.011396444 0.11191203 1.3689985e-38
0.96828777 -0.021396445 0.11441202 1.5795705e-38
0.96828777 -0.018896444 0.11441202 1.5336528e-38
0.96828777 -0.021396445 0.11941203 1.4785525e-38
0.96828777 -0.021396445 0.12191202 1.478552e-38
0.97078776 -0.021396445 0.12191202 1.4785518e-38
0.97078776 -0.018896444 0.12191202 1.4969186e-38
0.97328776 -0.018896444 0.11441202 1.4785515e-38
0.97328776 -0.018896444 0.11691202 1.4785526e-38
0.97578782 -0.021396445 0.11441202 1.4969191e-38
0.97578782 -0.018896444 0.11441202 1.4969187e-38
0.97328776 -0.018896444 0.11941203 1.4969204e-38
0.97328776 -0.018896444 0.12191202 1.5152857e-38
0.97578782 -0.018896444 0.11941203 1.4969186e-38
0.96828777 -0.026396444 0.12941203 1.6898505e-38
0.96828777 -0.026396444 0.13191202 1.5795718e-38
0.96828777 -0.023896445 0.12941203 1.8646922e-38
0.96828777 -0.023896445 0.13191202 1.7448774e-38
0.97078776 -0.026396444 0.12941203 1.5795726e-38
0.97078776 -0.023896445 0.12941203 1.8367836e-38
0.97078776 -0.023896445 0.13191202 1.7265152e-38
0.96828777 -0.021396445 0.12441202 1.5979376e-38
0.96828777 -0.021396445 0.12691203 1.671406e-38
0.97078776 -0.021396445 0.12441202 1.5795726e-38
0.97078776 -0.021396445 0.12691203 1.6530389e-38
0.97078776 -0.018896444 0.12441202 1.4510008e-38
0.97078776 -0.018896444 0.12691203 1.4326337e-38
0.96828777 -0.021396445 0.12941203 2.1130465e-38
0.96828777 -0.021396445 0.13191202 1.9757585e-38
0.97078776 -0.021396445 0.12941203 1.7816086e-38
0.97078776 -0.021396445 0.13191202 1.8757107e-38
0.97078776 -0.018896444 0.12941203 1.4969214e-38
0.97328776 -0.021396445 0.12691203 1.7724251e-38
0.97328776 -0.018896444 0.12691203 1.4877378e-38
0.97578782 -0.018896444 0.12441202 1.3958995e-38
0.97578782 -0.018896444 0.12691203 1.4877381e-38
0.97328776 -0.021396445 0.12941203 1.9219183e-38
0.97328776 -0.018896444 0.12941203 1.8196018e-38
0.97578782 -0.016396444 0.11441202 1.4877356e-38
0.97578782 -0.013896445 0.11441202 1.2215215e-38
0.97328776 -0.016396444 0.12191202 1.4601844e-38
0.97328776 -0.013896445 0.12191202 1.1489482e-38
0.97578782 -0.011396444 0.11441202 1.37829e-38
0.97078776 -0.016396444 0.12441202 1.4510008e-38
0.97078776 -0.016396444 0.12691203 1.4326337e-38
0.97328776 -0.016396444 0.12691203 1.5152872e-38
0.97578782 -0.016396444 0.12441202 1.4326337e-38
0.97578782 -0.016396444 0.12691203 1.4969214e-38
0.97578782 -0.013896445 0.12441202 1.2602697e-38
0.97328776 -0.016396444 0.12941203 1.672484e-38
0.97828782 -0.018896444 0.11691202 1.4877362e-38
0.98078781 -0.018896444 0.11441202 1.5061031e-38
0.97828782 -0.018896444 0.11941203 1.5244692e-38
0.97828782 -0.018896444 0.12191202 1.4418173e-38
0.98578781 -0.018896444 0.12191202 1.4877373e-38
0.97828782 -0.018896444 0.12441202 1.5061045e-38
0.97828782 -0.018896444 0.12691203 2.0030958e-38
0.98078781 -0.018896444 0.12441202 1.4969208e-38
0.97828782 -0.018896444 0.12941203 1.8119644e-38
0.97828782 -0.016396444 0.11691202 1.4877362e-38
0.97828782 -0.013896445 0.11691202 1.1485894e-38
0.98078781 -0.016396444 0.11441202 1.4785516e-38
0.98078781 -0.016396444 0.11691202 1.4877353e-38
0.98078781 -0.013896445 0.11441202 1.2307051e-38
0.98078781 -0.013896445 0.11691202 1.1853595e-38
0.97828782 -0.016396444 0.11941203 1.5152857e-38
0.97828782 -0.016396444 0.12191202 1.4601855e-38
0.97828782 -0.013896445 0.11941203 1.1671e-38
0.97828782 -0.013896445 0.12191202 1.2603419e-38
0.98078781 -0.016396444 0.11941203 1.4601844e-38
0.98078781 -0.016396444 0.12191202 1.4418173e-38
0.98078781 -0.013896445 0.11941203 1.1765707e-38
0.98078781 -0.013896445 0.12191202 1.2971123e-38
0.97828782 -0.011396444 0.11691202 1.3603175e-38
0.98078781 -0.011396444 0.11441202 1.4336421e-38
0.98078781 -0.011396444 0.11691202 1.3881892e-38
0.97828782 -0.011396444 0.11941203 1.3146467e-38
0.98328781 -0.013896445 0.11441202 1.1760324e-38
0.98578781 -0.013896445 0.11691202 1.102851e-38
0.98328781 -0.013896445 0.11941203 1.1675664e-38
0.98578781 -0.016396444 0.12191202 1.5061047e-38
0.98328781 -0.011396444 0.11441202 1.4064834e-38
0.98578781 -0.011396444 0.11691202 1.3425936e-38
0.98328781 -0.011396444 0.11941203 1.6101366e-38
0.97828782 -0.016396444 0.12441202 1.5244718e-38
0.98078781 -0.016396444 0.12441202 1.5244718e-38
0.98078781 -0.013896445 0.12441202 1.3713653e-38
0.98078781 -0.0063964445 0.069412023 1.6897731e-38
0.98078781 -0.0063964445 0.07191202 1.6622225e-38
0.98078781 -0.0038964443 0.069412023 1.6989567e-38
0.98078781 -0.0038964443 0.07191202 1.6622225e-38
0.97828782 -0.0013964444 0.07191202 1.7265073e-38
0.97828782 0.0011035556 0.07191202 1.7081402e-38
0.98078781 -0.0013964444 0.069412023 1.7448744e-38
0.98078781 -0.0013964444 0.07191202 1.6897731e-38
0.98078781 0.0011035556 0.069412023 1.754058e-38
0.98078781 0.0011035556 0.07191202 1.6897731e-38
0.97828782 0.0036035555 0.07191202 1.7081402e-38
0.97828782 0.0061035557 0.069412023 1.754058e-38
0.97828782 0.0061035557 0.07191202 1.7081402e-38
0.98078781 0.0036035555 0.069412023 1.754058e-38
0.98078781 0.0036035555 0.07191202 1.6897731e-38
0.98078781 0.0061035557 0.069412023 1.754058e-38
0.98078781 0.0061035557 0.07191202 1.671406e-38
0.97828782 0.0086035552 0.069412023 1.754058e-38
0.97828782 0.0086035552 0.07191202 1.7081402e-38
0.97828782 0.011103556 0.07191202 1.7081402e-38
0.98078781 0.0086035552 0.069412023 1.754058e-38
0.98078781 0.0086035552 0.07191202 1.6897731e-38
0.98078781 0.011103556 0.069412023 1.754058e-38
0.98078781 0.011103556 0.07191202 1.6622225e-38
0.97578782 0.0061035557 0.074412026 1.7081402e-38
0.97578782 0.0061035557 0.076912023 1.6438554e-38
0.97578782 0.0086035552 0.074412026 1.7081402e-38
0.97578782 0.0086035552 0.076912023 1.6438554e-38
0.97578782 0.011103556 0.076912023 1.6438554e-38
0.97328776 0.0061035557 0.091912024 1.6071212e-38
0.97578782 0.0036035555 0.089412026 1.5795705e-38
0.97578782 0.0061035557 0.089412026 1.5979376e-38
0.97328776 0.0086035552 0.091912024 1.5979376e-38
0.97328776 0.011103556 0.091912024 1.5979376e-38
0.97578782 0.0086035552 0.089412026 1.5979376e-38
0.97578782 0.011103556 0.089412026 1.5979376e-38
0.98078781 -0.0063964445 0.076912023 1.5979376e-38
0.98078781 -0.0063964445 0.081912026 1.5795705e-38
0.97828782 -0.0013964444 0.074412026 1.6897731e-38
0.97828782 0.0011035556 0.074412026 1.6897731e-38
0.98078781 -0.0013964444 0.074412026 1.6622225e-38
0.98078781 -0.0013964444 0.076912023 1.6071212e-38
0.98078781 0.0011035556 0.074412026 1.6438554e-38
0.98078781 0.0011035556 0.076912023 1.6254883e-38
0.98328781 -0.0063964445 0.074412026 1.6346718e-38
0.98328781 -0.0038964443 0.074412026 1.6438554e-38
0.98578781 -0.0063964445 0.076912023 1.5979376e-38
0.98578781 -0.0038964443 0.076912023 1.5979376e-38
0.98328781 -0.0063964445 0.079412021 1.5979376e-38
0.98328781 -0.0063964445 0.081912026 1.5520199e-38
0.98328781 -0.0038964443 0.079412021 1.5795705e-38
0.98328781 -0.0038964443 0.081912026 1.5520199e-38
0.98578781 -0.0063964445 0.079412021 1.570387e-38
0.98578781 -0.0038964443 0.079412021 1.570387e-38
0.98578781 -0.0038964443 0.081912026 1.5520199e-38
0.98328781 -0.0013964444 0.074412026 1.6622225e-38
0.98328781 0.0011035556 0.074412026 1.6438554e-38
0.98578781 -0.0013964444 0.076912023 1.5979376e-38
0.98578781 0.0011035556 0.076912023 1.6071212e-38
0.98328781 -0.0013964444 0.079412021 1.5795705e-38
0.98328781 -0.0013964444 0.081912026 1.5795705e-38
0.98328781 0.0011035556 0.079412021 1.5979376e-38
0.98328781 0.0011035556 0.081912026 1.5795705e-38
0.98578781 -0.0013964444 0.079412021 1.5795705e-38
0.98578781 -0.0013964444 0.081912026 1.5795705e-38
0.98578781 0.0011035556 0.081912026 1.5795705e-38
0.98078781 -0.0063964445 0.084412023 1.5520199e-38
0.98078781 -0.0063964445 0.086912021 1.5887541e-38
0.98078781 -0.0038964443 0.084412023 1.5795705e-38
0.97828782 -0.0063964445 0.091912024 1.5979376e-38
0.97828782 -0.0038964443 0.091912024 1.6071212e-38
0.98078781 -0.0063964445 0.089412026 1.570387e-38
0.98078781 -0.0063964445 0.091912024 1.5887541e-38
0.98078781 -0.0038964443 0.089412026 1.5795705e-38
0.98078781 -0.0038964443 0.091912024 1.5979376e-38
0.98078781 -0.0013964444 0.084412023 1.5979376e-38
0.98078781 -0.0013964444 0.086912021 1.5795705e-38
0.98078781 0.0011035556 0.086912021 1.5979376e-38
0.97828782 -0.0013964444 0.091912024 1.5979376e-38
0.97828782 0.0011035556 0.091912024 1.6254883e-38
0.98078781 -0.0013964444 0.089412026 1.5979376e-38
0.98078781 -0.0013964444 0.091912024 1.6071212e-38
0.98078781 0.0011035556 0.089412026 1.5979376e-38
0.98078781 0.0011035556 0.091912024 1.6254883e-38
0.98328781 -0.0063964445 0.086912021 1.5520199e-38
0.98328781 -0.0038964443 0.086912021 1.5795705e-38
0.98578781 -0.0038964443 0.084412023 1.5520199e-38
0.98328781 -0.0063964445 0.091912024 1.5520199e-38
0.98328781 -0.0038964443 0.091912024 1.5520199e-38
0.98578781 -0.0038964443 0.089412026 1.5979376e-38
0.98328781 -0.0013964444 0.086912021 1.5795705e-38
0.98328781 0.0011035556 0.086912021 1.5979376e-38
0.98578781 -0.0013964444 0.084412023 1.5795705e-38
0.98328781 -0.0013964444 0.091912024 1.5795705e-38
0.98328781 0.0011035556 0.091912024 1.5795705e-38
0.98578781 -0.0013964444 0.089412026 1.6071212e-38
0.98578781 -0.0013964444 0.091912024 1.570387e-38
0.97828782 0.0036035555 0.074412026 1.6897731e-38
0.97828782 0.0061035557 0.074412026 1.671406e-38
0.98078781 0.0036035555 0.074412026 1.6346718e-38
0.98078781 0.0036035555 0.076912023 1.6254883e-38
0.98078781 0.0061035557 0.074412026 1.6346718e-38
0.98078781 0.0061035557 0.076912023 1.6254883e-38
0.97828782 0.0061035557 0.079412021 1.6254883e-38
0.98078781 0.0036035555 0.081912026 1.5979376e-38
0.98078781 0.0061035557 0.081912026 1.5979376e-38
0.97828782 0.0086035552 0.074412026 1.671406e-38
0.97828782 0.011103556 0.074412026 1.6622225e-38
0.98078781 0.0086035552 0.074412026 1.6438554e-38
0.98078781 0.0086035552 0.076912023 1.6254883e-38
0.98078781 0.011103556 0.074412026 1.6346718e-38
0.98078781 0.011103556 0.076912023 1.6254883e-38
0.97828782 0.0086035552 0.079412021 1.6254883e-38
0.97828782 0.011103556 0.079412021 1.6254883e-38
0.98078781 0.0086035552 0.081912026 1.5979376e-38
0.98078781 0.011103556 0.081912026 1.5795705e-38
0.98328781 0.0036035555 0.074412026 1.6438554e-38
0.98328781 0.0061035557 0.074412026 1.6438554e-38
0.98578781 0.0036035555 0.076912023 1.5979376e-38
0.98578781 0.0061035557 0.076912023 1.6254883e-38
0.98328781 0.0036035555 0.079412021 1.5979376e-38
0.98328781 0.0036035555 0.081912026 1.5795705e-38
0.98328781 0.0061035557 0.079412021 1.5979376e-38
0.98328781 0.0061035557 0.081912026 1.570387e-38
0.98578781 0.0036035555 0.081912026 1.5795705e-38
0.98578781 0.0061035557 0.081912026 1.5979376e-38
0.98578781 0.0086035552 0.076912023 1.5979376e-38
0.98328781 0.0086035552 0.079412021 1.5979376e-38
0.98328781 0.0086035552 0.081912026 1.6071212e-38
0.98328781 0.011103556 0.079412021 1.6071212e-38
0.97828782 0.0061035557 0.086912021 1.570387e-38
0.98078781 0.0036035555 0.084412023 1.570387e-38
0.98078781 0.0036035555 0.086912021 1.5979376e-38
0.98078781 0.0061035557 0.084412023 1.5795705e-38
0.98078781 0.0061035557 0.086912021 1.5979376e-38
0.97828782 0.0036035555 0.091912024 1.6071212e-38
0.97828782 0.0061035557 0.091912024 1.5979376e-38
0.98078781 0.0036035555 0.089412026 1.5979376e-38
0.98078781 0.0036035555 0.091912024 1.6254883e-38
0.98078781 0.0061035557 0.089412026 1.5979376e-38
0.98078781 0.0061035557 0.091912024 1.6254883e-38
0.97828782 0.0086035552 0.086912021 1.5979376e-38
0.97828782 0.011103556 0.084412023 1.5979376e-38
0.97828782 0.011103556 0.086912021 1.5979376e-38
0.98078781 0.0086035552 0.084412023 1.5979376e-38
0.98078781 0.0086035552 0.086912021 1.6071212e-38
0.98078781 0.011103556 0.084412023 1.5979376e-38
0.98078781 0.011103556 0.086912021 1.6071212e-38
0.97828782 0.0086035552 0.091912024 1.6254883e-38
0.97828782 0.011103556 0.091912024 1.6254883e-38
0.98078781 0.0086035552 0.089412026 1.6071212e-38
0.98078781 0.0086035552 0.091912024 1.6438554e-38
0.98078781 0.011103556 0.089412026 1.6254883e-38
0.98078781 0.011103556 0.091912024 1.6438554e-38
0.98328781 0.0036035555 0.086912021 1.5979376e-38
0.98328781 0.0061035557 0.086912021 1.5979376e-38
0.98328781 0.011103556 0.091912024 1.6254883e-38
0.97578782 0.016103556 0.069412023 1.754058e-38
0.97578782 0.018603556 0.069412023 1.754058e-38
0.97578782 0.021103555 0.069412023 1.7632415e-38
0.96828777 0.031103555 0.069412023 1.7448744e-38
0.97078776 0.028603556 0.069412023 1.7632415e-38
0.97078776 0.031103555 0.069412023 1.754058e-38
0.97078776 0.031103555 0.07191202 1.7081402e-38
0.97328776 0.026103556 0.07191202 1.7081402e-38
0.97578782 0.023603555 0.069412023 1.7632415e-38
0.97578782 0.026103556 0.069412023 1.754058e-38
0.97328776 0.028603556 0.069412023 1.754058e-38
0.97328776 0.028603556 0.07191202 1.6989567e-38
0.97328776 0.031103555 0.069412023 1.7356909e-38
0.97578782 0.028603556 0.069412023 1.754058e-38
0.97578782 0.031103555 0.069412023 1.7265073e-38
0.97828782 0.013603556 0.07191202 1.7081402e-38
0.97828782 0.016103556 0.069412023 1.7265073e-38
0.97828782 0.016103556 0.07191202 1.7081402e-38
0.98078781 0.013603556 0.069412023 1.754058e-38
0.98078781 0.013603556 0.07191202 1.6622225e-38
0.98078781 0.016103556 0.069412023 1.754058e-38
0.98078781 0.016103556 0.07191202 1.6622225e-38
0.97828782 0.018603556 0.069412023 1.7265073e-38
0.97828782 0.018603556 0.07191202 1.6989567e-38
0.97828782 0.021103555 0.069412023 1.7265073e-38
0.97828782 0.021103555 0.07191202 1.6805896e-38
0.98078781 0.018603556 0.069412023 1.7265073e-38
0.98078781 0.018603556 0.07191202 1.6622225e-38
0.98078781 0.021103555 0.069412023 1.7265073e-38
0.98078781 0.021103555 0.07191202 1.6530389e-38
0.97828782 0.023603555 0.069412023 1.7081402e-38
0.97828782 0.023603555 0.07191202 1.6805896e-38
0.97828782 0.026103556 0.069412023 1.7081402e-38
0.98078781 0.023603555 0.069412023 1.7265073e-38
0.98078781 0.023603555 0.07191202 1.6622225e-38
0.97828782 0.028603556 0.069412023 1.6989567e-38
0.97578782 0.013603556 0.074412026 1.6989567e-38
0.97578782 0.013603556 0.076912023 1.6346718e-38
0.97578782 0.016103556 0.074412026 1.6897731e-38
0.97578782 0.016103556 0.076912023 1.6346718e-38
0.97578782 0.016103556 0.079412021 1.6254883e-38
0.97578782 0.016103556 0.081912026 1.5979376e-38
0.97578782 0.018603556 0.074412026 1.6897731e-38
0.97578782 0.018603556 0.076912023 1.6346718e-38
0.97578782 0.021103555 0.074412026 1.6622225e-38
0.97578782 0.021103555 0.076912023 1.6346718e-38
0.97578782 0.018603556 0.079412021 1.6254883e-38
0.97578782 0.018603556 0.081912026 1.5979376e-38
0.97578782 0.021103555 0.079412021 1.6254883e-38
0.97578782 0.021103555 0.081912026 1.5979376e-38
0.97578782 0.013603556 0.086912021 1.5979376e-38
0.97578782 0.016103556 0.086912021 1.5979376e-38
0.97578782 0.013603556 0.089412026 1.6254883e-38
0.97578782 0.016103556 0.089412026 1.6254883e-38
0.97328776 0.018603556 0.086912021 1.6254883e-38
0.97328776 0.021103555 0.086912021 1.6254883e-38
0.97578782 0.018603556 0.086912021 1.5979376e-38
0.97578782 0.021103555 0.086912021 1.6254883e-38
0.97328776 0.018603556 0.089412026 1.5979376e-38
0.97328776 0.018603556 0.091912024 1.570387e-38
0.97328776 0.021103555 0.089412026 1.6071212e-38
