# .PCD v0.7 - Point Cloud Data file format
VERSION 0.7
FIELDS x y z rgb
SIZE 4 4 4 4
TYPE F F F F
COUNT 1 1 1 1
WIDTH 990
HEIGHT 1
VIEWPOINT 0 0 0 1 0 0 0
POINTS 990
DATA ascii
0.91168064 -0.14672898 0.099218749 1.1877369e-38
0.91168064 -0.14672898 0.10171875 1.1229836e-38
0.91418064 -0.14922898 0.10171875 1.2246164e-38
0.91418064 -0.14672898 0.10171875 1.1138369e-38
0.91168064 -0.14922898 0.10421875 1.2890086e-38
0.91168064 -0.14922898 0.10671875 1.2704284e-38
0.91168064 -0.14672898 0.10421875 1.0768864e-38
0.91168064 -0.14672898 0.10671875 1.0585902e-38
0.91418064 -0.14922898 0.10671875 1.4172579e-38
0.91418064 -0.14672898 0.10421875 1.0952179e-38
0.91418064 -0.14672898 0.10671875 1.1869453e-38
0.91168064 -0.14422897 0.099218749 1.1601143e-38
0.91168064 -0.14172897 0.099218749 1.6119124e-38
0.91418064 -0.14422897 0.099218749 1.1510745e-38
0.91418064 -0.14422897 0.10171875 1.1229836e-38
0.91418064 -0.14172897 0.099218749 1.5014198e-38
0.91418064 -0.14172897 0.10171875 1.3167787e-38
0.91168064 -0.14422897 0.10671875 1.2153221e-38
0.91418064 -0.14422897 0.10421875 1.1229483e-38
0.91418064 -0.14422897 0.10671875 1.3805556e-38
0.91418064 -0.14172897 0.10421875 1.3627316e-38
0.90918064 -0.13922897 0.091718748 1.510063e-38
0.91168064 -0.13922897 0.091718748 1.399717e-38
0.91418064 -0.13922897 0.089218751 1.3809892e-38
0.91418064 -0.13922897 0.091718748 1.3904974e-38
0.91418064 -0.13672897 0.089218751 1.2249401e-38
0.91418064 -0.13672897 0.091718748 1.5106725e-38
0.91168064 -0.13922897 0.094218753 1.3261756e-38
0.91168064 -0.13922897 0.096718751 1.5931466e-38
0.91418064 -0.13922897 0.096718751 1.4548531e-38
0.91418064 -0.13672897 0.096718751 1.3994283e-38
0.91418064 -0.13422897 0.091718748 1.4735078e-38
0.91418064 -0.13422897 0.096718751 1.5563775e-38
0.91168064 -0.13922897 0.099218749 1.731405e-38
0.91418064 -0.13922897 0.099218749 1.5565557e-38
0.91418064 -0.13922897 0.10171875 1.3260333e-38
0.91418064 -0.13672897 0.099218749 1.5841082e-38
0.91418064 -0.13922897 0.10421875 1.3811339e-38
0.91418064 -0.13672897 0.10421875 1.3442903e-38
0.91418064 -0.13422897 0.099218749 1.5933278e-38
0.91418064 -0.13172898 0.10421875 1.1786623e-38
0.91668063 -0.14172897 0.089218751 1.4730419e-38
0.91668063 -0.14172897 0.094218753 1.5288617e-38
0.91668063 -0.14422897 0.099218749 1.1048357e-38
0.91668063 -0.14422897 0.10171875 1.1506441e-38
0.91668063 -0.14172897 0.099218749 1.3260333e-38
0.91668063 -0.14172897 0.10171875 1.3534747e-38
0.91668063 -0.14422897 0.10671875 1.3989593e-38
0.91668063 -0.14172897 0.10671875 1.8049802e-38
0.91668063 -0.13922897 0.089218751 1.3441834e-38
0.91668063 -0.13922897 0.091718748 1.2342693e-38
0.91668063 -0.13672897 0.089218751 1.1972816e-38
0.91668063 -0.13672897 0.091718748 1.4735072e-38
0.91918063 -0.13922897 0.091718748 1.4090074e-38
0.91918063 -0.13672897 0.089218751 1.3815636e-38
0.91918063 -0.13672897 0.091718748 1.4178673e-38
0.91668063 -0.13922897 0.094218753 1.4457062e-38
0.91668063 -0.13922897 0.096718751 1.6853424e-38
0.91668063 -0.13672897 0.094218753 1.3902087e-38
0.91668063 -0.13672897 0.096718751 1.6115874e-38
0.91918063 -0.13672897 0.094218753 1.5563419e-38
0.91668063 -0.13422897 0.089218751 1.3902794e-38
0.91668063 -0.13422897 0.091718748 1.4270866e-38
0.91668063 -0.13172898 0.089218751 1.3902794e-38
0.91668063 -0.13172898 0.091718748 1.3902443e-38
0.91918063 -0.13422897 0.089218751 1.3995007e-38
0.91918063 -0.13422897 0.091718748 1.3625879e-38
0.91918063 -0.13172898 0.089218751 1.3535436e-38
0.91918063 -0.13172898 0.091718748 1.3902106e-38
0.91668063 -0.13422897 0.094218753 1.4178673e-38
0.91668063 -0.13422897 0.096718751 1.5380445e-38
0.91668063 -0.13172898 0.096718751 1.5658103e-38
0.91918063 -0.13422897 0.094218753 1.5103147e-38
0.91918063 -0.13172898 0.094218753 1.5288249e-38
0.92168063 -0.13672897 0.091718748 1.3717341e-38
0.92168063 -0.13672897 0.096718751 1.5933281e-38
0.92168063 -0.13422897 0.091718748 1.3809539e-38
0.92168063 -0.13172898 0.091718748 1.3902812e-38
0.92168063 -0.13422897 0.096718751 1.6671183e-38
0.92168063 -0.13172898 0.094218753 1.5010233e-38
0.92168063 -0.13172898 0.096718751 1.5381163e-38
0.91668063 -0.13922897 0.099218749 1.2798985e-38
0.91668063 -0.13922897 0.10171875 1.3350731e-38
0.91668063 -0.13672897 0.099218749 1.3906053e-38
0.91668063 -0.13672897 0.10171875 1.3259958e-38
0.91918063 -0.13672897 0.099218749 1.3904977e-38
0.91668063 -0.13922897 0.10421875 1.4822967e-38
0.91668063 -0.13922897 0.10671875 1.7864685e-38
0.91668063 -0.13672897 0.10421875 1.3349267e-38
0.91668063 -0.13672897 0.10671875 1.5098816e-38
0.91918063 -0.13922897 0.10421875 1.7680662e-38
0.91918063 -0.13672897 0.10421875 1.5005548e-38
0.91918063 -0.13672897 0.10671875 1.8787733e-38
0.91668063 -0.13422897 0.099218749 1.5473377e-38
0.91668063 -0.13422897 0.10171875 1.35351e-38
0.91668063 -0.13172898 0.099218749 1.5841433e-38
0.91668063 -0.13172898 0.10171875 1.4274831e-38
0.91918063 -0.13422897 0.099218749 1.5841433e-38
0.91918063 -0.13172898 0.099218749 1.5933981e-38
0.91668063 -0.13422897 0.10421875 1.2704969e-38
0.91668063 -0.13422897 0.10671875 1.500662e-38
0.91668063 -0.13172898 0.10421875 1.1141609e-38
0.91668063 -0.13172898 0.10671875 1.4455983e-38
0.91918063 -0.13422897 0.10421875 1.500662e-38
0.91918063 -0.13422897 0.10671875 1.8605139e-38
0.91918063 -0.13172898 0.10421875 1.3349272e-38
0.91918063 -0.13172898 0.10671875 1.8328194e-38
0.92168063 -0.13172898 0.10671875 1.9799013e-38
0.91418064 -0.12922896 0.069218747 1.6900265e-38
0.91418064 -0.12922896 0.07421875 1.7082121e-38
0.91418064 -0.12922896 0.079218753 1.5612034e-38
0.91418064 -0.12922896 0.08171875 1.9143583e-38
0.91668063 -0.12922896 0.071718752 1.6992089e-38
0.91668063 -0.12672897 0.071718752 1.6991754e-38
0.91918063 -0.12922896 0.069218747 1.7081783e-38
0.91918063 -0.12922896 0.071718752 1.6991742e-38
0.91918063 -0.12672897 0.069218747 1.6532934e-38
0.91918063 -0.12672897 0.071718752 1.7176147e-38
0.91668063 -0.12922896 0.07421875 1.6898121e-38
0.91668063 -0.12922896 0.076718748 1.6622225e-38
0.91668063 -0.12672897 0.07421875 1.6899208e-38
0.91668063 -0.12672897 0.076718748 1.6254894e-38
0.91918063 -0.12922896 0.07421875 1.6714076e-38
0.91918063 -0.12922896 0.076718748 1.5520206e-38
0.91918063 -0.12672897 0.07421875 1.68059e-38
0.91918063 -0.12672897 0.076718748 1.570387e-38
0.91918063 -0.12422897 0.071718752 1.6992835e-38
0.91918063 -0.12172897 0.071718752 1.7176147e-38
0.91668063 -0.12422897 0.07421875 1.7083601e-38
0.91668063 -0.12422897 0.076718748 1.6899546e-38
0.91668063 -0.12172897 0.076718748 1.6901345e-38
0.91918063 -0.12422897 0.07421875 1.689919e-38
0.91918063 -0.12422897 0.076718748 1.6530402e-38
0.91918063 -0.12172897 0.07421875 1.708394e-38
0.91918063 -0.12172897 0.076718748 1.6898827e-38
0.92168063 -0.12922896 0.069218747 1.6624032e-38
0.92168063 -0.12672897 0.069218747 1.6897748e-38
0.92418063 -0.12672897 0.069218747 1.6715525e-38
0.92168063 -0.12672897 0.07421875 1.671406e-38
0.92168063 -0.12422897 0.069218747 1.6718019e-38
0.92168063 -0.12172897 0.069218747 1.6992835e-38
0.92418063 -0.12422897 0.069218747 1.7082137e-38
0.92418063 -0.12172897 0.069218747 1.7082152e-38
0.92418063 -0.12172897 0.071718752 1.689919e-38
0.92168063 -0.12422897 0.07421875 1.6898827e-38
0.92168063 -0.12172897 0.07421875 1.6898827e-38
0.92418063 -0.12172897 0.07421875 1.6899559e-38
0.91668063 -0.12922896 0.079218753 1.5336528e-38
0.91668063 -0.12922896 0.08171875 1.9889805e-38
0.91668063 -0.12672897 0.079218753 1.5887541e-38
0.91918063 -0.12922896 0.08171875 1.8507218e-38
0.91918063 -0.12672897 0.079218753 2.0051829e-38
0.91918063 -0.12672897 0.08171875 1.923893e-38
0.91668063 -0.12922896 0.084218748 1.4457447e-38
0.91668063 -0.12922896 0.086718753 1.3073074e-38
0.91668063 -0.12672897 0.084218748 1.6297372e-38
0.91668063 -0.12672897 0.086718753 1.5559787e-38
0.91918063 -0.12922896 0.084218748 1.2704661e-38
0.91918063 -0.12922896 0.086718753 1.2428054e-38
0.91918063 -0.12672897 0.084218748 1.482262e-38
0.91918063 -0.12672897 0.086718753 1.4915887e-38
0.91668063 -0.12422897 0.079218753 1.6346718e-38
0.91668063 -0.12172897 0.079218753 1.7082858e-38
0.91918063 -0.12422897 0.079218753 1.664202e-38
0.91918063 -0.12422897 0.08171875 1.8961984e-38
0.91918063 -0.12172897 0.079218753 1.7177203e-38
0.91918063 -0.12172897 0.08171875 1.6257042e-38
0.91668063 -0.12422897 0.086718753 1.7127473e-38
0.91918063 -0.12422897 0.084218748 2.1884587e-38
0.91918063 -0.12422897 0.086718753 1.6851996e-38
0.91918063 -0.12172897 0.084218748 1.5430894e-38
0.92168063 -0.12672897 0.079218753 1.877904e-38
0.92168063 -0.12672897 0.086718753 1.5005582e-38
0.92168063 -0.12422897 0.079218753 1.8594648e-38
0.92168063 -0.12172897 0.079218753 1.6165928e-38
0.92168063 -0.12172897 0.08171875 1.5521278e-38
0.92168063 -0.12422897 0.086718753 2.1702348e-38
0.92168063 -0.12172897 0.086718753 1.5248654e-38
0.92418063 -0.12172897 0.084218748 1.5338694e-38
0.91918063 -0.11922897 0.071718752 1.7176856e-38
0.91918063 -0.11922897 0.07421875 1.6993185e-38
0.91918063 -0.11922897 0.076718748 1.6992105e-38
0.92168063 -0.11922897 0.069218747 1.7176866e-38
0.92168063 -0.11672897 0.069218747 1.6903506e-38
0.92418063 -0.11922897 0.069218747 1.7176856e-38
0.92418063 -0.11922897 0.071718752 1.6901358e-38
0.92418063 -0.11672897 0.069218747 1.7086458e-38
0.92418063 -0.11672897 0.071718752 1.7177575e-38
0.92168063 -0.11922897 0.07421875 1.7176856e-38
0.92168063 -0.11922897 0.076718748 1.7267603e-38
0.92168063 -0.11672897 0.07421875 1.736125e-38
0.92168063 -0.11672897 0.076718748 1.7451658e-38
0.92418063 -0.11922897 0.07421875 1.7174701e-38
0.92418063 -0.11672897 0.07421875 1.7175781e-38
0.92168063 -0.11422897 0.069218747 1.6904231e-38
0.92418063 -0.11422897 0.071718752 1.71765e-38
0.92168063 -0.11422897 0.076718748 1.7175431e-38
0.92418063 -0.11422897 0.07421875 1.7175431e-38
0.92418063 -0.11172897 0.07421875 1.7179017e-38
0.91918063 -0.11922897 0.079218753 1.6531487e-38
0.91918063 -0.11922897 0.08171875 1.6715149e-38
0.91918063 -0.11922897 0.084218748 1.6347816e-38
0.92168063 -0.11922897 0.079218753 1.671443e-38
0.92168063 -0.11922897 0.08171875 1.7175781e-38
0.92168063 -0.11672897 0.079218753 1.7083604e-38
0.92168063 -0.11672897 0.08171875 1.7359465e-38
0.92418063 -0.11922897 0.079218753 1.6809148e-38
0.92418063 -0.11672897 0.079218753 1.6808442e-38
0.92168063 -0.11922897 0.086718753 1.6256695e-38
0.92418063 -0.11922897 0.084218748 1.7177575e-38
0.92418063 -0.11922897 0.086718753 1.6993158e-38
0.92418063 -0.11672897 0.084218748 1.71765e-38
0.92418063 -0.11672897 0.086718753 1.7359812e-38
0.92168063 -0.11422897 0.08171875 1.73616e-38
0.92418063 -0.11422897 0.079218753 1.7267995e-38
0.92418063 -0.11172897 0.079218753 1.7547431e-38
0.92418063 -0.11422897 0.084218748 1.71765e-38
0.92418063 -0.11422897 0.086718753 1.7359812e-38
0.92418063 -0.11172897 0.086718753 1.6810592e-38
0.91418064 -0.12922896 0.10421875 1.2796464e-38
0.91418064 -0.12672897 0.10421875 1.3810257e-38
0.91668063 -0.12922896 0.089218751 1.2888674e-38
0.91668063 -0.12922896 0.091718748 1.3352509e-38
0.91918063 -0.12922896 0.089218751 1.3164566e-38
0.91918063 -0.12922896 0.091718748 1.4643579e-38
0.91918063 -0.12672897 0.089218751 1.5650933e-38
0.91668063 -0.12922896 0.096718751 1.5287163e-38
0.91918063 -0.12922896 0.094218753 1.5288965e-38
0.91918063 -0.12422897 0.089218751 1.6480694e-38
0.91918063 -0.12172897 0.089218751 1.52476e-38
0.91918063 -0.12422897 0.094218753 1.6106885e-38
0.91918063 -0.12172897 0.094218753 2.0687124e-38
0.92168063 -0.12922896 0.091718748 1.5012361e-38
0.92168063 -0.12672897 0.091718748 1.6844101e-38
0.92168063 -0.12922896 0.094218753 1.5381161e-38
0.92168063 -0.12922896 0.096718751 1.5748504e-38
0.92168063 -0.12672897 0.094218753 1.6935929e-38
0.92168063 -0.12672897 0.096718751 1.7027749e-38
0.92418063 -0.12922896 0.094218753 1.5378642e-38
0.92418063 -0.12922896 0.096718751 1.5379364e-38
0.92418063 -0.12672897 0.094218753 1.7119948e-38
0.92418063 -0.12672897 0.096718751 1.7211795e-38
0.92168063 -0.12422897 0.091718748 1.6291286e-38
0.92168063 -0.12172897 0.091718748 1.5430894e-38
0.92418063 -0.12422897 0.089218751 2.1330694e-38
0.92418063 -0.12422897 0.091718748 2.1605133e-38
0.92418063 -0.12172897 0.089218751 1.5430174e-38
0.92418063 -0.12172897 0.091718748 1.5888998e-38
0.92168063 -0.12422897 0.094218753 1.629056e-38
0.92168063 -0.12422897 0.096718751 1.5738097e-38
0.92168063 -0.12172897 0.094218753 1.5615276e-38
0.92168063 -0.12172897 0.096718751 2.0503436e-38
0.92418063 -0.12422897 0.094218753 1.6290187e-38
0.92418063 -0.12422897 0.096718751 1.5828859e-38
0.92418063 -0.12172897 0.094218753 1.5431599e-38
0.92418063 -0.12172897 0.096718751 1.57986e-38
0.91668063 -0.12922896 0.10171875 1.5472616e-38
0.91668063 -0.12672897 0.10171875 1.5747419e-38
0.91918063 -0.12922896 0.099218749 1.6116561e-38
0.91918063 -0.12672897 0.099218749 1.8406394e-38
0.91668063 -0.12922896 0.10421875 1.3255625e-38
0.91668063 -0.12922896 0.10671875 1.3713726e-38
0.91668063 -0.12672897 0.10421875 1.4177583e-38
0.91668063 -0.12672897 0.10671875 1.4636043e-38
0.91918063 -0.12922896 0.10421875 1.399032e-38
0.91918063 -0.12922896 0.10671875 1.7774319e-38
0.91918063 -0.12672897 0.10421875 1.4911916e-38
0.91918063 -0.12672897 0.10671875 1.7774319e-38
0.91668063 -0.12422897 0.10171875 1.6101502e-38
0.91668063 -0.12172897 0.10171875 2.0590963e-38
0.91918063 -0.12422897 0.099218749 1.6104368e-38
0.91918063 -0.12172897 0.099218749 2.0867918e-38
0.91668063 -0.12422897 0.10421875 1.554831e-38
0.91668063 -0.12422897 0.10671875 1.6740382e-38
0.91668063 -0.12172897 0.10421875 1.9855914e-38
0.91668063 -0.12172897 0.10671875 1.8835999e-38
0.91918063 -0.12422897 0.10421875 1.6467379e-38
0.91918063 -0.12422897 0.10671875 1.6926203e-38
0.91918063 -0.12172897 0.10421875 2.003634e-38
0.91918063 -0.12172897 0.10671875 1.8743803e-38
0.92168063 -0.12922896 0.099218749 1.5196046e-38
0.92168063 -0.12922896 0.10171875 1.344289e-38
0.92168063 -0.12672897 0.099218749 1.886809e-38
0.92168063 -0.12672897 0.10171875 1.7205676e-38
0.92418063 -0.12672897 0.10171875 1.5826695e-38
0.92168063 -0.12922896 0.10671875 2.0532991e-38
0.92168063 -0.12672897 0.10421875 1.6744333e-38
0.92168063 -0.12672897 0.10671875 1.9427366e-38
0.92168063 -0.12422897 0.099218749 1.6195471e-38
0.92168063 -0.12422897 0.10171875 1.5824171e-38
0.92168063 -0.12172897 0.099218749 2.0868978e-38
0.92168063 -0.12172897 0.10171875 2.0406201e-38
0.92418063 -0.12422897 0.10171875 1.628408e-38
0.92418063 -0.12172897 0.10171875 2.0130706e-38
0.92168063 -0.12422897 0.10421875 1.6465944e-38
0.92168063 -0.12422897 0.10671875 1.6828262e-38
0.92168063 -0.12172897 0.10421875 1.985123e-38
0.92168063 -0.12172897 0.10671875 1.8740582e-38
0.91918063 -0.11922897 0.089218751 1.6165228e-38
0.92168063 -0.11922897 0.091718748 1.6438579e-38
0.92418063 -0.11922897 0.089218751 1.6439291e-38
0.92418063 -0.11922897 0.091718748 1.5888631e-38
0.92418063 -0.11672897 0.089218751 1.7177575e-38
0.92418063 -0.11672897 0.091718748 1.6901345e-38
0.92168063 -0.11922897 0.094218753 1.6071236e-38
0.92168063 -0.11672897 0.094218753 1.6900639e-38
0.92168063 -0.11672897 0.096718751 1.6991035e-38
0.92418063 -0.11922897 0.094218753 1.6254894e-38
0.92418063 -0.11922897 0.096718751 1.6622244e-38
0.92418063 -0.11672897 0.094218753 1.7176483e-38
0.92418063 -0.11672897 0.096718751 1.7266896e-38
0.92418063 -0.11422897 0.089218751 1.7177575e-38
0.92418063 -0.11422897 0.091718748 1.6901345e-38
0.92418063 -0.11172897 0.089218751 1.6903156e-38
0.92418063 -0.11172897 0.091718748 1.6995351e-38
0.92168063 -0.11422897 0.094218753 1.6901358e-38
0.92168063 -0.11172897 0.094218753 1.7085399e-38
0.92418063 -0.11422897 0.094218753 1.6992092e-38
0.92418063 -0.11422897 0.096718751 1.7175407e-38
0.92418063 -0.11172897 0.094218753 1.6808092e-38
0.92418063 -0.11172897 0.096718751 1.7083234e-38
0.91668063 -0.11922897 0.10171875 1.6438565e-38
0.91918063 -0.11922897 0.099218749 1.6163053e-38
0.91668063 -0.11922897 0.10421875 1.6438564e-38
0.91918063 -0.11922897 0.10421875 1.6622239e-38
0.91918063 -0.11922897 0.10671875 1.662225e-38
0.91918063 -0.11672897 0.10671875 1.6898489e-38
0.91918063 -0.11422897 0.10671875 1.6991739e-38
0.92168063 -0.11922897 0.099218749 1.6254895e-38
0.92168063 -0.11922897 0.10171875 1.6439288e-38
0.92168063 -0.11672897 0.099218749 1.7082152e-38
0.92418063 -0.11922897 0.10171875 1.6805901e-38
0.92418063 -0.11672897 0.10171875 1.7633161e-38
0.92168063 -0.11922897 0.10421875 1.6438565e-38
0.92168063 -0.11922897 0.10671875 1.6805906e-38
0.92168063 -0.11672897 0.10421875 1.7265454e-38
0.92168063 -0.11672897 0.10671875 1.6897743e-38
0.92418063 -0.11922897 0.10671875 1.6254901e-38
0.92418063 -0.11672897 0.10421875 1.6806629e-38
0.92418063 -0.11672897 0.10671875 1.6716581e-38
0.92168063 -0.11422897 0.099218749 1.6899546e-38
0.92418063 -0.11422897 0.10171875 1.7265097e-38
0.92418063 -0.11172897 0.10171875 1.6992105e-38
0.92168063 -0.11422897 0.10421875 1.7081423e-38
0.92168063 -0.11422897 0.10671875 1.6897748e-38
0.92168063 -0.11172897 0.10421875 1.6900265e-38
0.92418063 -0.11422897 0.10421875 1.6899175e-38
0.92418063 -0.11422897 0.10671875 1.6897748e-38
0.92418063 -0.11172897 0.10421875 1.7082858e-38
0.92418063 -0.11172897 0.10671875 1.6806294e-38
0.92668062 -0.11922897 0.069218747 1.6808442e-38
0.92668062 -0.11672897 0.069218747 1.6809162e-38
0.92918068 -0.11672897 0.071718752 1.6992105e-38
0.92668062 -0.11922897 0.07421875 1.7266896e-38
0.92668062 -0.11672897 0.07421875 1.7084304e-38
0.92668062 -0.11672897 0.076718748 1.7175781e-38
0.92668062 -0.11422897 0.069218747 1.7086458e-38
0.92668062 -0.11172897 0.069218747 1.6995351e-38
0.92918068 -0.11422897 0.069218747 1.726977e-38
0.92918068 -0.11422897 0.071718752 1.7085749e-38
0.92918068 -0.11172897 0.069218747 1.699606e-38
0.92918068 -0.11172897 0.071718752 1.7360541e-38
0.92668062 -0.11422897 0.07421875 1.7175431e-38
0.92668062 -0.11422897 0.076718748 1.717615e-38
0.92668062 -0.11172897 0.07421875 1.7179017e-38
0.92668062 -0.11172897 0.076718748 1.7268345e-38
0.92918068 -0.11422897 0.07421875 1.6994272e-38
0.92918068 -0.11172897 0.07421875 1.71765e-38
0.93168068 -0.11422897 0.076718748 1.7083954e-38
0.93168068 -0.11172897 0.076718748 1.7268345e-38
0.92668062 -0.11922897 0.08171875 1.7177575e-38
0.92668062 -0.11672897 0.08171875 1.7175781e-38
0.92918068 -0.11672897 0.079218753 1.6899559e-38
0.92668062 -0.11922897 0.084218748 1.6718016e-38
0.92668062 -0.11922897 0.086718753 1.7177922e-38
0.92668062 -0.11672897 0.084218748 1.67173e-38
0.92668062 -0.11672897 0.086718753 1.7086458e-38
0.92918068 -0.11922897 0.086718753 1.6808442e-38
0.92918068 -0.11672897 0.086718753 1.7083951e-38
0.92668062 -0.11422897 0.08171875 1.7177219e-38
0.92668062 -0.11172897 0.08171875 1.7361969e-38
0.92918068 -0.11422897 0.079218753 1.6992835e-38
0.92918068 -0.11422897 0.08171875 1.7360541e-38
0.92918068 -0.11172897 0.079218753 1.7361613e-38
0.92918068 -0.11172897 0.08171875 1.7360541e-38
0.92668062 -0.11422897 0.084218748 1.6717711e-38
0.92668062 -0.11422897 0.086718753 1.7178654e-38
0.92668062 -0.11172897 0.084218748 1.736308e-38
0.92668062 -0.11172897 0.086718753 1.6809891e-38
0.92918068 -0.11422897 0.086718753 1.7086102e-38
0.92918068 -0.11172897 0.086718753 1.7362688e-38
0.93168068 -0.11922897 0.084218748 1.6715875e-38
0.93168068 -0.11672897 0.084218748 1.6716246e-38
0.93418068 -0.11672897 0.086718753 1.6901345e-38
0.93168068 -0.11172897 0.08171875 1.7272639e-38
0.93168068 -0.11422897 0.084218748 1.6900639e-38
0.93168068 -0.11172897 0.084218748 1.7085414e-38
0.93418068 -0.11422897 0.086718753 1.6901345e-38
0.93418068 -0.11172897 0.086718753 1.6993203e-38
0.92668062 -0.12172897 0.091718748 1.5520572e-38
0.92668062 -0.12422897 0.094218753 2.1698402e-38
0.92668062 -0.12172897 0.094218753 1.58883e-38
0.92668062 -0.12172897 0.096718751 1.5521641e-38
0.92668062 -0.12172897 0.099218749 1.5889707e-38
0.92668062 -0.12172897 0.10171875 1.5979376e-38
0.92668062 -0.11922897 0.089218751 1.7176486e-38
0.92668062 -0.11922897 0.091718748 1.6714083e-38
0.92668062 -0.11672897 0.089218751 1.7269052e-38
0.92668062 -0.11672897 0.091718748 1.7265827e-38
0.92918068 -0.11922897 0.089218751 1.6808442e-38
0.92918068 -0.11922897 0.091718748 1.7082858e-38
0.92918068 -0.11672897 0.089218751 1.6718043e-38
0.92918068 -0.11672897 0.091718748 1.6716246e-38
0.92668062 -0.11922897 0.094218753 1.6622244e-38
0.92668062 -0.11922897 0.096718751 1.7082152e-38
0.92668062 -0.11672897 0.094218753 1.6991754e-38
0.92668062 -0.11672897 0.096718751 1.6623679e-38
0.92918068 -0.11672897 0.096718751 1.6992445e-38
0.92668062 -0.11422897 0.089218751 1.7083951e-38
0.92668062 -0.11422897 0.091718748 1.7175781e-38
0.92668062 -0.11172897 0.089218751 1.6995351e-38
0.92668062 -0.11172897 0.091718748 1.7085749e-38
0.92918068 -0.11422897 0.089218751 1.6900265e-38
0.92918068 -0.11422897 0.091718748 1.7082858e-38
0.92918068 -0.11172897 0.089218751 1.7085749e-38
0.92918068 -0.11172897 0.091718748 1.6900289e-38
0.92668062 -0.11422897 0.094218753 1.7083951e-38
0.92668062 -0.11422897 0.096718751 1.6900265e-38
0.92668062 -0.11172897 0.094218753 1.6718046e-38
0.92668062 -0.11172897 0.096718751 1.6808809e-38
0.92918068 -0.11422897 0.096718751 1.6900265e-38
0.92918068 -0.11172897 0.094218753 1.6810957e-38
0.92918068 -0.11172897 0.096718751 1.6717669e-38
0.92668062 -0.11922897 0.099218749 1.6897751e-38
0.92668062 -0.11922897 0.10171875 1.6438555e-38
0.92668062 -0.11672897 0.099218749 1.7265099e-38
0.92668062 -0.11672897 0.10171875 1.7174685e-38
0.92668062 -0.11672897 0.10421875 1.6714086e-38
0.92668062 -0.11672897 0.10671875 1.6438921e-38
0.92668062 -0.11422897 0.099218749 1.6990294e-38
0.92668062 -0.11422897 0.10171875 1.6533638e-38
0.92668062 -0.11172897 0.099218749 1.7176856e-38
0.92668062 -0.11172897 0.10171875 1.6899909e-38
0.92918068 -0.11422897 0.099218749 1.6899543e-38
0.92668062 -0.11422897 0.10421875 1.6531837e-38
0.92668062 -0.11422897 0.10671875 1.6438935e-38
0.92668062 -0.11172897 0.10421875 1.6806641e-38
0.92668062 -0.11172897 0.10671875 1.6349253e-38
0.92918068 -0.11422897 0.10421875 1.6531837e-38
0.92918068 -0.11172897 0.10421875 1.6531131e-38
0.92918068 -0.10922897 0.06671875 1.6447926e-38
0.93168068 -0.10922897 0.06671875 1.6904225e-38
0.93168068 -0.10672897 0.06671875 1.6450751e-38
0.94168067 -0.10422897 0.06671875 1.8122543e-38
0.92418063 -0.10922897 0.07421875 1.7180468e-38
0.92418063 -0.10922897 0.091718748 1.8097365e-38
0.92418063 -0.10922897 0.096718751 1.7544925e-38
0.91668063 -0.10422897 0.10421875 1.0937418e-38
0.91668063 -0.10172897 0.10421875 1.932722e-38
0.91918063 -0.10422897 0.10421875 1.0478232e-38
0.91918063 -0.10422897 0.10671875 1.0019086e-38
0.91918063 -0.10172897 0.10421875 1.9236817e-38
0.91918063 -0.10172897 0.10671875 1.9699628e-38
0.92418063 -0.10922897 0.10171875 1.7176856e-38
0.92418063 -0.10922897 0.10421875 1.6900265e-38
0.92418063 -0.10922897 0.10671875 1.6899556e-38
0.92418063 -0.10672897 0.10421875 1.5979376e-38
0.92168063 -0.10422897 0.10171875 1.0477879e-38
0.92418063 -0.10172897 0.10171875 1.9711487e-38
0.92168063 -0.10422897 0.10421875 1.0477879e-38
0.92168063 -0.10172897 0.10421875 2.0357595e-38
0.92418063 -0.10422897 0.10421875 1.001837e-38
0.92418063 -0.10422897 0.10671875 1.0020493e-38
0.92418063 -0.10172897 0.10421875 2.0265755e-38
0.92418063 -0.10172897 0.10671875 2.0543397e-38
0.92418063 -0.099228971 0.10171875 2.238516e-38
0.92168063 -0.099228971 0.10421875 2.2846877e-38
0.92418063 -0.099228971 0.10421875 2.2939428e-38
0.92418063 -0.099228971 0.10671875 2.2755735e-38
0.92918068 -0.10922897 0.069218747 1.6631238e-38
0.92918068 -0.10922897 0.071718752 1.7363763e-38
0.92918068 -0.10672897 0.071718752 1.6996077e-38
0.92668062 -0.10922897 0.07421875 1.7638923e-38
0.92668062 -0.10922897 0.076718748 1.8097367e-38
0.92668062 -0.10672897 0.07421875 1.6717669e-38
0.92668062 -0.10672897 0.076718748 1.6622236e-38
0.92918068 -0.10922897 0.07421875 1.7822223e-38
0.92918068 -0.10672897 0.07421875 1.6901358e-38
0.93168068 -0.10922897 0.071718752 1.6536911e-38
0.93168068 -0.10672897 0.071718752 1.4981383e-38
0.93418068 -0.10672897 0.069218747 1.5351595e-38
0.93168068 -0.10922897 0.07421875 1.6163793e-38
0.93168068 -0.10922897 0.076718748 1.7820426e-38
0.93168068 -0.10672897 0.07421875 1.3053967e-38
0.93168068 -0.10672897 0.076718748 1.6438559e-38
0.93418068 -0.10672897 0.07421875 1.2040165e-38
0.92668062 -0.10922897 0.08171875 1.7912253e-38
0.92668062 -0.10672897 0.08171875 1.6530395e-38
0.92918068 -0.10922897 0.079218753 1.8004449e-38
0.92918068 -0.10922897 0.08171875 1.8373947e-38
0.92918068 -0.10672897 0.079218753 1.6622232e-38
0.92918068 -0.10672897 0.08171875 1.6254884e-38
0.92668062 -0.10922897 0.084218748 1.8279608e-38
0.92668062 -0.10922897 0.086718753 1.8465427e-38
0.92668062 -0.10672897 0.084218748 1.6438565e-38
0.92918068 -0.10922897 0.086718753 1.8373594e-38
0.92918068 -0.10672897 0.086718753 1.6530395e-38
0.93168068 -0.10922897 0.079218753 1.7912622e-38
0.93168068 -0.10922897 0.08171875 1.8280677e-38
0.93168068 -0.10672897 0.079218753 1.6254895e-38
0.93168068 -0.10672897 0.08171875 1.1304383e-38
0.93418068 -0.10672897 0.08171875 1.6346718e-38
0.93168068 -0.10922897 0.084218748 1.8097017e-38
0.93168068 -0.10672897 0.084218748 1.1488424e-38
0.93418068 -0.10922897 0.086718753 1.7820426e-38
0.93418068 -0.10672897 0.086718753 1.6254895e-38
0.92668062 -0.10922897 0.089218751 1.8373231e-38
0.92668062 -0.10922897 0.091718748 1.8372875e-38
0.92668062 -0.10672897 0.089218751 1.6438558e-38
0.92668062 -0.10672897 0.091718748 1.6530396e-38
0.92918068 -0.10922897 0.089218751 1.7727872e-38
0.92918068 -0.10922897 0.091718748 1.8003019e-38
0.92918068 -0.10672897 0.089218751 1.6438558e-38
0.92918068 -0.10672897 0.091718748 1.1213644e-38
0.92668062 -0.10922897 0.094218753 1.8095565e-38
0.92668062 -0.10922897 0.096718751 1.7912601e-38
0.92668062 -0.10672897 0.094218753 1.6622229e-38
0.92668062 -0.10672897 0.096718751 1.6254883e-38
0.92918068 -0.10922897 0.094218753 1.7732528e-38
0.92918068 -0.10922897 0.096718751 1.7817904e-38
0.92918068 -0.10672897 0.094218753 1.1030332e-38
0.92918068 -0.10672897 0.096718751 1.6071212e-38
0.92668062 -0.10422897 0.094218753 1.1674254e-38
0.92668062 -0.10422897 0.096718751 1.0384963e-38
0.92668062 -0.10172897 0.096718751 1.9066115e-38
0.92918068 -0.10422897 0.096718751 1.0845941e-38
0.92918068 -0.10172897 0.096718751 1.980368e-38
0.93168068 -0.10922897 0.091718748 1.7176503e-38
0.93168068 -0.10672897 0.091718748 1.6254884e-38
0.93168068 -0.10922897 0.094218753 1.7637824e-38
0.93168068 -0.10922897 0.096718751 1.6901338e-38
0.93168068 -0.10672897 0.094218753 1.0844137e-38
0.93168068 -0.10672897 0.096718751 1.0017256e-38
0.93418068 -0.10672897 0.094218753 1.0292767e-38
0.93168068 -0.10422897 0.091718748 1.9326491e-38
0.93418068 -0.10422897 0.089218751 1.9049557e-38
0.93168068 -0.10422897 0.094218753 1.941869e-38
0.93168068 -0.10422897 0.096718751 1.9327939e-38
0.93418068 -0.10422897 0.094218753 1.9327936e-38
0.93418068 -0.10172897 0.094218753 1.9526372e-38
0.92668062 -0.10922897 0.099218749 1.7820055e-38
0.92668062 -0.10922897 0.10171875 1.8094849e-38
0.92668062 -0.10672897 0.099218749 1.6346718e-38
0.92668062 -0.10672897 0.10171875 1.6163047e-38
0.92918068 -0.10922897 0.099218749 1.7820423e-38
0.92918068 -0.10672897 0.099218749 1.5612034e-38
0.92668062 -0.10922897 0.10421875 1.6714098e-38
0.92668062 -0.10922897 0.10671875 1.6531837e-38
0.92668062 -0.10672897 0.10421875 1.5795712e-38
0.92668062 -0.10672897 0.10671875 1.5979414e-38
0.92918068 -0.10922897 0.10421875 1.7451265e-38
0.92918068 -0.10672897 0.10421875 1.5795712e-38
0.92668062 -0.10422897 0.099218749 1.0385316e-38
0.92668062 -0.10422897 0.10171875 1.0754471e-38
0.92668062 -0.10172897 0.099218749 1.9250506e-38
0.92668062 -0.10172897 0.10171875 1.9895878e-38
0.92918068 -0.10422897 0.099218749 1.0109455e-38
0.92918068 -0.10172897 0.099218749 1.9618935e-38
0.92668062 -0.10422897 0.10421875 1.0572592e-38
0.92668062 -0.10422897 0.10671875 1.1214758e-38
0.92668062 -0.10172897 0.10421875 2.0636327e-38
0.92668062 -0.10172897 0.10671875 1.6208426e-38
0.92918068 -0.10422897 0.10421875 9.8368308e-39
0.92918068 -0.10172897 0.10421875 2.0360804e-38
0.93168068 -0.10672897 0.10171875 1.5612034e-38
0.93168068 -0.10422897 0.10171875 1.0110566e-38
0.93168068 -0.10172897 0.10171875 2.0634186e-38
0.93168068 -0.10422897 0.10421875 1.0938532e-38
0.93168068 -0.10422897 0.10671875 1.545491e-38
0.93168068 -0.10172897 0.10671875 1.2610593e-38
0.93418068 -0.10422897 0.10671875 1.287096e-38
0.92668062 -0.099228971 0.10171875 2.2848312e-38
0.92918068 -0.099228971 0.099218749 2.2292606e-38
0.92668062 -0.099228971 0.10421875 2.2572435e-38
0.92668062 -0.099228971 0.10671875 1.6117672e-38
0.92668062 -0.096728973 0.10671875 1.5288965e-38
0.92918068 -0.099228971 0.10421875 2.2573139e-38
0.92918068 -0.096728973 0.10421875 1.5010936e-38
0.93168068 -0.099228971 0.10171875 2.2754684e-38
0.93168068 -0.099228971 0.10421875 1.5287163e-38
0.93168068 -0.099228971 0.10671875 1.1965224e-38
0.93418068 -0.099228971 0.10671875 1.1136204e-38
0.93668067 -0.10422897 0.089218751 1.9050626e-38
0.93668067 -0.10172897 0.089218751 1.9156158e-38
0.93668067 -0.10172897 0.091718748 1.9525654e-38
0.94418067 -0.096728973 0.099218749 1.4826543e-38
0.94668067 -0.10172897 0.10171875 1.0306085e-38
0.94918066 -0.10172897 0.10171875 1.1138032e-38
0.94668067 -0.10172897 0.10421875 1.0493369e-38
0.94918066 -0.10172897 0.10421875 1.1138382e-38
0.94668067 -0.099228971 0.10171875 9.0225516e-39
0.94918066 -0.096728973 0.099218749 9.1147473e-39
0.94668067 -0.099228971 0.10421875 9.761581e-39
0.94668067 -0.096728973 0.10421875 9.761581e-39
0.94918066 -0.099228971 0.10421875 9.9463254e-39
0.94918066 -0.096728973 0.10421875 9.9463254e-39
1.0391806 -0.14922898 0.07421875 1.7632429e-38
1.0391806 -0.14922898 0.076718748 1.6805896e-38
1.0391806 -0.14672898 0.07421875 1.790865e-38
1.0391806 -0.14672898 0.076718748 1.6989578e-38
1.0441806 -0.14922898 0.071718752 1.8278164e-38
1.0416807 -0.14922898 0.07421875 1.8184149e-38
1.0416807 -0.14672898 0.07421875 1.8278164e-38
1.0441806 -0.14922898 0.07421875 1.6989579e-38
1.0441806 -0.14922898 0.076718748 1.4510008e-38
1.0441806 -0.14672898 0.07421875 1.7081402e-38
1.0441806 -0.14672898 0.076718748 1.4969186e-38
1.0416807 -0.14922898 0.079218753 1.4326337e-38
1.0416807 -0.14672898 0.079218753 1.5061021e-38
1.0491806 -0.14922898 0.071718752 1.68059e-38
1.0466807 -0.14922898 0.076718748 1.4510008e-38
1.0541806 -0.14922898 0.071718752 1.5061021e-38
1.0516807 -0.14922898 0.07421875 1.4510008e-38
1.0516807 -0.14922898 0.076718748 1.4785518e-38
1.0541806 -0.14922898 0.076718748 1.4693679e-38
1.0466807 -0.14922898 0.079218753 1.4969186e-38
1.0466807 -0.14922898 0.08171875 1.487735e-38
1.0466807 -0.14672898 0.079218753 1.5244692e-38
1.0466807 -0.14672898 0.08171875 1.5152857e-38
1.0491806 -0.14922898 0.084218748 1.487735e-38
1.0491806 -0.14672898 0.084218748 1.5152857e-38
1.0516807 -0.14922898 0.08171875 1.4969186e-38
1.0541806 -0.14922898 0.079218753 1.4785515e-38
1.0541806 -0.14922898 0.08171875 1.487735e-38
1.0516807 -0.14922898 0.084218748 1.4969186e-38
1.0541806 -0.14922898 0.086718753 1.4969186e-38
1.0566807 -0.14922898 0.07421875 1.4969186e-38
1.0566807 -0.14922898 0.076718748 1.5244692e-38
1.0566807 -0.14922898 0.08171875 1.4969186e-38
1.0566807 -0.14922898 0.084218748 1.4969186e-38
1.0466807 -0.14922898 0.096718751 1.4969186e-38
1.0516807 -0.14922898 0.094218753 1.487735e-38
1.0516807 -0.14922898 0.096718751 1.5152857e-38
1.0516807 -0.14672898 0.094218753 1.5152857e-38
1.0516807 -0.14672898 0.096718751 1.5152857e-38
1.0491806 -0.14922898 0.099218749 1.5244692e-38
1.0541806 -0.14922898 0.099218749 1.5336528e-38
1.0541806 -0.14922898 0.10171875 1.5336528e-38
1.0566807 -0.14922898 0.096718751 1.5336528e-38
1.0566807 -0.14672898 0.096718751 1.5244692e-38
1.0566807 -0.14922898 0.10171875 1.5336528e-38
1.0591806 -0.14922898 0.099218749 1.5152862e-38
1.0591806 -0.14922898 0.10171875 1.5336528e-38
1.0591806 -0.14672898 0.099218749 1.5520199e-38
1.0566807 -0.14922898 0.10421875 1.5428363e-38
1.0566807 -0.14922898 0.10671875 1.5336528e-38
1.0591806 -0.14922898 0.10671875 1.5244692e-38
1.0591806 -0.14672898 0.10671875 1.4693698e-38
1.0616807 -0.14922898 0.10421875 1.5428363e-38
1.0616807 -0.14922898 0.10671875 1.5336528e-38
0.87168068 -0.21422897 0.10921875 1.876791e-38
0.87168068 -0.21172898 0.10921875 1.932003e-38
0.87418067 -0.21422897 0.10921875 1.8586055e-38
0.87418067 -0.21422897 0.11171875 1.8955193e-38
0.87418067 -0.21172898 0.10921875 1.9044519e-38
0.87418067 -0.21172898 0.11171875 2.0146546e-38
0.87668067 -0.21672897 0.10921875 1.6649947e-38
0.87668067 -0.21422897 0.11171875 1.8771892e-38
0.87668067 -0.21172898 0.11171875 2.0420982e-38
0.88168067 -0.21172898 0.11171875 2.0789043e-38
0.87918067 -0.21172898 0.12671874 2.1141265e-38
0.88418067 -0.21172898 0.12171875 2.2250505e-38
0.88168067 -0.21422897 0.12421875 1.8130504e-38
0.88168067 -0.21422897 0.12671874 1.8865147e-38
0.88168067 -0.21172898 0.12421875 2.2251578e-38
0.88168067 -0.21172898 0.12671874 2.1324568e-38
0.88418067 -0.21422897 0.12671874 1.8865516e-38
0.88418067 -0.21172898 0.12671874 2.1418947e-38
0.87668067 -0.21172898 0.13171875 1.5244719e-38
0.87918067 -0.21172898 0.12921876 1.616305e-38
0.87918067 -0.21172898 0.13171875 1.4969186e-38
0.88168067 -0.21172898 0.13171875 1.6254883e-38
0.88418067 -0.21422897 0.12921876 1.5152857e-38
0.88418067 -0.21172898 0.12921876 1.5795705e-38
0.87668067 -0.20922898 0.10921875 1.7292442e-38
0.87918067 -0.20922898 0.10921875 1.9020749e-38
0.87918067 -0.20922898 0.11171875 1.7194495e-38
0.88168067 -0.20922898 0.10921875 1.7729304e-38
0.88168067 -0.20922898 0.11171875 1.7638533e-38
0.88418067 -0.20922898 0.10921875 1.6071217e-38
0.88418067 -0.20922898 0.11171875 1.5703882e-38
0.88418067 -0.20672897 0.11671875 1.5979389e-38
0.88418067 -0.20422897 0.11671875 1.5979389e-38
0.88418067 -0.20172897 0.11671875 1.5979381e-38
0.87918067 -0.20922898 0.12671874 1.5336528e-38
0.87918067 -0.20672897 0.12671874 1.5612034e-38
0.87918067 -0.20422897 0.12671874 1.5795707e-38
0.87918067 -0.20172897 0.12671874 1.5520199e-38
0.88418067 -0.20922898 0.12171875 1.4418173e-38
0.88418067 -0.20672897 0.12171875 1.5612046e-38
0.88168067 -0.20922898 0.12421875 1.4785525e-38
0.88168067 -0.20922898 0.12671874 1.5244708e-38
0.88168067 -0.20672897 0.12421875 1.5612037e-38
0.88168067 -0.20672897 0.12671874 1.5795715e-38
0.88418067 -0.20922898 0.12671874 1.5336531e-38
0.88418067 -0.20672897 0.12671874 1.5612034e-38
0.88418067 -0.20422897 0.12171875 1.5887541e-38
0.88418067 -0.20172897 0.12171875 1.5428363e-38
0.88168067 -0.20422897 0.12421875 1.5612034e-38
0.88168067 -0.20422897 0.12671874 1.5887541e-38
0.88168067 -0.20172897 0.12421875 1.5612034e-38
0.88168067 -0.20172897 0.12671874 1.5612034e-38
0.88418067 -0.20422897 0.12671874 1.5612039e-38
0.88418067 -0.20172897 0.12671874 1.5520199e-38
0.88418067 -0.19922897 0.11671875 1.5979376e-38
0.88418067 -0.19672897 0.11671875 1.5887541e-38
0.88168067 -0.19922897 0.11921875 1.5703875e-38
0.88168067 -0.19922897 0.12171875 1.5612034e-38
0.88168067 -0.19672897 0.11921875 1.5703875e-38
0.88168067 -0.19672897 0.12171875 1.5152857e-38
0.88418067 -0.19922897 0.11921875 1.5428368e-38
0.88418067 -0.19922897 0.12171875 1.5520199e-38
0.88418067 -0.19672897 0.11921875 1.5244695e-38
0.88418067 -0.19672897 0.12171875 1.5336529e-38
0.88168067 -0.19922897 0.12421875 1.5428365e-38
0.88168067 -0.19922897 0.12671874 1.5520199e-38
0.88168067 -0.19672897 0.12421875 1.5061042e-38
0.88168067 -0.19672897 0.12671874 1.5244692e-38
0.88418067 -0.19922897 0.12671874 1.5612034e-38
0.88418067 -0.19672897 0.12671874 1.5428365e-38
0.88418067 -0.19422898 0.12171875 1.5152857e-38
0.88168067 -0.19422898 0.12421875 1.487735e-38
0.88168067 -0.19172896 0.12421875 1.4969186e-38
0.88418067 -0.19422898 0.12671874 1.5336528e-38
0.88418067 -0.19172896 0.12671874 1.5336529e-38
0.87418067 -0.20922898 0.13171875 1.6346718e-38
0.87418067 -0.20672897 0.13171875 1.5795705e-38
0.87418067 -0.20922898 0.13421875 1.5887541e-38
0.87418067 -0.20922898 0.13671875 1.6622225e-38
0.87418067 -0.20672897 0.13421875 1.6438554e-38
0.87418067 -0.20672897 0.13671875 1.671406e-38
0.87418067 -0.20422897 0.13421875 1.6163047e-38
0.87668067 -0.20922898 0.13171875 1.6254883e-38
0.87668067 -0.20672897 0.13171875 1.6071212e-38
0.87918067 -0.20922898 0.12921876 1.616305e-38
0.87918067 -0.20922898 0.13171875 1.6530391e-38
0.87918067 -0.20672897 0.12921876 1.5795705e-38
0.87918067 -0.20672897 0.13171875 1.6346718e-38
0.87668067 -0.20922898 0.13421875 1.6163047e-38
0.87668067 -0.20922898 0.13671875 1.7356909e-38
0.87668067 -0.20672897 0.13421875 1.6163047e-38
0.87668067 -0.20672897 0.13671875 1.7173238e-38
0.87918067 -0.20922898 0.13421875 1.6530389e-38
0.87918067 -0.20672897 0.13421875 1.6071215e-38
0.87668067 -0.20422897 0.13171875 1.6163047e-38
0.87918067 -0.20422897 0.12921876 1.5612034e-38
0.87918067 -0.20422897 0.13171875 1.6438554e-38
0.87918067 -0.20172897 0.12921876 1.5795705e-38
0.87918067 -0.20172897 0.13171875 1.6163047e-38
0.87668067 -0.20422897 0.13421875 1.6346718e-38
0.87668067 -0.20422897 0.13671875 1.7173238e-38
0.87668067 -0.20172897 0.13421875 1.5979376e-38
0.87668067 -0.20172897 0.13671875 1.7173238e-38
0.87918067 -0.20422897 0.13421875 1.7173238e-38
0.87918067 -0.20172897 0.13421875 1.6163047e-38
0.87918067 -0.20172897 0.13671875 1.8734473e-38
0.88168067 -0.20922898 0.13171875 1.634672e-38
0.88168067 -0.20672897 0.13171875 1.6438561e-38
0.88418067 -0.20922898 0.12921876 1.6071212e-38
0.88418067 -0.20672897 0.12921876 1.6438554e-38
0.88418067 -0.20672897 0.13171875 1.6438554e-38
0.88168067 -0.20672897 0.13421875 1.7265073e-38
0.88168067 -0.20672897 0.13671875 1.8367119e-38
0.88418067 -0.20672897 0.13421875 1.7907941e-38
0.88168067 -0.20422897 0.13171875 1.6163047e-38
0.88168067 -0.20172897 0.13171875 1.6163047e-38
0.88418067 -0.20422897 0.12921876 1.6530389e-38
0.88418067 -0.20422897 0.13171875 1.6254883e-38
0.88418067 -0.20172897 0.12921876 1.6530389e-38
0.88418067 -0.20172897 0.13171875 1.6254883e-38
0.88168067 -0.20422897 0.13421875 1.7173238e-38
0.88168067 -0.20172897 0.13421875 1.7081402e-38
0.88418067 -0.20422897 0.13421875 1.8642611e-38
0.88418067 -0.20422897 0.13671875 1.8002268e-38
0.88418067 -0.20172897 0.13421875 1.8367102e-38
0.88418067 -0.20172897 0.13671875 1.7449103e-38
0.87918067 -0.19922897 0.13171875 1.5979376e-38
0.87668067 -0.19922897 0.13421875 1.6163047e-38
0.87668067 -0.19922897 0.13671875 1.7265073e-38
0.87918067 -0.19922897 0.13421875 1.6071212e-38
0.87918067 -0.19922897 0.13671875 1.8550788e-38
0.88168067 -0.19922897 0.13171875 1.5795705e-38
0.88168067 -0.19672897 0.13171875 1.5520199e-38
0.88418067 -0.19922897 0.12921876 1.634672e-38
0.88418067 -0.19922897 0.13171875 1.5887541e-38
0.88418067 -0.19672897 0.12921876 1.5887541e-38
0.88418067 -0.19672897 0.13171875 1.5520199e-38
0.88168067 -0.19922897 0.13421875 1.6897731e-38
0.88168067 -0.19672897 0.13421875 1.6897731e-38
0.88418067 -0.19922897 0.13421875 1.8736994e-38
0.88418067 -0.19672897 0.13421875 1.8643702e-38
0.88418067 -0.19422898 0.12921876 1.5520221e-38
0.88418067 -0.19422898 0.13171875 1.5887541e-38
0.88418067 -0.19172896 0.12921876 1.5612058e-38
0.88418067 -0.19172896 0.13171875 1.6530389e-38
0.88918066 -0.21672897 0.11421875 1.9141752e-38
0.88918066 -0.21672897 0.11671875 1.8958805e-38
0.88668066 -0.21422897 0.10921875 2.032772e-38
0.88668066 -0.21422897 0.11171875 2.1890702e-38
0.88668066 -0.21172898 0.10921875 1.7008678e-38
0.88668066 -0.21172898 0.11171875 1.645116e-38
0.88918066 -0.21422897 0.10921875 2.1063134e-38
0.88918066 -0.21422897 0.11171875 2.2076518e-38
0.88918066 -0.21172898 0.10921875 1.6637702e-38
0.88918066 -0.21172898 0.11171875 1.6268195e-38
0.88668066 -0.21422897 0.11421875 2.2348809e-38
0.88668066 -0.21172898 0.11421875 1.6079866e-38
0.88918066 -0.21422897 0.11421875 2.2351661e-38
0.88918066 -0.21422897 0.11671875 1.9143542e-38
0.88918066 -0.21172898 0.11421875 1.5898327e-38
0.88918066 -0.21172898 0.11671875 1.5524888e-38
0.89418066 -0.21922897 0.11171875 1.8316311e-38
0.89418066 -0.21672897 0.11171875 1.8684734e-38
0.89168066 -0.21922897 0.11671875 1.8682567e-38
0.89168066 -0.21672897 0.11421875 1.9143192e-38
0.89168066 -0.21672897 0.11671875 1.8592539e-38
0.89418066 -0.21672897 0.11421875 1.8682216e-38
0.89418066 -0.21672897 0.11671875 1.8774762e-38
0.89168066 -0.21422897 0.11171875 2.1431913e-38
0.89168066 -0.21172898 0.11171875 1.5520199e-38
0.89418066 -0.21172898 0.10921875 1.6268914e-38
0.89168066 -0.21422897 0.11421875 1.8867684e-38
0.89168066 -0.21422897 0.11671875 1.8866607e-38
0.89168066 -0.21172898 0.11421875 1.5710708e-38
0.89168066 -0.21172898 0.11671875 1.5061045e-38
0.88918066 -0.21672897 0.11921875 1.9235019e-38
0.88668066 -0.21172898 0.11921875 2.1975363e-38
0.88918066 -0.21422897 0.11921875 2.2251228e-38
0.88918066 -0.21422897 0.12171875 1.8591832e-38
0.88918066 -0.21172898 0.11921875 1.4969207e-38
0.88918066 -0.21172898 0.12171875 1.4785518e-38
0.88668066 -0.21422897 0.12421875 1.9048813e-38
0.88668066 -0.21422897 0.12671874 1.5520206e-38
0.88668066 -0.21172898 0.12421875 2.169299e-38
0.88668066 -0.21172898 0.12671874 1.6346725e-38
0.88918066 -0.21422897 0.12421875 1.8955894e-38
0.88918066 -0.21172898 0.12421875 2.1693015e-38
0.88918066 -0.21172898 0.12671874 1.5887541e-38
0.89418066 -0.21922897 0.11921875 1.8868034e-38
0.89418066 -0.21672897 0.11921875 1.9053171e-38
0.89168066 -0.21422897 0.11921875 2.289443e-38
0.89168066 -0.21422897 0.12171875 1.8864049e-38
0.89168066 -0.21172898 0.11921875 1.5061021e-38
0.89418066 -0.21422897 0.11921875 1.8683312e-38
0.88668066 -0.20922898 0.10921875 1.5979376e-38
0.88668066 -0.20922898 0.11171875 1.5887591e-38
0.88668066 -0.20672897 0.10921875 1.6346727e-38
0.88918066 -0.20922898 0.10921875 1.5979395e-38
0.88918066 -0.20922898 0.11171875 1.5979428e-38
0.88918066 -0.20672897 0.10921875 1.6438564e-38
0.88918066 -0.20672897 0.11171875 1.6071231e-38
0.88668066 -0.20922898 0.11421875 1.5428398e-38
0.88668066 -0.20672897 0.11421875 1.6254893e-38
0.88918066 -0.20922898 0.11421875 1.5520234e-38
0.88918066 -0.20922898 0.11671875 1.5244719e-38
0.88918066 -0.20672897 0.11421875 1.607122e-38
0.88918066 -0.20672897 0.11671875 1.5979383e-38
0.88668066 -0.20422897 0.11171875 1.5887558e-38
0.88668066 -0.20172897 0.11171875 1.6071217e-38
0.88918066 -0.20422897 0.10921875 1.625489e-38
0.88918066 -0.20422897 0.11171875 1.5979383e-38
0.88918066 -0.20172897 0.10921875 1.6254883e-38
0.88918066 -0.20172897 0.11171875 1.6071217e-38
0.88668066 -0.20422897 0.11421875 1.5979395e-38
0.88668066 -0.20172897 0.11421875 1.6071213e-38
0.88918066 -0.20422897 0.11421875 1.5979383e-38
0.88918066 -0.20422897 0.11671875 1.6071229e-38
0.88918066 -0.20172897 0.11421875 1.5703873e-38
0.88918066 -0.20172897 0.11671875 1.5795712e-38
0.89168066 -0.20922898 0.11171875 1.5795705e-38
0.89168066 -0.20672897 0.11171875 1.6254891e-38
0.89418066 -0.20922898 0.10921875 1.5795745e-38
0.89418066 -0.20672897 0.10921875 1.6071226e-38
0.89168066 -0.20922898 0.11421875 1.5520234e-38
0.89168066 -0.20922898 0.11671875 1.4969186e-38
0.89168066 -0.20672897 0.11421875 1.5795718e-38
0.89168066 -0.20672897 0.11671875 1.5703875e-38
0.89418066 -0.20922898 0.11421875 1.5703906e-38
0.89168066 -0.20422897 0.11171875 1.625489e-38
0.89168066 -0.20172897 0.11171875 1.6071212e-38
0.89168066 -0.20422897 0.11421875 1.5703873e-38
0.88668066 -0.20922898 0.11921875 1.4693679e-38
0.88668066 -0.20672897 0.11921875 1.5979382e-38
0.88918066 -0.20922898 0.11921875 1.5244698e-38
0.88918066 -0.20922898 0.12171875 1.4785515e-38
0.88918066 -0.20672897 0.11921875 1.5520203e-38
0.88918066 -0.20672897 0.12171875 1.5703877e-38
0.88668066 -0.20922898 0.12421875 1.5336539e-38
0.88668066 -0.20922898 0.12671874 1.6163054e-38
0.88668066 -0.20672897 0.12421875 1.5703875e-38
0.88668066 -0.20672897 0.12671874 1.5887541e-38
0.88918066 -0.20922898 0.12421875 1.5244697e-38
0.88918066 -0.20922898 0.12671874 1.6163049e-38
0.88918066 -0.20672897 0.12421875 1.5795718e-38
0.88918066 -0.20672897 0.12671874 1.6163047e-38
0.88668066 -0.20422897 0.11921875 1.5703873e-38
0.88668066 -0.20172897 0.11921875 1.5795715e-38
0.88918066 -0.20422897 0.11921875 1.5428365e-38
0.88918066 -0.20422897 0.12171875 1.5244692e-38
0.88918066 -0.20172897 0.11921875 1.5336529e-38
0.88918066 -0.20172897 0.12171875 1.487735e-38
0.88668066 -0.20422897 0.12421875 1.5612034e-38
0.88668066 -0.20422897 0.12671874 1.5795705e-38
0.88668066 -0.20172897 0.12421875 1.5612034e-38
0.88668066 -0.20172897 0.12671874 1.5612039e-38
0.88918066 -0.20422897 0.12421875 1.5336528e-38
0.88918066 -0.20422897 0.12671874 1.5887541e-38
0.88918066 -0.20172897 0.12421875 1.5244692e-38
0.88918066 -0.20172897 0.12671874 1.5612034e-38
0.89168066 -0.20922898 0.11921875 1.4510008e-38
0.89168066 -0.20172897 0.12671874 1.5887541e-38
0.88668066 -0.19922897 0.11171875 1.6438554e-38
0.88668066 -0.19672897 0.11171875 1.5703877e-38
0.88918066 -0.19922897 0.10921875 1.6438554e-38
0.88918066 -0.19922897 0.11171875 1.6071212e-38
0.88918066 -0.19672897 0.10921875 1.6438554e-38
0.88918066 -0.19672897 0.11171875 1.6071213e-38
0.88668066 -0.19922897 0.11421875 1.570387e-38
0.88668066 -0.19672897 0.11421875 1.5795707e-38
0.88918066 -0.19922897 0.11421875 1.5979376e-38
0.88918066 -0.19922897 0.11671875 1.5336528e-38
0.88918066 -0.19672897 0.11421875 1.5887549e-38
0.88918066 -0.19672897 0.11671875 1.570387e-38
0.88918066 -0.19422898 0.10921875 1.5979381e-38
0.88918066 -0.19422898 0.11171875 1.5795707e-38
0.88918066 -0.19172896 0.10921875 1.6071217e-38
0.88918066 -0.19172896 0.11171875 1.6071213e-38
0.88668066 -0.19422898 0.11421875 1.5520199e-38
0.88918066 -0.19422898 0.11421875 1.5979381e-38
0.88918066 -0.19422898 0.11671875 1.5703877e-38
0.88918066 -0.19172896 0.11421875 1.5795707e-38
0.88918066 -0.19172896 0.11671875 1.5520199e-38
0.89168066 -0.19922897 0.11171875 1.6071212e-38
0.89168066 -0.19672897 0.11171875 1.5795707e-38
0.89168066 -0.19422898 0.11171875 1.6254887e-38
0.89168066 -0.19172896 0.11171875 1.5795707e-38
0.89418066 -0.19422898 0.10921875 1.6438554e-38
0.89418066 -0.19422898 0.11171875 1.570387e-38
0.89418066 -0.19172896 0.10921875 1.6438554e-38
0.89418066 -0.19172896 0.11171875 1.5979383e-38
0.89168066 -0.19422898 0.11421875 1.5795707e-38
0.89168066 -0.19422898 0.11671875 1.5428369e-38
0.89168066 -0.19172896 0.11421875 1.5795707e-38
0.89168066 -0.19172896 0.11671875 1.5703877e-38
0.89418066 -0.19422898 0.11421875 1.5887541e-38
0.89418066 -0.19422898 0.11671875 1.5244692e-38
0.89418066 -0.19172896 0.11421875 1.5428363e-38
0.89418066 -0.19172896 0.11671875 1.5428363e-38
0.88668066 -0.19922897 0.11921875 1.5244692e-38
0.88668066 -0.19672897 0.11921875 1.5612044e-38
0.88918066 -0.19922897 0.12171875 1.5061021e-38
0.88918066 -0.19672897 0.11921875 1.5336529e-38
0.88918066 -0.19672897 0.12171875 1.5336529e-38
0.88668066 -0.19922897 0.12421875 1.5612034e-38
0.88668066 -0.19922897 0.12671874 1.5612034e-38
0.88668066 -0.19672897 0.12421875 1.5244692e-38
0.88668066 -0.19672897 0.12671874 1.5520199e-38
0.88918066 -0.19922897 0.12421875 1.4969186e-38
0.88918066 -0.19922897 0.12671874 1.561204e-38
0.88918066 -0.19672897 0.12421875 1.5152858e-38
0.88918066 -0.19672897 0.12671874 1.5887549e-38
0.88668066 -0.19422898 0.11921875 1.5061035e-38
0.88668066 -0.19172896 0.11921875 1.5244692e-38
0.88918066 -0.19422898 0.11921875 1.5244695e-38
0.88918066 -0.19422898 0.12171875 1.5061021e-38
0.88918066 -0.19172896 0.11921875 1.5336528e-38
0.88918066 -0.19172896 0.12171875 1.5061021e-38
0.88668066 -0.19422898 0.12421875 1.5336529e-38
0.88668066 -0.19422898 0.12671874 1.5336528e-38
0.88918066 -0.19422898 0.12421875 1.5336528e-38
0.88918066 -0.19422898 0.12671874 1.5612039e-38
0.88918066 -0.19172896 0.12421875 1.5336528e-38
0.89168066 -0.19922897 0.12671874 1.5428365e-38
0.89168066 -0.19672897 0.12671874 1.5795705e-38
0.89418066 -0.19672897 0.12421875 1.5795705e-38
0.89168066 -0.19422898 0.11921875 1.5336529e-38
0.89168066 -0.19422898 0.12171875 1.5244695e-38
0.89168066 -0.19172896 0.11921875 1.5152857e-38
0.89168066 -0.19172896 0.12171875 1.5428363e-38
0.89418066 -0.19422898 0.11921875 1.5152857e-38
