# .PCD v0.7 - Point Cloud Data file format
VERSION 0.7
FIELDS x y z rgb
SIZE 4 4 4 4
TYPE F F F F
COUNT 1 1 1 1
WIDTH 996
HEIGHT 1
VIEWPOINT 0 0 0 1 0 0 0
POINTS 996
DATA ascii
0.89689803 -0.16879538 0.12624721 1.5795712e-38
0.89939803 -0.17629538 0.12874721 1.7081402e-38
0.89939803 -0.17379539 0.12874721 1.6805896e-38
0.90189809 -0.17629538 0.12874721 1.6897731e-38
0.90189809 -0.17379539 0.12874721 1.7821506e-38
0.89939803 -0.16879538 0.12374721 1.5428365e-38
0.90189809 -0.16879538 0.12124722 1.5428365e-38
0.90189809 -0.16879538 0.12374721 1.5520206e-38
0.89939803 -0.17129539 0.12874721 1.6254883e-38
0.89939803 -0.16879538 0.12874721 1.6254883e-38
0.90189809 -0.17129539 0.12874721 1.6530389e-38
0.90189809 -0.16879538 0.12874721 1.6530389e-38
0.89439803 -0.17629538 0.13124722 1.5887541e-38
0.89439803 -0.17379539 0.13124722 1.5979378e-38
0.89689803 -0.17629538 0.13124722 1.6897733e-38
0.89689803 -0.17379539 0.13124722 1.6897733e-38
0.90189809 -0.16629538 0.066247217 1.6440736e-38
0.90189809 -0.16129538 0.066247217 1.6166312e-38
0.89939803 -0.16629538 0.073747218 1.6897771e-38
0.90189809 -0.16629538 0.07124722 1.7081423e-38
0.90189809 -0.16629538 0.073747218 1.6897757e-38
0.90189809 -0.16379538 0.07124722 1.7081423e-38
0.90189809 -0.16379538 0.073747218 1.6989586e-38
0.90189809 -0.16629538 0.076247215 1.7450942e-38
0.90189809 -0.16629538 0.078747213 1.065507e-38
0.90189809 -0.16379538 0.078747213 1.1945096e-38
0.90189809 -0.16129538 0.07124722 1.7082152e-38
0.90189809 -0.16129538 0.073747218 1.6897748e-38
0.90189809 -0.15879539 0.07124722 1.6899559e-38
0.90189809 -0.15879539 0.073747218 1.6899546e-38
0.90189809 -0.16129538 0.076247215 1.5800033e-38
0.90189809 -0.16129538 0.078747213 1.4331755e-38
0.90189809 -0.15879539 0.076247215 1.6076619e-38
0.90189809 -0.15879539 0.078747213 1.442395e-38
0.90189809 -0.16629538 0.083747216 1.7316568e-38
0.90189809 -0.16379538 0.083747216 1.8144546e-38
0.90189809 -0.16129538 0.083747216 1.5934671e-38
0.90189809 -0.16629538 0.093747213 1.6854514e-38
0.90189809 -0.16379538 0.093747213 1.6486802e-38
0.89939803 -0.16629538 0.098747216 1.6579003e-38
0.89939803 -0.16379538 0.098747216 1.6948139e-38
0.90189809 -0.16629538 0.096247219 1.6487154e-38
0.90189809 -0.16629538 0.098747216 1.5195348e-38
0.90189809 -0.16379538 0.096247219 1.6304209e-38
0.90189809 -0.16379538 0.098747216 1.6760483e-38
0.90189809 -0.16129538 0.093747213 1.5196063e-38
0.89939803 -0.16129538 0.098747216 1.6118378e-38
0.90189809 -0.16129538 0.096247219 1.501347e-38
0.90189809 -0.16129538 0.098747216 1.6299504e-38
0.90189809 -0.15879539 0.096247219 1.4920201e-38
0.90189809 -0.15879539 0.098747216 1.7960866e-38
0.90189809 -0.16629538 0.10124721 1.5563757e-38
0.90189809 -0.16379538 0.10124721 1.6393475e-38
0.89939803 -0.16629538 0.10874721 1.6210239e-38
0.89939803 -0.16379538 0.10874721 1.7132197e-38
0.90189809 -0.16629538 0.10624722 1.4918385e-38
0.90189809 -0.16629538 0.10874721 1.7679255e-38
0.90189809 -0.16379538 0.10624722 1.6763748e-38
0.90189809 -0.16379538 0.10874721 1.8048039e-38
0.90189809 -0.16129538 0.10124721 1.5287488e-38
0.90189809 -0.15879539 0.10124721 1.7318344e-38
0.90189809 -0.16129538 0.10624722 1.5196063e-38
0.90189809 -0.15879539 0.10624722 1.5288598e-38
0.89689803 -0.16629538 0.11874722 1.570387e-38
0.89689803 -0.16379538 0.11874722 1.5612034e-38
0.89939803 -0.16629538 0.11374722 1.7657266e-38
0.90189809 -0.16629538 0.11124722 1.7669531e-38
0.90189809 -0.16629538 0.11374722 1.7289561e-38
0.90189809 -0.16379538 0.11124722 1.6286597e-38
0.90189809 -0.16379538 0.11374722 1.6644192e-38
0.89939803 -0.16629538 0.11874722 1.570387e-38
0.89939803 -0.16379538 0.11874722 1.5612034e-38
0.90189809 -0.16629538 0.11624721 1.6530389e-38
0.90189809 -0.16629538 0.11874722 1.5244701e-38
0.90189809 -0.16379538 0.11624721 1.6163047e-38
0.90189809 -0.16379538 0.11874722 1.5612048e-38
0.89939803 -0.15879539 0.11374722 1.6467348e-38
0.90189809 -0.16129538 0.11374722 1.6460893e-38
0.90189809 -0.15879539 0.11124722 1.6481403e-38
0.90189809 -0.15879539 0.11374722 1.610037e-38
0.89939803 -0.16129538 0.11874722 1.6163047e-38
0.89939803 -0.15879539 0.11874722 1.6438565e-38
0.90189809 -0.16129538 0.11624721 1.6163047e-38
0.90189809 -0.16129538 0.11874722 1.625489e-38
0.90189809 -0.15879539 0.11624721 1.5979376e-38
0.90189809 -0.15879539 0.11874722 1.6438557e-38
0.90189809 -0.15629539 0.10124721 1.8052687e-38
0.89939803 -0.15629539 0.11374722 1.748186e-38
0.90189809 -0.15629539 0.11124722 1.6572519e-38
0.90189809 -0.15629539 0.11374722 1.7392573e-38
0.90189809 -0.15379539 0.11374722 1.6747204e-38
0.90189809 -0.15629539 0.11624721 1.6438596e-38
0.90189809 -0.15629539 0.11874722 1.6346718e-38
0.90189809 -0.15379539 0.11624721 1.5795705e-38
0.90189809 -0.15379539 0.11874722 1.6254884e-38
0.89939803 -0.15129538 0.11874722 1.6254887e-38
0.90189809 -0.15129538 0.11624721 1.5152857e-38
0.90189809 -0.15129538 0.11874722 1.6254887e-38
0.90189809 -0.14879538 0.11624721 1.5155051e-38
0.90189809 -0.14879538 0.11874722 1.6163054e-38
0.89689803 -0.16629538 0.12124722 1.570387e-38
0.89689803 -0.16629538 0.12374721 1.5612034e-38
0.89689803 -0.16379538 0.12124722 1.5795707e-38
0.89689803 -0.16379538 0.12374721 1.5520199e-38
0.89689803 -0.16629538 0.12624721 1.5612034e-38
0.89689803 -0.16379538 0.12624721 1.570387e-38
0.89689803 -0.16129538 0.12374721 1.5979381e-38
0.89939803 -0.16629538 0.12374721 1.5428363e-38
0.89939803 -0.16379538 0.12374721 1.5520206e-38
0.90189809 -0.16629538 0.12124722 1.5520209e-38
0.90189809 -0.16629538 0.12374721 1.5795718e-38
0.90189809 -0.16379538 0.12124722 1.5612046e-38
0.90189809 -0.16379538 0.12374721 1.5795718e-38
0.89939803 -0.16629538 0.12624721 1.5795705e-38
0.89939803 -0.16629538 0.12874721 1.616305e-38
0.89939803 -0.16379538 0.12624721 1.5795705e-38
0.89939803 -0.16379538 0.12874721 1.616305e-38
0.90189809 -0.16629538 0.12624721 1.634672e-38
0.90189809 -0.16629538 0.12874721 1.6530389e-38
0.90189809 -0.16379538 0.12624721 1.6254883e-38
0.90189809 -0.16379538 0.12874721 1.6530389e-38
0.89939803 -0.16129538 0.12374721 1.5979381e-38
0.89939803 -0.15879539 0.12374721 1.6346721e-38
0.90189809 -0.16129538 0.12124722 1.6071217e-38
0.90189809 -0.16129538 0.12374721 1.5887541e-38
0.90189809 -0.15879539 0.12124722 1.6530408e-38
0.90189809 -0.15879539 0.12374721 1.6163052e-38
0.89939803 -0.16129538 0.12624721 1.6163047e-38
0.89939803 -0.16129538 0.12874721 1.6438554e-38
0.89939803 -0.15879539 0.12624721 1.6163052e-38
0.90189809 -0.16129538 0.12624721 1.6163052e-38
0.90189809 -0.16129538 0.12874721 1.6438554e-38
0.90189809 -0.15879539 0.12624721 1.6530389e-38
0.90189809 -0.15879539 0.12874721 1.6438554e-38
0.90189809 -0.16629538 0.13124722 1.671406e-38
0.90189809 -0.16629538 0.13374722 1.7633514e-38
0.90189809 -0.16379538 0.13124722 1.6622225e-38
0.90189809 -0.16379538 0.13374722 1.7356909e-38
0.90189809 -0.16129538 0.13124722 1.6622225e-38
0.90189809 -0.16129538 0.13374722 1.7356912e-38
0.90189809 -0.15879539 0.13124722 1.6805896e-38
0.90189809 -0.15879539 0.13374722 1.7449124e-38
0.90189809 -0.15629539 0.12124722 1.6530399e-38
0.90189809 -0.15629539 0.12374721 1.6346721e-38
0.90189809 -0.15379539 0.12374721 1.634673e-38
0.90189809 -0.15629539 0.12874721 1.6438576e-38
0.90189809 -0.15379539 0.12874721 1.6530389e-38
0.90189809 -0.15129538 0.12124722 1.634673e-38
0.90189809 -0.15129538 0.12374721 1.625489e-38
0.90189809 -0.14879538 0.12374721 1.570387e-38
0.90189809 -0.15629539 0.13124722 1.7173238e-38
0.90189809 -0.15629539 0.13374722 1.8278525e-38
0.90189809 -0.15379539 0.13124722 1.7173238e-38
0.90189809 -0.15379539 0.13374722 1.8550773e-38
0.90189809 -0.14629538 0.12374721 1.5795707e-38
0.92189807 -0.22879538 0.068747215 1.5807223e-38
0.90439808 -0.21879539 0.068747215 1.7826904e-38
0.90689808 -0.21879539 0.066247217 1.7643592e-38
0.90689808 -0.21879539 0.068747215 1.7460645e-38
0.90939808 -0.22129539 0.066247217 1.6815626e-38
0.90939808 -0.21879539 0.066247217 1.7643958e-38
0.91189808 -0.22129539 0.068747215 1.6816348e-38
0.91189808 -0.21879539 0.068747215 1.7366282e-38
0.90439808 -0.21879539 0.07124722 1.7641794e-38
0.91189808 -0.22129539 0.07124722 1.7916222e-38
0.91189808 -0.21879539 0.07124722 1.7454885e-38
0.90689808 -0.21629539 0.066247217 1.7458479e-38
0.90689808 -0.21629539 0.068747215 1.7643945e-38
0.91689807 -0.22629538 0.068747215 1.6721633e-38
0.91689807 -0.22379538 0.068747215 1.7367002e-38
0.91439807 -0.21879539 0.066247217 1.7455613e-38
0.91689807 -0.22129539 0.068747215 1.8102049e-38
0.92189807 -0.22629538 0.068747215 1.7915513e-38
0.92189807 -0.22379538 0.068747215 1.754673e-38
0.92189807 -0.22129539 0.068747215 1.6446105e-38
0.92939806 -0.22879538 0.068747215 1.6541203e-38
0.93189806 -0.22879538 0.068747215 1.6817428e-38
0.93689805 -0.22879538 0.068747215 1.4981386e-38
0.94189805 -0.23379539 0.068747215 1.8191043e-38
0.94189805 -0.23129538 0.068747215 1.7180468e-38
0.94189805 -0.22879538 0.068747215 1.3880433e-38
0.93439806 -0.22879538 0.07124722 1.516326e-38
0.93689805 -0.23129538 0.07124722 1.8100953e-38
0.93689805 -0.22879538 0.07124722 1.3877204e-38
0.93689805 -0.22879538 0.073747218 1.7175036e-38
0.94189805 -0.23379539 0.07124722 1.8098439e-38
0.93939805 -0.23129538 0.073747218 1.8281383e-38
0.93939805 -0.22879538 0.073747218 1.6903512e-38
0.94189805 -0.23129538 0.07124722 1.7084288e-38
0.94189805 -0.22879538 0.07124722 1.3880472e-38
0.92689806 -0.22629538 0.068747215 1.8283239e-38
0.92689806 -0.22379538 0.068747215 1.7176891e-38
0.92939806 -0.22629538 0.068747215 1.8558396e-38
0.92939806 -0.22379538 0.068747215 1.4885601e-38
0.93189806 -0.22629538 0.068747215 1.6989599e-38
0.92689806 -0.22379538 0.07124722 1.4893563e-38
0.93439806 -0.22629538 0.068747215 1.6904231e-38
0.93689805 -0.22629538 0.068747215 1.7009689e-38
0.94189805 -0.22629538 0.068747215 1.8028855e-38
0.93439806 -0.22629538 0.07124722 1.7283399e-38
0.93439806 -0.22379538 0.07124722 1.7478303e-38
0.93689805 -0.22629538 0.07124722 1.8302539e-38
0.93689805 -0.22629538 0.073747218 1.9317133e-38
0.93689805 -0.22379538 0.07124722 1.812184e-38
0.93939805 -0.22629538 0.073747218 1.8860122e-38
0.94189805 -0.22629538 0.07124722 1.9226017e-38
0.94689804 -0.23879538 0.068747215 1.6558127e-38
0.94939804 -0.23879538 0.068747215 1.5910208e-38
0.95189804 -0.24129538 0.068747215 2.2180222e-38
0.95189804 -0.23879538 0.068747215 1.7180819e-38
0.94939804 -0.23879538 0.07124722 1.581046e-38
0.94439805 -0.23629539 0.068747215 1.7367749e-38
0.94439805 -0.23379539 0.068747215 1.626533e-38
0.94689804 -0.23629539 0.068747215 1.8105314e-38
0.94689804 -0.23379539 0.068747215 1.7639261e-38
0.94439805 -0.23129538 0.068747215 1.7270118e-38
0.94439805 -0.22879538 0.068747215 1.3787163e-38
0.94939804 -0.23629539 0.068747215 1.7276998e-38
0.94939804 -0.23379539 0.068747215 1.7271935e-38
0.95189804 -0.23629539 0.068747215 1.6904231e-38
0.94439805 -0.23629539 0.07124722 1.6816698e-38
0.94439805 -0.23629539 0.073747218 1.75496e-38
0.94439805 -0.23379539 0.07124722 1.6908894e-38
0.94439805 -0.23379539 0.073747218 1.7088623e-38
0.94689804 -0.23629539 0.07124722 1.6446163e-38
0.94689804 -0.23629539 0.073747218 1.8284996e-38
0.94689804 -0.23379539 0.07124722 1.7917989e-38
0.94689804 -0.23379539 0.073747218 1.543842e-38
0.94689804 -0.23629539 0.076247215 1.8651983e-38
0.94689804 -0.23629539 0.078747213 1.8190269e-38
0.94689804 -0.23379539 0.076247215 1.7083206e-38
0.94689804 -0.23379539 0.078747213 1.6900265e-38
0.94439805 -0.23129538 0.07124722 1.6809866e-38
0.94439805 -0.23129538 0.073747218 1.7191577e-38
0.94439805 -0.22879538 0.07124722 1.4527299e-38
0.94439805 -0.22879538 0.073747218 1.6649947e-38
0.94689804 -0.23129538 0.07124722 1.6810957e-38
0.94689804 -0.23129538 0.073747218 1.7189779e-38
0.94689804 -0.22879538 0.07124722 1.4896429e-38
0.94689804 -0.22879538 0.073747218 1.6188615e-38
0.94689804 -0.23129538 0.076247215 1.811894e-38
0.94689804 -0.23129538 0.078747213 1.9044827e-38
0.94689804 -0.22879538 0.076247215 1.8309118e-38
0.94689804 -0.22879538 0.078747213 1.8402021e-38
0.94939804 -0.23629539 0.07124722 1.819426e-38
0.95189804 -0.23629539 0.073747218 1.727161e-38
0.94939804 -0.23379539 0.076247215 1.3508811e-38
0.95189804 -0.23379539 0.078747213 1.2683016e-38
0.94939804 -0.23129538 0.076247215 1.7936347e-38
0.94939804 -0.22879538 0.076247215 1.8403103e-38
0.95189804 -0.23129538 0.078747213 1.9044869e-38
0.95189804 -0.22879538 0.076247215 1.904846e-38
0.95189804 -0.22879538 0.078747213 1.8955914e-38
0.95689803 -0.24129538 0.068747215 1.6268213e-38
0.95939803 -0.23879538 0.068747215 1.7551787e-38
0.95439804 -0.23879538 0.07124722 1.6998968e-38
0.95439804 -0.23379539 0.078747213 1.5911659e-38
0.95439804 -0.23129538 0.078747213 1.922855e-38
0.95439804 -0.22879538 0.078747213 1.8772601e-38
0.94939804 -0.23379539 0.081247218 1.6622225e-38
0.95189804 -0.23129538 0.081247218 1.8862279e-38
0.95189804 -0.22879538 0.081247218 1.8405259e-38
0.95439804 -0.22879538 0.081247218 1.9143545e-38
0.94439805 -0.22629538 0.07124722 1.8768298e-38
0.94439805 -0.22629538 0.073747218 1.8954843e-38
0.95939803 -0.22629538 0.073747218 2.0972011e-38
0.96189803 -0.22629538 0.076247215 2.1525162e-38
1.006898 -0.23629539 0.073747218 1.735692e-38
1.006898 -0.23379539 0.073747218 1.7448744e-38
1.006898 -0.23129538 0.073747218 1.7448744e-38
1.011898 -0.23629539 0.073747218 1.8926032e-38
1.0093981 -0.23629539 0.076247215 1.8828812e-38
1.0093981 -0.23629539 0.078747213 1.7173238e-38
1.0093981 -0.23379539 0.076247215 1.7081418e-38
1.0093981 -0.23379539 0.078747213 1.6254883e-38
1.011898 -0.23629539 0.078747213 1.5795705e-38
1.011898 -0.23379539 0.078747213 1.5061021e-38
1.021898 -0.24129538 0.068747215 2.1412798e-38
1.0143981 -0.23879538 0.073747218 1.8921366e-38
1.016898 -0.23879538 0.076247215 1.5795705e-38
1.0193981 -0.23879538 0.07124722 1.9107547e-38
1.0193981 -0.23879538 0.073747218 1.7356909e-38
1.021898 -0.23879538 0.073747218 1.5520199e-38
1.0193981 -0.23879538 0.078747213 1.487735e-38
1.021898 -0.24129538 0.076247215 1.6805908e-38
1.021898 -0.23629539 0.068747215 1.7632432e-38
1.021898 -0.23379539 0.068747215 1.7727859e-38
1.021898 -0.23129538 0.068747215 1.7999791e-38
1.021898 -0.22879538 0.068747215 1.7907922e-38
1.0143981 -0.23629539 0.073747218 1.717326e-38
1.0143981 -0.23629539 0.076247215 1.7356909e-38
1.0143981 -0.23629539 0.078747213 1.5795705e-38
1.016898 -0.23629539 0.076247215 1.5336528e-38
1.016898 -0.23629539 0.078747213 1.5520199e-38
1.016898 -0.23379539 0.076247215 1.5428363e-38
1.0193981 -0.23629539 0.07124722 1.6898097e-38
1.0193981 -0.23629539 0.073747218 1.6163047e-38
1.0193981 -0.23379539 0.07124722 1.7910818e-38
1.0193981 -0.23379539 0.073747218 1.6897733e-38
1.021898 -0.23629539 0.073747218 1.5152857e-38
1.021898 -0.23379539 0.073747218 1.5244692e-38
1.0193981 -0.23629539 0.078747213 1.5244692e-38
1.0193981 -0.23379539 0.078747213 1.5520202e-38
1.021898 -0.23629539 0.076247215 1.5336528e-38
1.021898 -0.23379539 0.076247215 1.5428363e-38
1.0193981 -0.23129538 0.073747218 1.6622225e-38
1.021898 -0.23129538 0.073747218 1.5520199e-38
1.021898 -0.23129538 0.076247215 1.5520204e-38
1.011898 -0.23879538 0.083747216 1.5336533e-38
1.011898 -0.23629539 0.083747216 1.5244697e-38
1.0143981 -0.23879538 0.083747216 1.4693684e-38
1.016898 -0.23879538 0.083747216 1.487735e-38
1.0143981 -0.23879538 0.086247213 1.4418173e-38
1.0193981 -0.23879538 0.081247218 1.487735e-38
1.0193981 -0.23879538 0.083747216 1.4693679e-38
1.021898 -0.23879538 0.083747216 1.487735e-38
1.021898 -0.23879538 0.088747218 1.487735e-38
1.0193981 -0.24129538 0.091247216 1.4326337e-38
1.0193981 -0.24129538 0.093747213 1.4234502e-38
1.0193981 -0.23879538 0.091247216 1.487735e-38
1.0193981 -0.23879538 0.093747213 1.4969186e-38
1.021898 -0.24129538 0.091247216 1.4785515e-38
1.021898 -0.23879538 0.091247216 1.487735e-38
1.021898 -0.24129538 0.096247219 1.4785515e-38
1.021898 -0.23879538 0.096247219 1.4785515e-38
1.0143981 -0.23629539 0.083747216 1.478552e-38
1.016898 -0.23629539 0.081247218 1.5152857e-38
1.016898 -0.23629539 0.083747216 1.4969186e-38
1.0143981 -0.23629539 0.086247213 1.4601844e-38
1.0193981 -0.23629539 0.081247218 1.5152857e-38
1.0193981 -0.23629539 0.083747216 1.4785515e-38
1.0193981 -0.23379539 0.081247218 1.5152857e-38
1.021898 -0.23629539 0.083747216 1.487735e-38
1.021898 -0.23379539 0.083747216 1.4969186e-38
1.0193981 -0.23629539 0.086247213 1.487735e-38
1.021898 -0.23629539 0.088747218 1.4969186e-38
1.021898 -0.23379539 0.088747218 1.4969186e-38
1.0193981 -0.23629539 0.091247216 1.4969186e-38
1.0193981 -0.23629539 0.093747213 1.487735e-38
1.021898 -0.23629539 0.091247216 1.487735e-38
1.021898 -0.23379539 0.091247216 1.5152857e-38
1.021898 -0.23379539 0.096247219 1.487735e-38
1.021898 -0.23379539 0.098747216 1.6438554e-38
1.021898 -0.23129538 0.091247216 1.5152857e-38
1.021898 -0.22879538 0.091247216 1.5152857e-38
1.021898 -0.23129538 0.096247219 1.5152857e-38
1.021898 -0.23129538 0.098747216 1.6438554e-38
1.021898 -0.22879538 0.096247219 1.5152857e-38
1.021898 -0.22879538 0.098747216 1.6071212e-38
1.021898 -0.22629538 0.068747215 1.7999759e-38
1.021898 -0.22629538 0.091247216 1.5336528e-38
1.021898 -0.22629538 0.098747216 1.5795705e-38
1.021898 -0.22379538 0.096247219 1.5520199e-38
1.021898 -0.22379538 0.098747216 1.5887544e-38
1.021898 -0.22129539 0.096247219 1.5428363e-38
1.021898 -0.22129539 0.098747216 1.5795705e-38
1.0243981 -0.24129538 0.07124722 2.1778336e-38
1.0243981 -0.24129538 0.073747218 1.837178e-38
1.026898 -0.24129538 0.073747218 1.6898094e-38
1.026898 -0.23879538 0.073747218 1.5152857e-38
1.0243981 -0.24129538 0.078747213 1.5244692e-38
1.0243981 -0.23879538 0.078747213 1.487735e-38
1.026898 -0.24129538 0.076247215 1.5152857e-38
1.0243981 -0.23629539 0.07124722 1.6254883e-38
1.0243981 -0.23629539 0.073747218 1.5428363e-38
1.0243981 -0.23379539 0.07124722 1.6714062e-38
1.0243981 -0.23379539 0.073747218 1.5428363e-38
1.026898 -0.23629539 0.07124722 1.6071212e-38
1.026898 -0.23629539 0.073747218 1.5336528e-38
1.026898 -0.23379539 0.073747218 1.5520199e-38
1.0243981 -0.23629539 0.078747213 1.5244692e-38
1.0243981 -0.23379539 0.078747213 1.5244692e-38
1.026898 -0.23379539 0.076247215 1.5244692e-38
1.026898 -0.23379539 0.078747213 1.5244692e-38
1.0243981 -0.23129538 0.07124722 1.7265106e-38
1.0243981 -0.23129538 0.073747218 1.5887541e-38
1.0243981 -0.22879538 0.07124722 1.7816445e-38
1.0243981 -0.22879538 0.073747218 1.6071212e-38
1.026898 -0.23129538 0.07124722 1.7265073e-38
1.026898 -0.23129538 0.073747218 1.5520204e-38
1.026898 -0.22879538 0.07124722 1.5795705e-38
1.026898 -0.22879538 0.073747218 1.5795705e-38
1.0243981 -0.23129538 0.078747213 1.5244692e-38
1.0243981 -0.22879538 0.078747213 1.5520199e-38
1.026898 -0.23129538 0.076247215 1.5244692e-38
1.026898 -0.23129538 0.078747213 1.5152857e-38
1.026898 -0.22879538 0.076247215 1.5244692e-38
1.026898 -0.22879538 0.078747213 1.5152857e-38
1.0293981 -0.23379539 0.078747213 1.5152857e-38
1.0293981 -0.22879538 0.073747218 1.5703875e-38
1.0293981 -0.23129538 0.078747213 1.5152857e-38
1.0293981 -0.22879538 0.076247215 1.5428363e-38
1.0293981 -0.22879538 0.078747213 1.5152857e-38
1.0243981 -0.23879538 0.081247218 1.487735e-38
1.026898 -0.23879538 0.083747216 1.487735e-38
1.0243981 -0.23879538 0.086247213 1.4969186e-38
1.0243981 -0.23879538 0.088747218 1.487735e-38
1.0243981 -0.24129538 0.093747213 1.487735e-38
1.0243981 -0.23879538 0.093747213 1.487735e-38
1.026898 -0.23879538 0.093747213 1.487735e-38
1.026898 -0.24129538 0.096247219 1.6346718e-38
1.026898 -0.23879538 0.096247219 1.6254883e-38
1.0293981 -0.24129538 0.093747213 1.6346718e-38
1.0293981 -0.23879538 0.093747213 1.6622225e-38
1.031898 -0.24129538 0.093747213 1.6346718e-38
1.031898 -0.23879538 0.093747213 1.6346718e-38
1.0293981 -0.23879538 0.096247219 2.0126037e-38
1.0243981 -0.23629539 0.081247218 1.4969186e-38
1.0243981 -0.23379539 0.081247218 1.4969186e-38
1.026898 -0.23629539 0.083747216 1.487735e-38
1.026898 -0.23379539 0.083747216 1.487735e-38
1.0243981 -0.23629539 0.086247213 1.487735e-38
1.0243981 -0.23629539 0.088747218 1.4969186e-38
1.0243981 -0.23379539 0.086247213 1.487735e-38
1.0243981 -0.23379539 0.088747218 1.4969186e-38
1.0243981 -0.23129538 0.081247218 1.5152857e-38
1.0243981 -0.22879538 0.081247218 1.5152857e-38
1.026898 -0.23129538 0.083747216 1.4969186e-38
1.026898 -0.22879538 0.083747216 1.487735e-38
1.0243981 -0.23129538 0.086247213 1.4969186e-38
1.0243981 -0.23129538 0.088747218 1.4969186e-38
1.0243981 -0.22879538 0.088747218 1.5152857e-38
1.026898 -0.22879538 0.088747218 1.5152857e-38
1.0293981 -0.23379539 0.081247218 1.5152857e-38
1.0293981 -0.23129538 0.081247218 1.5061028e-38
1.0293981 -0.22879538 0.081247218 1.4969186e-38
1.031898 -0.22879538 0.083747216 1.5152857e-38
1.0293981 -0.23129538 0.086247213 1.4969186e-38
1.0293981 -0.22879538 0.086247213 1.4969186e-38
1.0293981 -0.22879538 0.088747218 1.5244692e-38
1.0243981 -0.23629539 0.093747213 1.5152857e-38
1.0243981 -0.23379539 0.093747213 1.5244692e-38
1.026898 -0.23629539 0.096247219 1.6346718e-38
1.026898 -0.23629539 0.098747216 2.0851708e-38
1.026898 -0.23379539 0.096247219 1.6346718e-38
1.026898 -0.23379539 0.098747216 1.8367099e-38
1.0243981 -0.23129538 0.093747213 1.5244692e-38
1.0243981 -0.22879538 0.093747213 1.5244692e-38
1.026898 -0.22879538 0.091247216 1.5244692e-38
1.026898 -0.22879538 0.093747213 1.5428363e-38
1.0243981 -0.23129538 0.098747216 1.7999757e-38
1.0243981 -0.22879538 0.098747216 1.7907922e-38
1.026898 -0.23129538 0.096247219 1.6254883e-38
1.026898 -0.23129538 0.098747216 1.9478109e-38
1.026898 -0.22879538 0.096247219 1.5979376e-38
1.026898 -0.22879538 0.098747216 1.9201881e-38
1.0293981 -0.23629539 0.093747213 1.6438554e-38
1.0293981 -0.23379539 0.093747213 1.6346718e-38
1.031898 -0.23629539 0.093747213 1.6254883e-38
1.031898 -0.23379539 0.093747213 1.6254883e-38
1.0293981 -0.23629539 0.096247219 2.066624e-38
1.0293981 -0.23129538 0.093747213 1.5979376e-38
1.0293981 -0.22879538 0.093747213 1.5979376e-38
1.031898 -0.23129538 0.091247216 1.5152857e-38
1.031898 -0.23129538 0.093747213 1.6071212e-38
1.031898 -0.22879538 0.091247216 1.5152857e-38
1.031898 -0.22879538 0.093747213 1.5795705e-38
1.031898 -0.23129538 0.098747216 1.9754323e-38
1.0343981 -0.24129538 0.093747213 1.975905e-38
1.0343981 -0.23879538 0.093747213 1.9482117e-38
1.0343981 -0.23129538 0.093747213 1.7632415e-38
1.0343981 -0.22879538 0.093747213 1.6805896e-38
1.036898 -0.23129538 0.093747213 1.7724251e-38
1.036898 -0.22879538 0.093747213 1.671406e-38
1.0393981 -0.23629539 0.091247216 1.8275271e-38
1.0393981 -0.23379539 0.091247216 1.7632415e-38
1.0393981 -0.23129538 0.091247216 1.7816086e-38
1.0393981 -0.22879538 0.091247216 1.6530389e-38
1.0243981 -0.22629538 0.07124722 1.754058e-38
1.0243981 -0.22629538 0.073747218 1.5979376e-38
1.026898 -0.22629538 0.07124722 1.7540938e-38
1.026898 -0.22629538 0.073747218 1.5795705e-38
1.026898 -0.22379538 0.07124722 1.5795705e-38
1.026898 -0.22629538 0.076247215 1.5244692e-38
1.026898 -0.22629538 0.078747213 1.5336528e-38
1.026898 -0.22129539 0.07124722 1.6254883e-38
1.026898 -0.21879539 0.07124722 1.6622225e-38
1.0293981 -0.22629538 0.073747218 1.5612043e-38
1.0293981 -0.22379538 0.073747218 1.5703881e-38
1.031898 -0.22379538 0.07124722 1.6071212e-38
1.0293981 -0.22629538 0.076247215 1.570387e-38
1.0293981 -0.22629538 0.078747213 1.5244692e-38
1.0293981 -0.22379538 0.076247215 1.570387e-38
1.0293981 -0.22379538 0.078747213 1.5244692e-38
1.031898 -0.22629538 0.078747213 1.5152857e-38
1.031898 -0.22379538 0.078747213 1.5152857e-38
1.0293981 -0.22129539 0.073747218 1.5979392e-38
1.0293981 -0.21879539 0.073747218 1.6163047e-38
1.031898 -0.22129539 0.07124722 1.6071212e-38
1.031898 -0.21879539 0.07124722 1.6346718e-38
1.0293981 -0.22129539 0.076247215 1.5795705e-38
1.0293981 -0.22129539 0.078747213 1.5428363e-38
1.0293981 -0.21879539 0.076247215 1.5795705e-38
1.031898 -0.22129539 0.078747213 1.5428363e-38
1.031898 -0.21879539 0.078747213 1.5428363e-38
1.031898 -0.21629539 0.07124722 1.6438554e-38
1.031898 -0.21379538 0.07124722 1.6438554e-38
1.036898 -0.21879539 0.068747215 1.6438554e-38
1.0343981 -0.22379538 0.073747218 1.570387e-38
1.0343981 -0.22129539 0.073747218 1.5887541e-38
1.0343981 -0.21879539 0.073747218 1.6071212e-38
1.036898 -0.21879539 0.07124722 1.6071212e-38
1.036898 -0.21879539 0.073747218 1.5795705e-38
1.0343981 -0.22129539 0.076247215 1.570387e-38
1.0343981 -0.21879539 0.076247215 1.5520199e-38
1.036898 -0.22129539 0.078747213 1.5428363e-38
1.036898 -0.21879539 0.078747213 1.570387e-38
1.0393981 -0.21879539 0.07124722 1.6163047e-38
1.041898 -0.21879539 0.07124722 1.5887541e-38
1.041898 -0.21879539 0.073747218 1.570387e-38
1.0393981 -0.21879539 0.076247215 1.570387e-38
1.036898 -0.21629539 0.068747215 1.6438554e-38
1.036898 -0.21379538 0.068747215 1.671406e-38
1.036898 -0.21129538 0.068747215 1.6622225e-38
1.036898 -0.20879538 0.068747215 1.7173238e-38
1.0343981 -0.21629539 0.073747218 1.6346718e-38
1.0343981 -0.21379538 0.073747218 1.6071212e-38
1.036898 -0.21629539 0.07124722 1.6071212e-38
1.036898 -0.21629539 0.073747218 1.5887541e-38
1.036898 -0.21379538 0.07124722 1.6346718e-38
1.036898 -0.21379538 0.073747218 1.6071212e-38
1.0343981 -0.21629539 0.076247215 1.5795705e-38
1.0343981 -0.21379538 0.076247215 1.6071212e-38
1.036898 -0.21629539 0.078747213 1.5428363e-38
1.036898 -0.21379538 0.078747213 1.5795705e-38
1.0343981 -0.21129538 0.073747218 1.6071212e-38
1.036898 -0.21129538 0.07124722 1.6438554e-38
1.036898 -0.21129538 0.073747218 1.6071212e-38
1.036898 -0.20879538 0.07124722 1.6346718e-38
1.036898 -0.20879538 0.073747218 1.6071212e-38
1.0343981 -0.21129538 0.076247215 1.6071212e-38
1.0343981 -0.20879538 0.076247215 1.6071212e-38
1.036898 -0.21129538 0.078747213 1.570387e-38
1.036898 -0.20879538 0.078747213 1.5795705e-38
1.0393981 -0.21629539 0.07124722 1.6163047e-38
1.0393981 -0.21379538 0.07124722 1.6071212e-38
1.0393981 -0.21629539 0.076247215 1.5520199e-38
1.0393981 -0.21379538 0.076247215 1.5795705e-38
1.0393981 -0.21129538 0.07124722 1.6254883e-38
1.0393981 -0.20879538 0.07124722 1.6254883e-38
1.0393981 -0.21129538 0.076247215 1.5795705e-38
1.0393981 -0.20879538 0.076247215 1.5795705e-38
1.041898 -0.20879538 0.078747213 1.5244692e-38
1.026898 -0.22629538 0.083747216 1.5152857e-38
1.026898 -0.22379538 0.083747216 1.5244692e-38
1.026898 -0.22629538 0.088747218 1.5244692e-38
1.026898 -0.22379538 0.088747218 1.5244692e-38
1.026898 -0.22129539 0.083747216 1.5428363e-38
1.026898 -0.22129539 0.088747218 1.5244692e-38
1.0293981 -0.22629538 0.081247218 1.4969186e-38
1.0293981 -0.22379538 0.081247218 1.5244692e-38
1.031898 -0.22629538 0.083747216 1.487735e-38
1.031898 -0.22379538 0.081247218 1.5428363e-38
1.031898 -0.22379538 0.083747216 1.4969186e-38
1.0293981 -0.22629538 0.086247213 1.5152857e-38
1.0293981 -0.22629538 0.088747218 1.5152857e-38
1.0293981 -0.22379538 0.086247213 1.5152857e-38
1.0293981 -0.22379538 0.088747218 1.5152857e-38
1.0293981 -0.22129539 0.081247218 1.5428363e-38
1.0293981 -0.21879539 0.081247218 1.5428363e-38
1.031898 -0.22129539 0.083747216 1.5428363e-38
1.031898 -0.21879539 0.081247218 1.5428363e-38
1.031898 -0.21879539 0.083747216 1.570387e-38
1.0293981 -0.22129539 0.086247213 1.5520199e-38
1.0293981 -0.22129539 0.088747218 1.5520199e-38
1.031898 -0.21879539 0.086247213 1.570387e-38
1.0243981 -0.22629538 0.093747213 1.5428363e-38
1.0243981 -0.22379538 0.093747213 1.570387e-38
1.026898 -0.22629538 0.091247216 1.5428363e-38
1.026898 -0.22379538 0.091247216 1.5428363e-38
1.0243981 -0.22629538 0.098747216 1.671406e-38
1.0243981 -0.22379538 0.098747216 1.671406e-38
1.026898 -0.22629538 0.096247219 1.5887541e-38
1.026898 -0.22629538 0.098747216 1.6346718e-38
1.026898 -0.22379538 0.096247219 1.5795705e-38
1.026898 -0.22379538 0.098747216 1.5795705e-38
1.0243981 -0.22129539 0.093747213 1.5520199e-38
1.0243981 -0.21879539 0.093747213 1.5428363e-38
1.026898 -0.22129539 0.091247216 1.5428363e-38
1.0243981 -0.22129539 0.098747216 1.570387e-38
1.0243981 -0.21879539 0.098747216 1.5428363e-38
1.026898 -0.22129539 0.096247219 1.5795705e-38
1.026898 -0.22129539 0.098747216 1.570387e-38
1.026898 -0.21879539 0.096247219 1.5520199e-38
1.026898 -0.21879539 0.098747216 1.5428363e-38
1.031898 -0.22629538 0.091247216 1.5244692e-38
1.031898 -0.22379538 0.091247216 1.5520199e-38
1.031898 -0.22379538 0.093747213 1.570387e-38
1.0293981 -0.22129539 0.093747213 1.5795705e-38
1.0293981 -0.21879539 0.093747213 1.5520199e-38
1.031898 -0.22129539 0.091247216 1.5244692e-38
1.031898 -0.22129539 0.093747213 1.570387e-38
1.031898 -0.21879539 0.091247216 1.5428363e-38
1.031898 -0.21879539 0.093747213 1.5520199e-38
1.0293981 -0.21879539 0.096247219 1.5336528e-38
1.031898 -0.21879539 0.098747216 1.7265073e-38
1.0293981 -0.21629539 0.081247218 1.5520199e-38
1.031898 -0.21629539 0.081247218 1.5520199e-38
1.031898 -0.21629539 0.083747216 1.5428363e-38
1.031898 -0.21629539 0.086247213 1.570387e-38
1.031898 -0.21129538 0.081247218 1.5795705e-38
1.031898 -0.20879538 0.081247218 1.570387e-38
1.031898 -0.21629539 0.093747213 1.5428363e-38
1.0343981 -0.22629538 0.088747218 1.5428363e-38
1.0343981 -0.22379538 0.088747218 1.5244692e-38
1.0343981 -0.21879539 0.081247218 1.5428363e-38
1.0343981 -0.21879539 0.083747216 1.5520199e-38
1.0343981 -0.22129539 0.088747218 1.5244692e-38
1.0343981 -0.21879539 0.088747218 1.5428363e-38
1.036898 -0.21879539 0.086247213 1.5428363e-38
1.0343981 -0.22379538 0.093747213 1.5520199e-38
1.036898 -0.22379538 0.091247216 1.5795705e-38
1.0343981 -0.22129539 0.093747213 1.5336528e-38
1.0343981 -0.21879539 0.093747213 1.5152857e-38
1.036898 -0.21879539 0.091247216 1.570387e-38
1.0343981 -0.21879539 0.096247219 1.6989567e-38
1.0343981 -0.21629539 0.081247218 1.5244692e-38
1.0343981 -0.21629539 0.083747216 1.5612034e-38
1.0343981 -0.21379538 0.081247218 1.5520199e-38
1.0343981 -0.21379538 0.083747216 1.5336528e-38
1.036898 -0.21629539 0.081247218 1.5520199e-38
1.036898 -0.21379538 0.081247218 1.570387e-38
1.0343981 -0.21629539 0.088747218 1.5428363e-38
1.0343981 -0.21379538 0.088747218 1.5428363e-38
1.036898 -0.21629539 0.086247213 1.570387e-38
1.036898 -0.21629539 0.088747218 1.5428363e-38
1.036898 -0.21379538 0.086247213 1.5336528e-38
1.036898 -0.21379538 0.088747218 1.5520199e-38
1.0343981 -0.21129538 0.081247218 1.570387e-38
1.0343981 -0.21129538 0.083747216 1.5244692e-38
1.0343981 -0.20879538 0.081247218 1.5520199e-38
1.0343981 -0.20879538 0.083747216 1.5428363e-38
1.036898 -0.21129538 0.081247218 1.5244692e-38
1.036898 -0.20879538 0.081247218 1.570387e-38
1.0343981 -0.21129538 0.088747218 1.5152857e-38
1.0343981 -0.20879538 0.088747218 1.5428363e-38
1.036898 -0.21129538 0.086247213 1.5244692e-38
1.036898 -0.21129538 0.088747218 1.5428363e-38
1.036898 -0.20879538 0.086247213 1.5152857e-38
1.036898 -0.20879538 0.088747218 1.5336528e-38
1.0393981 -0.21629539 0.081247218 1.5336528e-38
1.0393981 -0.21629539 0.083747216 1.5336528e-38
1.0393981 -0.21379538 0.081247218 1.5152857e-38
1.0393981 -0.21379538 0.083747216 1.5336528e-38
1.0393981 -0.20879538 0.081247218 1.5244692e-38
1.0393981 -0.20879538 0.083747216 1.5152857e-38
1.0343981 -0.21629539 0.093747213 1.5336528e-38
1.0343981 -0.21379538 0.093747213 1.5152857e-38
1.036898 -0.21629539 0.091247216 1.5428363e-38
1.036898 -0.21629539 0.093747213 1.5336528e-38
1.036898 -0.21379538 0.091247216 1.5520199e-38
1.036898 -0.21379538 0.093747213 1.5336528e-38
1.0343981 -0.21629539 0.096247219 1.6989567e-38
1.0343981 -0.21629539 0.098747216 2.0494099e-38
1.0343981 -0.21379538 0.096247219 1.6989567e-38
1.0343981 -0.21379538 0.098747216 2.0033123e-38
1.036898 -0.21129538 0.091247216 1.5428363e-38
1.036898 -0.21129538 0.093747213 1.5336528e-38
1.036898 -0.20879538 0.091247216 1.5428363e-38
1.036898 -0.20879538 0.093747213 1.5336528e-38
1.0393981 -0.21629539 0.093747213 1.6989567e-38
1.0393981 -0.21379538 0.093747213 1.6622225e-38
1.0393981 -0.21629539 0.096247219 2.0216068e-38
1.0393981 -0.21379538 0.096247219 2.0122074e-38
1.0393981 -0.21379538 0.098747216 1.8385451e-38
1.0393981 -0.21129538 0.093747213 1.6622225e-38
1.0393981 -0.20879538 0.091247216 1.5428363e-38
1.0393981 -0.20879538 0.093747213 1.6254883e-38
1.041898 -0.20879538 0.093747213 1.6254883e-38
1.0393981 -0.21129538 0.096247219 1.9476705e-38
1.0393981 -0.21129538 0.098747216 1.7924831e-38
1.0393981 -0.20879538 0.096247219 2.039253e-38
1.0393981 -0.20879538 0.098747216 1.8382567e-38
1.041898 -0.21129538 0.098747216 1.4986109e-38
1.041898 -0.20879538 0.096247219 1.8458935e-38
1.041898 -0.20879538 0.098747216 1.6733138e-38
1.046898 -0.24379538 0.086247213 1.6346718e-38
1.046898 -0.24379538 0.088747218 2.0122797e-38
1.046898 -0.24129538 0.088747218 1.9573582e-38
1.046898 -0.23879538 0.088747218 2.08528e-38
1.051898 -0.23879538 0.088747218 1.9850131e-38
1.0443981 -0.23879538 0.091247216 2.0946423e-38
1.051898 -0.23879538 0.091247216 2.0965153e-38
1.046898 -0.23629539 0.088747218 1.8367105e-38
1.051898 -0.23629539 0.088747218 1.9571364e-38
1.051898 -0.23379539 0.088747218 1.9202587e-38
1.0443981 -0.23629539 0.091247216 1.8275275e-38
1.0443981 -0.23379539 0.091247216 1.8275264e-38
1.0443981 -0.23129538 0.091247216 1.671406e-38
1.0493981 -0.23379539 0.091247216 1.9290143e-38
1.051898 -0.23629539 0.091247216 2.0683883e-38
1.051898 -0.23379539 0.091247216 2.0591328e-38
1.0443981 -0.20879538 0.098747216 1.7010085e-38
1.0243981 -0.22129539 0.10124721 1.754058e-38
1.0243981 -0.21879539 0.10124721 1.6989567e-38
0.90439808 -0.18379538 0.068747215 1.6897757e-38
0.90439808 -0.18129538 0.068747215 1.7081416e-38
0.90439808 -0.17879538 0.068747215 1.7081416e-38
0.90689808 -0.18129538 0.066247217 1.6989591e-38
0.90689808 -0.17879538 0.066247217 1.6989591e-38
0.90439808 -0.18129538 0.07124722 1.7265827e-38
0.90439808 -0.17879538 0.07124722 1.6989599e-38
0.90439808 -0.17879538 0.073747218 1.4786269e-38
0.90689808 -0.17629538 0.066247217 1.680592e-38
0.90689808 -0.17629538 0.068747215 1.6897748e-38
0.90689808 -0.17379539 0.068747215 1.6714077e-38
0.90439808 -0.16879538 0.068747215 1.6898827e-38
0.90689808 -0.17129539 0.068747215 1.6898827e-38
0.90689808 -0.16879538 0.066247217 1.6989599e-38
0.90939808 -0.17629538 0.066247217 1.6989579e-38
0.90939808 -0.17379539 0.066247217 1.6897748e-38
0.90939808 -0.17129539 0.066247217 1.7082858e-38
0.90439808 -0.17629538 0.07124722 1.680591e-38
0.90439808 -0.17629538 0.073747218 1.6438921e-38
0.90439808 -0.17379539 0.07124722 1.6805918e-38
0.90439808 -0.17379539 0.073747218 1.6531118e-38
0.90439808 -0.17629538 0.076247215 1.3322629e-38
0.90439808 -0.17379539 0.076247215 1.3598488e-38
0.90439808 -0.17129539 0.07124722 1.6989579e-38
0.90439808 -0.17129539 0.073747218 1.7266896e-38
0.90439808 -0.16879538 0.07124722 1.6714088e-38
0.90439808 -0.16879538 0.073747218 1.7544206e-38
0.90689808 -0.17129539 0.073747218 1.7177922e-38
0.90439808 -0.17129539 0.076247215 1.3687086e-38
0.90439808 -0.17129539 0.078747213 8.6328954e-39
0.90439808 -0.17879538 0.081247218 1.3812777e-38
0.90439808 -0.17629538 0.081247218 1.2889335e-38
0.90439808 -0.17379539 0.081247218 1.445702e-38
0.90689808 -0.17629538 0.083747216 1.4180105e-38
0.90689808 -0.17379539 0.083747216 1.7497713e-38
0.90439808 -0.17629538 0.086247213 1.9062177e-38
0.90439808 -0.17629538 0.088747218 1.9524945e-38
0.90439808 -0.17379539 0.086247213 1.6203754e-38
0.90439808 -0.17379539 0.088747218 1.6298456e-38
0.90689808 -0.17379539 0.088747218 1.6206977e-38
0.90439808 -0.17129539 0.081247218 1.5464765e-38
0.90439808 -0.16879538 0.081247218 1.4441901e-38
0.90689808 -0.17129539 0.083747216 1.8328547e-38
0.90439808 -0.17129539 0.086247213 1.6114425e-38
0.90439808 -0.17129539 0.088747218 1.6021508e-38
0.90439808 -0.16879538 0.086247213 1.6391372e-38
0.90439808 -0.16879538 0.088747218 1.6299157e-38
0.90689808 -0.17129539 0.086247213 1.6299175e-38
0.90689808 -0.17129539 0.088747218 1.6298116e-38
0.90689808 -0.16879538 0.088747218 1.7129653e-38
0.90439808 -0.17629538 0.091247216 1.5655994e-38
0.90439808 -0.17379539 0.091247216 1.6206621e-38
0.90439808 -0.17379539 0.093747213 1.2337306e-38
0.90439808 -0.17379539 0.096247219 1.224618e-38
0.90439808 -0.17379539 0.098747216 1.2707878e-38
0.90439808 -0.17129539 0.091247216 1.620627e-38
0.90439808 -0.17129539 0.093747213 1.4273412e-38
0.90439808 -0.16879538 0.091247216 1.7220782e-38
0.90439808 -0.16879538 0.093747213 1.4918781e-38
0.90439808 -0.17129539 0.096247219 1.4459595e-38
0.90439808 -0.17129539 0.098747216 1.5105315e-38
0.90439808 -0.16879538 0.096247219 1.5104965e-38
0.90439808 -0.16879538 0.098747216 1.5013119e-38
0.90439808 -0.17379539 0.10374722 9.9434612e-39
0.90439808 -0.17129539 0.10374722 1.2891544e-38
0.90439808 -0.16879538 0.10374722 1.4367034e-38
0.90439808 -0.17129539 0.10874721 1.2223853e-38
0.90439808 -0.16879538 0.10874721 1.6018624e-38
0.90689808 -0.16879538 0.10874721 1.7486599e-38
0.90439808 -0.17379539 0.12874721 1.7910118e-38
0.90439808 -0.17129539 0.12874721 1.6989571e-38
0.90439808 -0.16879538 0.12624721 1.6346718e-38
0.90439808 -0.16879538 0.12874721 1.671406e-38
0.90689808 -0.17379539 0.13124722 1.8001966e-38
0.90439808 -0.17129539 0.13124722 1.7081408e-38
0.90439808 -0.16879538 0.13124722 1.7356917e-38
0.90689808 -0.17129539 0.13124722 1.7356945e-38
0.90689808 -0.17129539 0.13374722 1.6163047e-38
0.90689808 -0.16879538 0.13124722 1.6530394e-38
0.90689808 -0.16879538 0.13374722 1.6254883e-38
0.90939808 -0.16879538 0.13124722 1.7726434e-38
0.90939808 -0.16879538 0.13374722 1.5244692e-38
0.91189808 -0.16879538 0.13374722 1.570387e-38
0.90439808 -0.16629538 0.068747215 1.6898121e-38
0.90439808 -0.16379538 0.068747215 1.6898121e-38
0.90689808 -0.16629538 0.066247217 1.6715525e-38
0.90689808 -0.16629538 0.068747215 1.6806273e-38
0.90689808 -0.16379538 0.066247217 1.6715525e-38
0.90689808 -0.16379538 0.068747215 1.6898827e-38
0.90439808 -0.16129538 0.068747215 1.6715525e-38
0.90439808 -0.15879539 0.068747215 1.6438601e-38
0.90689808 -0.16129538 0.066247217 1.671695e-38
0.90689808 -0.15879539 0.066247217 1.6897743e-38
0.90689808 -0.15879539 0.068747215 1.6898827e-38
0.90439808 -0.16629538 0.07124722 1.7082152e-38
0.90439808 -0.16629538 0.073747218 1.7543487e-38
0.90439808 -0.16379538 0.07124722 1.7082152e-38
0.90439808 -0.16379538 0.073747218 1.7359096e-38
0.90689808 -0.16379538 0.073747218 1.7360519e-38
0.90439808 -0.16629538 0.076247215 1.49782e-38
0.90439808 -0.16629538 0.078747213 1.1481236e-38
0.90439808 -0.16379538 0.076247215 1.5158999e-38
0.90439808 -0.16379538 0.078747213 1.1667054e-38
0.90439808 -0.16129538 0.07124722 1.7081423e-38
0.90439808 -0.16129538 0.073747218 1.7174701e-38
0.90439808 -0.15879539 0.07124722 1.7174335e-38
0.90439808 -0.15879539 0.073747218 1.7266533e-38
0.90689808 -0.16129538 0.073747218 1.7266896e-38
0.90689808 -0.15879539 0.07124722 1.6989944e-38
0.90689808 -0.15879539 0.073747218 1.7359093e-38
0.90439808 -0.16129538 0.076247215 1.5525241e-38
0.90439808 -0.16129538 0.078747213 1.4422503e-38
0.90439808 -0.15879539 0.076247215 1.7083934e-38
0.90439808 -0.15879539 0.078747213 1.6167016e-38
0.90689808 -0.16129538 0.078747213 1.2592266e-38
0.90689808 -0.15879539 0.078747213 1.3415547e-38
0.90939808 -0.15879539 0.07124722 1.7265454e-38
0.90689808 -0.15629539 0.066247217 1.6622232e-38
0.90689808 -0.15629539 0.068747215 1.6716246e-38
0.90689808 -0.15379539 0.066247217 1.6438568e-38
0.90689808 -0.15379539 0.068747215 1.6808442e-38
0.90689808 -0.15129538 0.068747215 1.6900265e-38
0.90939808 -0.15129538 0.066247217 1.6808442e-38
0.90939808 -0.14879538 0.066247217 1.7083951e-38
0.91189808 -0.15129538 0.068747215 1.6991742e-38
0.91189808 -0.14879538 0.068747215 1.6806273e-38
0.90439808 -0.15629539 0.07124722 1.6897748e-38
0.90689808 -0.15629539 0.07124722 1.7082858e-38
0.90689808 -0.15629539 0.073747218 1.7174701e-38
0.90689808 -0.15379539 0.07124722 1.7082858e-38
0.90689808 -0.15379539 0.073747218 1.7081783e-38
0.90439808 -0.15629539 0.076247215 1.6624035e-38
0.90439808 -0.15629539 0.078747213 1.6259211e-38
0.90439808 -0.15379539 0.076247215 1.6897771e-38
0.90439808 -0.15379539 0.078747213 1.6903156e-38
0.90689808 -0.15629539 0.078747213 1.3599938e-38
0.90689808 -0.15379539 0.078747213 1.3414838e-38
0.90689808 -0.15129538 0.07124722 1.708284e-38
0.90689808 -0.15129538 0.073747218 1.7265086e-38
0.90689808 -0.14879538 0.07124722 1.6991742e-38
0.90689808 -0.14879538 0.073747218 1.6989586e-38
0.90439808 -0.15129538 0.076247215 1.7081423e-38
0.90439808 -0.15129538 0.078747213 1.7178298e-38
0.90689808 -0.15129538 0.078747213 1.4611579e-38
0.90689808 -0.14879538 0.078747213 1.4705213e-38
0.90939808 -0.15629539 0.07124722 1.6898827e-38
0.90939808 -0.15379539 0.07124722 1.7081436e-38
0.90939808 -0.15629539 0.076247215 1.6259211e-38
0.90939808 -0.15379539 0.076247215 1.6995351e-38
0.90939808 -0.15129538 0.07124722 1.7173249e-38
0.90939808 -0.15129538 0.073747218 1.6989598e-38
0.90939808 -0.14879538 0.07124722 1.6989588e-38
0.90939808 -0.14879538 0.073747218 1.6989599e-38
0.91189808 -0.15129538 0.07124722 1.6991035e-38
0.91189808 -0.14879538 0.07124722 1.7175054e-38
0.91189808 -0.14879538 0.073747218 1.7637827e-38
0.90939808 -0.15129538 0.076247215 1.7177594e-38
0.90939808 -0.14879538 0.076247215 1.7178298e-38
0.90939808 -0.14879538 0.078747213 1.4611579e-38
0.90439808 -0.16629538 0.081247218 1.2044816e-38
0.90439808 -0.16379538 0.081247218 1.0933805e-38
0.90689808 -0.16379538 0.083747216 1.5841786e-38
0.90439808 -0.16629538 0.086247213 1.6299175e-38
0.90439808 -0.16629538 0.088747218 1.6114766e-38
0.90439808 -0.16379538 0.086247213 1.6207003e-38
0.90439808 -0.16379538 0.088747218 1.5930412e-38
0.90689808 -0.16629538 0.088747218 1.7129653e-38
0.90689808 -0.16379538 0.088747218 1.6760148e-38
0.90439808 -0.16129538 0.081247218 1.2039446e-38
0.90439808 -0.15879539 0.081247218 1.2592619e-38
0.90689808 -0.16129538 0.083747216 1.6303435e-38
0.90689808 -0.15879539 0.083747216 1.6026488e-38
0.90439808 -0.16129538 0.086247213 1.5748517e-38
0.90439808 -0.16129538 0.088747218 1.4364866e-38
0.90439808 -0.15879539 0.086247213 1.6947063e-38
0.90439808 -0.15879539 0.088747218 1.5102431e-38
0.90689808 -0.16129538 0.088747218 1.4640371e-38
0.90689808 -0.15879539 0.086247213 1.6854864e-38
0.90689808 -0.15879539 0.088747218 1.4825121e-38
0.90939808 -0.15879539 0.088747218 1.3077011e-38
0.90439808 -0.16629538 0.091247216 1.6944889e-38
0.90439808 -0.16379538 0.091247216 1.6852343e-38
0.90439808 -0.16629538 0.096247219 1.6209492e-38
0.90439808 -0.16379538 0.096247219 1.6855217e-38
0.90439808 -0.16129538 0.091247216 1.4920188e-38
0.90439808 -0.16129538 0.093747213 1.4460299e-38
0.90439808 -0.15879539 0.091247216 1.4827992e-38
0.90439808 -0.15879539 0.093747213 1.4919485e-38
0.90689808 -0.15879539 0.091247216 1.3074127e-38
0.90439808 -0.16129538 0.096247219 1.574887e-38
0.90439808 -0.16129538 0.098747216 1.639282e-38
0.90439808 -0.15879539 0.096247219 1.5380478e-38
0.90439808 -0.15879539 0.098747216 1.8328928e-38
0.90439808 -0.15629539 0.081247218 1.1869453e-38
0.90439808 -0.15379539 0.081247218 8.9166639e-39
0.90689808 -0.15629539 0.081247218 1.2421543e-38
0.90689808 -0.15629539 0.083747216 1.399356e-38
0.90689808 -0.15379539 0.081247218 9.4694902e-39
0.90689808 -0.15379539 0.083747216 1.4267298e-38
0.90689808 -0.15629539 0.086247213 1.6483215e-38
0.90689808 -0.15629539 0.088747218 1.35369e-38
0.90689808 -0.15379539 0.086247213 1.7404082e-38
0.90439808 -0.15129538 0.081247218 1.0657222e-38
0.90689808 -0.15129538 0.083747216 1.5086214e-38
0.90689808 -0.14879538 0.081247218 9.4590561e-39
0.90689808 -0.14879538 0.083747216 1.204376e-38
0.90689808 -0.15129538 0.086247213 1.7314403e-38
0.90689808 -0.14879538 0.086247213 1.7129653e-38
0.90939808 -0.15629539 0.088747218 1.3812777e-38
0.90939808 -0.15379539 0.088747218 1.4088275e-38
0.90939808 -0.14879538 0.081247218 1.1757464e-38
0.90939808 -0.14879538 0.083747216 1.904631e-38
0.90939808 -0.15129538 0.088747218 1.2431642e-38
0.90939808 -0.14879538 0.086247213 1.822805e-38
0.90939808 -0.14879538 0.088747218 1.4829088e-38
0.91189808 -0.14879538 0.086247213 1.5922796e-38
0.91189808 -0.14879538 0.088747218 1.4450903e-38
0.90439808 -0.15629539 0.091247216 1.2985519e-38
0.90439808 -0.15629539 0.093747213 1.5189878e-38
0.90689808 -0.15629539 0.091247216 1.2708932e-38
0.90689808 -0.15379539 0.091247216 1.3537649e-38
0.90439808 -0.15629539 0.096247219 1.620481e-38
0.90439808 -0.15629539 0.098747216 1.7960105e-38
0.90439808 -0.15379539 0.098747216 1.8786972e-38
0.90689808 -0.15629539 0.096247219 1.6202687e-38
0.90689808 -0.15379539 0.096247219 1.0213908e-38
0.90689808 -0.15129538 0.091247216 1.2523137e-38
0.90689808 -0.15129538 0.096247219 1.6942361e-38
0.90689808 -0.15129538 0.098747216 1.629769e-38
0.90689808 -0.14879538 0.098747216 1.381026e-38
0.90939808 -0.15379539 0.091247216 8.1020247e-39
0.90939808 -0.15379539 0.093747213 1.058341e-38
0.90939808 -0.15129538 0.091247216 1.5289356e-38
0.90939808 -0.15129538 0.093747213 1.4915885e-38
0.90939808 -0.14879538 0.091247216 1.5381552e-38
0.90939808 -0.14879538 0.093747213 1.556557e-38
0.90939808 -0.15129538 0.096247219 1.6850175e-38
0.90939808 -0.15129538 0.098747216 1.5376122e-38
0.90939808 -0.14879538 0.096247219 1.5009895e-38
0.90939808 -0.14879538 0.098747216 1.3350354e-38
0.91189808 -0.14879538 0.098747216 1.3625879e-38
0.90939808 -0.14629538 0.066247217 1.6899559e-38
0.90939808 -0.14379539 0.066247217 1.6532934e-38
0.91189808 -0.14629538 0.068747215 1.6899546e-38
0.91189808 -0.14379539 0.068747215 1.6716246e-38
0.91189808 -0.14129539 0.068747215 1.6899208e-38
0.90689808 -0.14629538 0.07124722 1.6899546e-38
0.90939808 -0.14629538 0.07124722 1.7081783e-38
0.90939808 -0.14629538 0.073747218 1.6989599e-38
0.90939808 -0.14379539 0.073747218 1.7265454e-38
0.91189808 -0.14629538 0.07124722 1.7081783e-38
0.91189808 -0.14629538 0.073747218 1.7177575e-38
0.91189808 -0.14379539 0.07124722 1.6898121e-38
0.91189808 -0.14379539 0.073747218 1.7910455e-38
0.90939808 -0.14629538 0.078747213 1.1665619e-38
0.90939808 -0.14379539 0.078747213 1.2958901e-38
0.91189808 -0.14629538 0.076247215 1.50661e-38
0.91189808 -0.14379539 0.076247215 1.6536503e-38
0.91189808 -0.14379539 0.078747213 1.7015509e-38
0.91189808 -0.14129539 0.07124722 1.708249e-38
0.91189808 -0.13879539 0.07124722 1.708249e-38
0.91189808 -0.14129539 0.078747213 1.8650887e-38
0.91189808 -0.13629538 0.07124722 1.7082858e-38
0.91439807 -0.14129539 0.066247217 1.6991035e-38
0.91439807 -0.14129539 0.068747215 1.6898827e-38
0.91439807 -0.13879539 0.066247217 1.6991035e-38
0.91439807 -0.13879539 0.068747215 1.6898827e-38
0.91439807 -0.14379539 0.073747218 1.7634957e-38
0.91439807 -0.14379539 0.078747213 1.7676678e-38
0.91439807 -0.14129539 0.07124722 1.7265091e-38
0.91439807 -0.14129539 0.073747218 1.6714796e-38
0.91439807 -0.13879539 0.07124722 1.6990294e-38
0.91439807 -0.13879539 0.073747218 1.6990294e-38
0.91689807 -0.14129539 0.07124722 1.7173269e-38
0.91689807 -0.14129539 0.073747218 1.6805918e-38
0.91689807 -0.13879539 0.07124722 1.6899546e-38
0.91689807 -0.13879539 0.073747218 1.6346718e-38
0.91439807 -0.14129539 0.076247215 1.8285346e-38
0.91439807 -0.14129539 0.078747213 2.015305e-38
0.91439807 -0.13879539 0.076247215 1.6257042e-38
0.91439807 -0.13879539 0.078747213 1.8112792e-38
0.91689807 -0.13879539 0.078747213 1.720279e-38
0.91439807 -0.13629538 0.068747215 1.6808442e-38
0.91689807 -0.13629538 0.068747215 1.7081423e-38
0.91689807 -0.13379538 0.068747215 1.7081423e-38
0.91689807 -0.13129538 0.068747215 1.6899546e-38
0.91689807 -0.12879539 0.068747215 1.6899546e-38
0.92189807 -0.13379538 0.066247217 1.7081423e-38
0.92189807 -0.13379538 0.068747215 1.7081423e-38
0.92189807 -0.13129538 0.066247217 1.6989588e-38
0.92189807 -0.13129538 0.068747215 1.7174701e-38
0.92189807 -0.12879539 0.066247217 1.7174338e-38
0.92189807 -0.12879539 0.068747215 1.7174701e-38
0.91439807 -0.13629538 0.07124722 1.7081783e-38
0.91439807 -0.13629538 0.073747218 1.6716581e-38
0.91439807 -0.13379538 0.07124722 1.7449846e-38
0.91689807 -0.13629538 0.07124722 1.6991742e-38
0.91689807 -0.13629538 0.073747218 1.6899556e-38
0.91689807 -0.13379538 0.07124722 1.6899546e-38
0.91689807 -0.13379538 0.073747218 1.735765e-38
0.91439807 -0.13629538 0.076247215 1.6163047e-38
