# .PCD v0.7 - Point Cloud Data file format
VERSION 0.7
FIELDS x y z rgb
SIZE 4 4 4 4
TYPE F F F F
COUNT 1 1 1 1
WIDTH 1011
HEIGHT 1
VIEWPOINT 0 0 0 1 0 0 0
POINTS 1011
DATA ascii
0.88394713 -0.2121112 0.13184029 1.5979376e-38
0.88644713 -0.2121112 0.12934029 1.6071212e-38
0.88644713 -0.2121112 0.13184029 1.717325e-38
0.87644714 -0.20961121 0.12684028 1.4601849e-38
0.87644714 -0.20711119 0.12684028 1.4510008e-38
0.87894714 -0.20961121 0.12684028 1.4510008e-38
0.87894714 -0.20711119 0.12684028 1.478553e-38
0.87894714 -0.2046112 0.12684028 1.5520209e-38
0.88394713 -0.20961121 0.10934028 1.8743809e-38
0.88394713 -0.20711119 0.10934028 1.570387e-38
0.88644713 -0.20961121 0.10934028 1.8005891e-38
0.88644713 -0.20711119 0.10934028 1.6346728e-38
0.88894713 -0.20961121 0.10934028 1.6163047e-38
0.88894713 -0.20961121 0.11184029 1.5795745e-38
0.88894713 -0.20711119 0.10934028 1.6346718e-38
0.88894713 -0.20711119 0.11184029 1.6438555e-38
0.88644713 -0.20961121 0.11434028 1.5336529e-38
0.88644713 -0.20711119 0.11434028 1.62556e-38
0.88894713 -0.20961121 0.11684028 1.4877356e-38
0.88894713 -0.20711119 0.11684028 1.5979416e-38
0.88894713 -0.2046112 0.10934028 1.6622229e-38
0.88894713 -0.2046112 0.11184029 1.6438559e-38
0.88894713 -0.2021112 0.10934028 1.634673e-38
0.88894713 -0.2021112 0.11184029 1.6071217e-38
0.88644713 -0.2046112 0.11434028 1.5979376e-38
0.88644713 -0.2021112 0.11434028 1.5887548e-38
0.88894713 -0.2046112 0.11684028 1.5979383e-38
0.88894713 -0.2021112 0.11684028 1.5612037e-38
0.88394713 -0.20711119 0.12184028 1.5703885e-38
0.88144714 -0.20961121 0.12434028 1.4601847e-38
0.88144714 -0.20961121 0.12684028 1.5336528e-38
0.88144714 -0.20711119 0.12434028 1.5428375e-38
0.88144714 -0.20711119 0.12684028 1.6071217e-38
0.88394713 -0.20961121 0.12684028 1.5612034e-38
0.88394713 -0.20711119 0.12684028 1.5336533e-38
0.88394713 -0.2046112 0.12184028 1.5703874e-38
0.88144714 -0.2046112 0.12434028 1.570387e-38
0.88144714 -0.2046112 0.12684028 1.6530389e-38
0.88144714 -0.2021112 0.12434028 1.5428363e-38
0.88144714 -0.2021112 0.12684028 1.6071212e-38
0.88394713 -0.2046112 0.12684028 1.5795705e-38
0.88394713 -0.2021112 0.12684028 1.5612034e-38
0.88644713 -0.20961121 0.11934029 1.496919e-38
0.88644713 -0.20961121 0.12184028 1.4693685e-38
0.88644713 -0.20711119 0.11934029 1.5795738e-38
0.88644713 -0.20711119 0.12184028 1.5703875e-38
0.88894713 -0.20961121 0.11934029 1.478552e-38
0.88894713 -0.20961121 0.12184028 1.478553e-38
0.88894713 -0.20711119 0.11934029 1.5888998e-38
0.88894713 -0.20711119 0.12184028 1.5520227e-38
0.88644713 -0.20961121 0.12434028 1.5428363e-38
0.88644713 -0.20961121 0.12684028 1.6346724e-38
0.88644713 -0.20711119 0.12434028 1.5703898e-38
0.88644713 -0.20711119 0.12684028 1.6163052e-38
0.88894713 -0.20961121 0.12684028 1.6530389e-38
0.88894713 -0.20711119 0.12434028 1.6163052e-38
0.88894713 -0.20711119 0.12684028 1.6438554e-38
0.88644713 -0.2046112 0.11934029 1.55202e-38
0.88644713 -0.2046112 0.12184028 1.5428363e-38
0.88644713 -0.2021112 0.11934029 1.5336528e-38
0.88644713 -0.2021112 0.12184028 1.5336528e-38
0.88894713 -0.2046112 0.11934029 1.5703875e-38
0.88894713 -0.2046112 0.12184028 1.5612034e-38
0.88894713 -0.2021112 0.11934029 1.570387e-38
0.88894713 -0.2021112 0.12184028 1.4969186e-38
0.88644713 -0.2046112 0.12434028 1.570387e-38
0.88644713 -0.2046112 0.12684028 1.6071212e-38
0.88644713 -0.2021112 0.12434028 1.5795705e-38
0.88644713 -0.2021112 0.12684028 1.5979376e-38
0.88894713 -0.2046112 0.12434028 1.6163047e-38
0.88894713 -0.2046112 0.12684028 1.6438554e-38
0.88894713 -0.2021112 0.12434028 1.5795705e-38
0.88894713 -0.2021112 0.12684028 1.6163047e-38
0.88894713 -0.1996112 0.10934028 1.625489e-38
0.88894713 -0.1996112 0.11184029 1.5703873e-38
0.88894713 -0.1971112 0.10934028 1.6622244e-38
0.88894713 -0.1971112 0.11184029 1.5703873e-38
0.88644713 -0.1996112 0.11434028 1.6071217e-38
0.88894713 -0.1996112 0.11684028 1.55202e-38
0.88894713 -0.1971112 0.11684028 1.55202e-38
0.88894713 -0.19461121 0.11184029 1.5979381e-38
0.88894713 -0.19211119 0.11184029 1.6438564e-38
0.88894713 -0.19461121 0.11684028 1.5612039e-38
0.88894713 -0.19211119 0.11684028 1.561204e-38
0.88144714 -0.1996112 0.12434028 1.5428363e-38
0.88144714 -0.1971112 0.12434028 1.5336528e-38
0.88394713 -0.1996112 0.12684028 1.5612034e-38
0.88394713 -0.1971112 0.12684028 1.5152857e-38
0.88644713 -0.1996112 0.11934029 1.5336528e-38
0.88644713 -0.1996112 0.12184028 1.5336528e-38
0.88644713 -0.1971112 0.11934029 1.5152857e-38
0.88644713 -0.1971112 0.12184028 1.5336528e-38
0.88894713 -0.1996112 0.12184028 1.5336529e-38
0.88894713 -0.1971112 0.11934029 1.5336528e-38
0.88894713 -0.1971112 0.12184028 1.5336529e-38
0.88644713 -0.1996112 0.12434028 1.5244692e-38
0.88644713 -0.1996112 0.12684028 1.570387e-38
0.88644713 -0.1971112 0.12434028 1.5336528e-38
0.88644713 -0.1971112 0.12684028 1.5612034e-38
0.88894713 -0.1996112 0.12434028 1.5612034e-38
0.88894713 -0.1996112 0.12684028 1.5612034e-38
0.88894713 -0.1971112 0.12434028 1.5612034e-38
0.88894713 -0.1971112 0.12684028 1.5795705e-38
0.88644713 -0.19461121 0.11934029 1.5244712e-38
0.88644713 -0.19461121 0.12184028 1.5244692e-38
0.88894713 -0.19461121 0.11934029 1.5244692e-38
0.88894713 -0.19461121 0.12184028 1.5061021e-38
0.88894713 -0.19211119 0.11934029 1.5336528e-38
0.88894713 -0.19211119 0.12184028 1.5336529e-38
0.88644713 -0.19461121 0.12434028 1.5244692e-38
0.88644713 -0.19461121 0.12684028 1.5336528e-38
0.88644713 -0.19211119 0.12434028 1.5244692e-38
0.88644713 -0.19211119 0.12684028 1.5244692e-38
0.88894713 -0.19461121 0.12434028 1.5612034e-38
0.88894713 -0.19461121 0.12684028 1.5703875e-38
0.88894713 -0.19211119 0.12434028 1.5887544e-38
0.88894713 -0.19211119 0.12684028 1.570387e-38
0.87644714 -0.20961121 0.12934029 1.6438568e-38
0.87644714 -0.20711119 0.12934029 1.6163054e-38
0.87894714 -0.20961121 0.12934029 1.6989574e-38
0.87894714 -0.20961121 0.13184029 1.6254883e-38
0.87894714 -0.20711119 0.12934029 1.6071213e-38
0.87894714 -0.20711119 0.13184029 1.616305e-38
0.87894714 -0.20961121 0.13434029 1.6622225e-38
0.87894714 -0.20711119 0.13434029 1.6438554e-38
0.87894714 -0.2046112 0.12934029 1.6163049e-38
0.87894714 -0.2046112 0.13184029 1.6163049e-38
0.87894714 -0.2046112 0.13434029 1.6438554e-38
0.88144714 -0.20961121 0.13184029 1.5887541e-38
0.88144714 -0.20711119 0.13184029 1.5979376e-38
0.88394713 -0.20961121 0.12934029 1.6622226e-38
0.88394713 -0.20961121 0.13184029 1.6805896e-38
0.88394713 -0.20711119 0.12934029 1.6346718e-38
0.88394713 -0.20711119 0.13184029 1.6530396e-38
0.88144714 -0.20961121 0.13434029 1.7265073e-38
0.88144714 -0.20711119 0.13434029 1.7448744e-38
0.88144714 -0.2046112 0.13184029 1.6254887e-38
0.88144714 -0.2021112 0.13184029 1.6163047e-38
0.88394713 -0.2046112 0.12934029 1.6254883e-38
0.88394713 -0.2046112 0.13184029 1.6346718e-38
0.88394713 -0.2021112 0.12934029 1.6163047e-38
0.88394713 -0.2021112 0.13184029 1.6254883e-38
0.88144714 -0.2046112 0.13434029 1.7356909e-38
0.88144714 -0.2046112 0.13684028 1.8091615e-38
0.88144714 -0.2021112 0.13434029 1.7081402e-38
0.88394713 -0.2046112 0.13434029 1.8183432e-38
0.88644713 -0.20961121 0.12934029 1.6622225e-38
0.88644713 -0.20961121 0.13184029 1.7265073e-38
0.88644713 -0.20711119 0.12934029 1.6438554e-38
0.88644713 -0.20711119 0.13184029 1.7265096e-38
0.88894713 -0.20961121 0.12934029 1.7448744e-38
0.88894713 -0.20711119 0.12934029 1.6622225e-38
0.88644713 -0.2046112 0.12934029 1.6163047e-38
0.88644713 -0.2046112 0.13184029 1.7265073e-38
0.88644713 -0.2021112 0.12934029 1.6163047e-38
0.88644713 -0.2021112 0.13184029 1.7081402e-38
0.88894713 -0.2046112 0.12934029 1.6989568e-38
0.88894713 -0.2021112 0.12934029 1.6163047e-38
0.88894713 -0.2021112 0.13184029 1.8368562e-38
0.88644713 -0.2021112 0.13434029 1.8091596e-38
0.88144714 -0.1996112 0.13184029 1.6163047e-38
0.88394713 -0.1996112 0.12934029 1.6163047e-38
0.88394713 -0.1996112 0.13184029 1.6071212e-38
0.88144714 -0.1996112 0.13434029 1.7173238e-38
0.88394713 -0.1996112 0.13434029 1.8826289e-38
0.88644713 -0.1996112 0.12934029 1.6163047e-38
0.88894713 -0.1996112 0.12934029 1.6071212e-38
0.88894713 -0.1971112 0.12934029 1.7081402e-38
0.88894713 -0.19461121 0.12934029 1.6805896e-38
0.88894713 -0.19211119 0.12934029 1.6530389e-38
0.89144713 -0.2196112 0.11184029 1.8678251e-38
0.89144713 -0.2171112 0.11184029 1.8495654e-38
0.89394712 -0.2171112 0.10934028 1.8497456e-38
0.89394712 -0.2171112 0.11184029 1.8590371e-38
0.89144713 -0.2171112 0.11684028 1.8866607e-38
0.89144713 -0.2146112 0.11184029 2.235309e-38
0.89144713 -0.2121112 0.11184029 1.645257e-38
0.89394712 -0.2121112 0.10934028 1.5520199e-38
0.89144713 -0.2146112 0.11434028 2.2623954e-38
0.89144713 -0.2146112 0.11684028 1.877728e-38
0.89144713 -0.2121112 0.11434028 1.5801119e-38
0.89144713 -0.2121112 0.11684028 1.5430174e-38
0.89644712 -0.2171112 0.11184029 1.8959158e-38
0.89144713 -0.2146112 0.11934029 1.8593633e-38
0.89144713 -0.2121112 0.11934029 2.3079522e-38
0.89144713 -0.20961121 0.11184029 1.5428394e-38
0.89144713 -0.20711119 0.11184029 1.6438554e-38
0.89394712 -0.20961121 0.10934028 1.6071252e-38
0.89394712 -0.20961121 0.11184029 1.5887558e-38
0.89394712 -0.20711119 0.10934028 1.6530396e-38
0.89394712 -0.20711119 0.11184029 1.5795712e-38
0.89144713 -0.20961121 0.11434028 1.524472e-38
0.89144713 -0.20961121 0.11684028 1.4877376e-38
0.89144713 -0.20711119 0.11434028 1.6071212e-38
0.89144713 -0.20711119 0.11684028 1.6254901e-38
0.89144713 -0.2046112 0.11184029 1.6254883e-38
0.89144713 -0.2021112 0.11184029 1.6071217e-38
0.89394712 -0.2046112 0.10934028 1.5887541e-38
0.89394712 -0.2021112 0.10934028 1.6071212e-38
0.89144713 -0.2046112 0.11434028 1.5795715e-38
0.89144713 -0.2046112 0.11684028 1.5795718e-38
0.89144713 -0.2021112 0.11434028 1.5979386e-38
0.89144713 -0.2021112 0.11684028 1.5612037e-38
0.89144713 -0.20961121 0.11934029 1.4510008e-38
0.89144713 -0.20711119 0.11934029 1.5520209e-38
0.89144713 -0.20961121 0.12684028 1.6530389e-38
0.89144713 -0.20711119 0.12684028 1.6622225e-38
0.89144713 -0.2046112 0.12684028 1.6438557e-38
0.89144713 -0.2021112 0.12684028 1.6071212e-38
0.89144713 -0.1996112 0.11184029 1.6071217e-38
0.89144713 -0.1971112 0.11184029 1.5979379e-38
0.89394712 -0.1996112 0.10934028 1.5979376e-38
0.89394712 -0.1971112 0.10934028 1.6163052e-38
0.89144713 -0.1996112 0.11434028 1.561204e-38
0.89144713 -0.1971112 0.11434028 1.5795707e-38
0.89144713 -0.1971112 0.11684028 1.5428365e-38
0.89144713 -0.19461121 0.11184029 1.5795707e-38
0.89144713 -0.19211119 0.11184029 1.6438554e-38
0.89394712 -0.19461121 0.10934028 1.6163052e-38
0.89394712 -0.19461121 0.11184029 1.6163047e-38
0.89394712 -0.19211119 0.10934028 1.6346718e-38
0.89394712 -0.19211119 0.11184029 1.6254883e-38
0.89144713 -0.19461121 0.11434028 1.5795707e-38
0.89144713 -0.19461121 0.11684028 1.5612034e-38
0.89144713 -0.19211119 0.11434028 1.6071212e-38
0.89144713 -0.19211119 0.11684028 1.5887541e-38
0.89394712 -0.19211119 0.11434028 1.570387e-38
0.89394712 -0.19211119 0.11684028 1.5428363e-38
0.89644712 -0.19211119 0.11184029 1.5979376e-38
0.89644712 -0.19211119 0.11434028 1.570387e-38
0.89144713 -0.1996112 0.12684028 1.5979376e-38
0.89144713 -0.1971112 0.12684028 1.6163047e-38
0.89394712 -0.1971112 0.12434028 1.5612034e-38
0.89144713 -0.19461121 0.11934029 1.5244692e-38
0.89144713 -0.19461121 0.12184028 1.5336528e-38
0.89144713 -0.19211119 0.11934029 1.5428363e-38
0.89144713 -0.19211119 0.12184028 1.5612034e-38
0.89394712 -0.19211119 0.11934029 1.5428363e-38
0.89144713 -0.19461121 0.12434028 1.5612034e-38
0.89144713 -0.19461121 0.12684028 1.5612037e-38
0.89144713 -0.19211119 0.12434028 1.5428363e-38
0.89144713 -0.19211119 0.12684028 1.6254883e-38
0.89394712 -0.19461121 0.12434028 1.579571e-38
0.89394712 -0.19461121 0.12684028 1.5979376e-38
0.89394712 -0.19211119 0.12434028 1.5795705e-38
0.89394712 -0.19211119 0.12684028 1.6254883e-38
0.89644712 -0.19211119 0.12184028 1.5520199e-38
0.89644712 -0.19461121 0.12684028 1.6530389e-38
0.89644712 -0.19211119 0.12434028 1.5795705e-38
0.89644712 -0.19211119 0.12684028 1.6530389e-38
0.89144713 -0.20961121 0.12934029 1.735691e-38
0.89144713 -0.20711119 0.12934029 1.7173238e-38
0.89144713 -0.20711119 0.13184029 1.7999761e-38
0.89144713 -0.2046112 0.12934029 1.7265073e-38
0.89144713 -0.2046112 0.13184029 1.8091615e-38
0.89144713 -0.2021112 0.12934029 1.6897731e-38
0.89144713 -0.2021112 0.13184029 1.8183449e-38
0.89394712 -0.2046112 0.12934029 1.8458949e-38
0.89394712 -0.2021112 0.12934029 1.8367137e-38
0.89144713 -0.1996112 0.12934029 1.6989567e-38
0.89144713 -0.1996112 0.13184029 1.8645149e-38
0.89144713 -0.1971112 0.12934029 1.68059e-38
0.89144713 -0.1971112 0.13184029 1.8551153e-38
0.89394712 -0.1996112 0.12934029 1.8734452e-38
0.89394712 -0.1996112 0.13184029 1.7632426e-38
0.89394712 -0.1971112 0.12934029 1.8645164e-38
0.89394712 -0.1971112 0.13184029 1.7907922e-38
0.89144713 -0.19461121 0.12934029 1.6622225e-38
0.89144713 -0.19461121 0.13184029 1.8367106e-38
0.89144713 -0.19211119 0.12934029 1.6622225e-38
0.89144713 -0.19211119 0.13184029 1.7448744e-38
0.89394712 -0.19461121 0.12934029 1.8367115e-38
0.89394712 -0.19461121 0.13184029 1.7356952e-38
0.89394712 -0.19211119 0.12934029 1.7356909e-38
0.89644712 -0.1971112 0.12934029 1.7816833e-38
0.89644712 -0.19461121 0.12934029 1.735691e-38
0.89644712 -0.19211119 0.12934029 1.6989567e-38
0.88894713 -0.1896112 0.11184029 1.6346718e-38
0.88894713 -0.1871112 0.11184029 1.6346718e-38
0.88894713 -0.1896112 0.11684028 1.5979376e-38
0.88894713 -0.1896112 0.11934029 1.5428365e-38
0.88894713 -0.1896112 0.12184028 1.5428363e-38
0.88894713 -0.1871112 0.11934029 1.5612039e-38
0.88894713 -0.1871112 0.12184028 1.5428363e-38
0.88894713 -0.1896112 0.12434028 1.5612034e-38
0.88894713 -0.1871112 0.12434028 1.5428363e-38
0.88894713 -0.1846112 0.11934029 1.5612034e-38
0.88894713 -0.1821112 0.11934029 1.5612041e-38
0.88894713 -0.1821112 0.12184028 1.5612037e-38
0.88894713 -0.1846112 0.12434028 1.5336528e-38
0.88894713 -0.1821112 0.12434028 1.5336528e-38
0.88894713 -0.17961121 0.11934029 1.5795715e-38
0.88894713 -0.17961121 0.12184028 1.5612037e-38
0.88894713 -0.17711121 0.12184028 1.5612039e-38
0.88644713 -0.17711121 0.12684028 1.5428365e-38
0.88894713 -0.17961121 0.12434028 1.5244692e-38
0.88894713 -0.17711121 0.12434028 1.5612034e-38
0.88894713 -0.17711121 0.12684028 1.5612034e-38
0.88894713 -0.1746112 0.12184028 1.5887541e-38
0.88894713 -0.1721112 0.12184028 1.5612034e-38
0.88894713 -0.1746112 0.12434028 1.5612034e-38
0.88894713 -0.1721112 0.12434028 1.5428365e-38
0.88894713 -0.1871112 0.12934029 1.6254883e-38
0.88894713 -0.1696112 0.12434028 1.5703877e-38
0.89144713 -0.1896112 0.11184029 1.6163063e-38
0.89144713 -0.1871112 0.11184029 1.5520234e-38
0.89394712 -0.1896112 0.10934028 1.6438565e-38
0.89394712 -0.1896112 0.11184029 1.6530389e-38
0.89394712 -0.1871112 0.11184029 1.4877362e-38
0.89144713 -0.1896112 0.11434028 1.6346734e-38
0.89144713 -0.1896112 0.11684028 1.5887541e-38
0.89144713 -0.1871112 0.11434028 1.6254883e-38
0.89144713 -0.1871112 0.11684028 1.5887541e-38
0.89394712 -0.1896112 0.11434028 1.5795707e-38
0.89394712 -0.1896112 0.11684028 1.570387e-38
0.89394712 -0.1871112 0.11434028 1.6163061e-38
0.89394712 -0.1871112 0.11684028 1.570387e-38
0.89394712 -0.1846112 0.11184029 1.5888998e-38
0.89394712 -0.1821112 0.11184029 1.6369436e-38
0.89144713 -0.1846112 0.11434028 1.625489e-38
0.89144713 -0.1846112 0.11684028 1.5795712e-38
0.89144713 -0.1821112 0.11684028 1.5612061e-38
0.89394712 -0.1846112 0.11434028 1.6254898e-38
0.89394712 -0.1846112 0.11684028 1.5795712e-38
0.89394712 -0.1821112 0.11434028 1.6346732e-38
0.89394712 -0.1821112 0.11684028 1.5703898e-38
0.89644712 -0.1896112 0.10934028 1.6163059e-38
0.89644712 -0.1896112 0.11184029 1.6346718e-38
0.89644712 -0.1871112 0.10934028 1.5336564e-38
0.89644712 -0.1871112 0.11184029 1.579571e-38
0.89644712 -0.1896112 0.11434028 1.5979381e-38
0.89644712 -0.1896112 0.11684028 1.5336528e-38
0.89644712 -0.1871112 0.11434028 1.6071217e-38
0.89644712 -0.1871112 0.11684028 1.5428363e-38
0.89894712 -0.1871112 0.11684028 1.5428369e-38
0.89644712 -0.1846112 0.10934028 1.589008e-38
0.89644712 -0.1846112 0.11184029 1.5979383e-38
0.89644712 -0.1821112 0.10934028 1.7288518e-38
0.89644712 -0.1821112 0.11184029 1.5704587e-38
0.89894712 -0.1846112 0.11184029 1.5979383e-38
0.89894712 -0.1821112 0.10934028 1.7656934e-38
0.89894712 -0.1821112 0.11184029 1.6164126e-38
0.89644712 -0.1846112 0.11434028 1.6163059e-38
0.89644712 -0.1846112 0.11684028 1.5612039e-38
0.89644712 -0.1821112 0.11434028 1.5795715e-38
0.89644712 -0.1821112 0.11684028 1.570387e-38
0.89894712 -0.1846112 0.11434028 1.570387e-38
0.89894712 -0.1846112 0.11684028 1.5520199e-38
0.89894712 -0.1821112 0.11684028 1.5612043e-38
0.89144713 -0.1896112 0.11934029 1.5336528e-38
0.89144713 -0.1896112 0.12184028 1.5428363e-38
0.89144713 -0.1871112 0.11934029 1.5428363e-38
0.89144713 -0.1871112 0.12184028 1.5428363e-38
0.89394712 -0.1896112 0.11934029 1.5152858e-38
0.89394712 -0.1871112 0.11934029 1.5520206e-38
0.89144713 -0.1896112 0.12434028 1.5428363e-38
0.89144713 -0.1896112 0.12684028 1.5979376e-38
0.89144713 -0.1871112 0.12434028 1.5152857e-38
0.89144713 -0.1871112 0.12684028 1.5979376e-38
0.89394712 -0.1896112 0.12434028 1.5612034e-38
0.89394712 -0.1896112 0.12684028 1.6346718e-38
0.89394712 -0.1871112 0.12434028 1.5612034e-38
0.89394712 -0.1871112 0.12684028 1.6071212e-38
0.89144713 -0.1846112 0.11934029 1.5887541e-38
0.89144713 -0.1846112 0.12184028 1.5428363e-38
0.89144713 -0.1821112 0.11934029 1.561206e-38
0.89144713 -0.1821112 0.12184028 1.5612039e-38
0.89394712 -0.1846112 0.11934029 1.5336528e-38
0.89394712 -0.1821112 0.11934029 1.5428363e-38
0.89144713 -0.1846112 0.12434028 1.4969186e-38
0.89144713 -0.1846112 0.12684028 1.5795705e-38
0.89144713 -0.1821112 0.12434028 1.5428363e-38
0.89144713 -0.1821112 0.12684028 1.5795705e-38
0.89394712 -0.1846112 0.12434028 1.5612034e-38
0.89394712 -0.1846112 0.12684028 1.5795705e-38
0.89394712 -0.1821112 0.12434028 1.570387e-38
0.89394712 -0.1821112 0.12684028 1.5887541e-38
0.89644712 -0.1896112 0.11934029 1.5152858e-38
0.89644712 -0.1896112 0.12184028 1.487735e-38
0.89644712 -0.1871112 0.11934029 1.5244695e-38
0.89644712 -0.1871112 0.12184028 1.5152857e-38
0.89894712 -0.1871112 0.11934029 1.5244692e-38
0.89894712 -0.1871112 0.12184028 1.5612034e-38
0.89644712 -0.1896112 0.12434028 1.5612034e-38
0.89644712 -0.1896112 0.12684028 1.6530389e-38
0.89644712 -0.1871112 0.12434028 1.570387e-38
0.89644712 -0.1871112 0.12684028 1.634672e-38
0.89894712 -0.1871112 0.12434028 1.5612034e-38
0.89894712 -0.1871112 0.12684028 1.616305e-38
0.89644712 -0.1846112 0.11934029 1.5428365e-38
0.89644712 -0.1846112 0.12184028 1.5244692e-38
0.89644712 -0.1821112 0.11934029 1.570387e-38
0.89644712 -0.1821112 0.12184028 1.5612034e-38
0.89894712 -0.1846112 0.11934029 1.5612037e-38
0.89894712 -0.1846112 0.12184028 1.5612034e-38
0.89644712 -0.1846112 0.12434028 1.5428363e-38
0.89644712 -0.1846112 0.12684028 1.6071213e-38
0.89644712 -0.1821112 0.12434028 1.5520199e-38
0.89644712 -0.1821112 0.12684028 1.570387e-38
0.89894712 -0.1846112 0.12434028 1.6163047e-38
0.89894712 -0.1846112 0.12684028 1.6163047e-38
0.89894712 -0.1821112 0.12684028 1.6346718e-38
0.89144713 -0.17961121 0.11684028 1.5795736e-38
0.89394712 -0.17961121 0.11434028 1.5795705e-38
0.89394712 -0.17961121 0.11684028 1.5795707e-38
0.89394712 -0.17711121 0.11684028 1.5795707e-38
0.89644712 -0.17961121 0.10934028 1.738423e-38
0.89644712 -0.17961121 0.11184029 1.5894767e-38
0.89644712 -0.17711121 0.10934028 7.4490966e-39
0.89644712 -0.17711121 0.11184029 1.4786591e-38
0.89894712 -0.17961121 0.10934028 1.2775178e-38
0.89894712 -0.17961121 0.11184029 1.5435902e-38
0.89894712 -0.17711121 0.10934028 7.4498029e-39
0.89894712 -0.17711121 0.11184029 1.0840202e-38
0.89644712 -0.17961121 0.11434028 1.5979376e-38
0.89644712 -0.17711121 0.11434028 1.5795705e-38
0.89644712 -0.17711121 0.11684028 1.5795715e-38
0.89894712 -0.17961121 0.11434028 1.5795707e-38
0.89894712 -0.17961121 0.11684028 1.5703875e-38
0.89894712 -0.17711121 0.11434028 1.5520209e-38
0.89894712 -0.17711121 0.11684028 1.5703875e-38
0.89644712 -0.1746112 0.10934028 1.0304977e-38
0.89894712 -0.1746112 0.10934028 1.0214964e-38
0.89894712 -0.1746112 0.11184029 1.3144733e-38
0.89894712 -0.1721112 0.10934028 1.0490164e-38
0.89894712 -0.1721112 0.11184029 1.4877367e-38
0.89644712 -0.1746112 0.11434028 1.6258505e-38
0.89644712 -0.1721112 0.11434028 1.5889727e-38
0.89894712 -0.1746112 0.11434028 1.5703884e-38
0.89894712 -0.1746112 0.11684028 1.5979381e-38
0.89894712 -0.1721112 0.11434028 1.5244708e-38
0.89894712 -0.1721112 0.11684028 1.5979395e-38
0.89144713 -0.17961121 0.11934029 1.5703898e-38
0.89144713 -0.17961121 0.12184028 1.5520199e-38
0.89144713 -0.17711121 0.12184028 1.5428363e-38
0.89394712 -0.17961121 0.11934029 1.570387e-38
0.89394712 -0.17711121 0.11934029 1.5703903e-38
0.89144713 -0.17961121 0.12434028 1.5244692e-38
0.89144713 -0.17961121 0.12684028 1.5795705e-38
0.89144713 -0.17711121 0.12434028 1.5428363e-38
0.89144713 -0.17711121 0.12684028 1.5612034e-38
0.89394712 -0.17961121 0.12434028 1.570387e-38
0.89394712 -0.17961121 0.12684028 1.5795705e-38
0.89394712 -0.17711121 0.12434028 1.5612034e-38
0.89394712 -0.17711121 0.12684028 1.570387e-38
0.89144713 -0.1746112 0.12184028 1.5612034e-38
0.89144713 -0.1721112 0.12184028 1.570387e-38
0.89394712 -0.1746112 0.11934029 1.5428363e-38
0.89144713 -0.1746112 0.12434028 1.570387e-38
0.89144713 -0.1746112 0.12684028 1.5612034e-38
0.89144713 -0.1721112 0.12434028 1.5520199e-38
0.89144713 -0.1721112 0.12684028 1.5612034e-38
0.89394712 -0.1746112 0.12434028 1.5612034e-38
0.89394712 -0.1746112 0.12684028 1.570387e-38
0.89394712 -0.1721112 0.12434028 1.5612034e-38
0.89394712 -0.1721112 0.12684028 1.5612034e-38
0.89644712 -0.17711121 0.12184028 1.5336528e-38
0.89894712 -0.17711121 0.11934029 1.5887541e-38
0.89644712 -0.17961121 0.12684028 1.5795705e-38
0.89644712 -0.17711121 0.12434028 1.5612034e-38
0.89644712 -0.17711121 0.12684028 1.6163047e-38
0.89894712 -0.17961121 0.12684028 1.5612034e-38
0.89894712 -0.17711121 0.12684028 1.5887541e-38
0.89644712 -0.1746112 0.12184028 1.5244692e-38
0.89644712 -0.1746112 0.12434028 1.5612034e-38
0.89644712 -0.1746112 0.12684028 1.5795705e-38
0.89644712 -0.1721112 0.12684028 1.5795705e-38
0.89894712 -0.1746112 0.12684028 1.5612034e-38
0.89894712 -0.1721112 0.12684028 1.6254883e-38
0.90144712 -0.1821112 0.11434028 1.5612034e-38
0.90144712 -0.1871112 0.12684028 1.6163047e-38
0.90144712 -0.1846112 0.12684028 1.6163047e-38
0.90144712 -0.17711121 0.10934028 1.130188e-38
0.90144712 -0.17961121 0.11434028 1.5795705e-38
0.90144712 -0.17711121 0.11434028 1.5703878e-38
0.90144712 -0.1746112 0.10934028 1.3603567e-38
0.90144712 -0.1746112 0.11184029 1.6075213e-38
0.90144712 -0.1721112 0.10934028 1.2128436e-38
0.90144712 -0.1721112 0.11184029 1.4693713e-38
0.90394711 -0.1746112 0.10934028 1.3053656e-38
0.90394711 -0.1721112 0.10934028 1.2502613e-38
0.90144712 -0.1746112 0.11434028 1.5795715e-38
0.90144712 -0.1746112 0.11684028 1.5795707e-38
0.90144712 -0.1721112 0.11434028 1.5703877e-38
0.90144712 -0.1721112 0.11684028 1.5795707e-38
0.90394711 -0.1746112 0.11434028 1.5979389e-38
0.90394711 -0.1746112 0.11684028 1.5703873e-38
0.90394711 -0.1721112 0.11434028 1.5520227e-38
0.90394711 -0.1721112 0.11684028 1.5703875e-38
0.90644711 -0.1746112 0.11184029 1.5612068e-38
0.90644711 -0.1721112 0.10934028 1.4693679e-38
0.90644711 -0.1721112 0.11184029 1.5061047e-38
0.89144713 -0.1896112 0.12934029 1.6346718e-38
0.89144713 -0.1871112 0.12934029 1.6346718e-38
0.89144713 -0.1871112 0.13184029 1.6530389e-38
0.89394712 -0.1896112 0.12934029 1.6622225e-38
0.89394712 -0.1896112 0.13184029 1.7173238e-38
0.89394712 -0.1871112 0.12934029 1.6530389e-38
0.89394712 -0.1871112 0.13184029 1.7173238e-38
0.89144713 -0.1846112 0.12934029 1.570387e-38
0.89144713 -0.1846112 0.13184029 1.5979376e-38
0.89144713 -0.1821112 0.12934029 1.5979376e-38
0.89394712 -0.1846112 0.12934029 1.6163047e-38
0.89394712 -0.1821112 0.12934029 1.570387e-38
0.89644712 -0.1896112 0.12934029 1.6897731e-38
0.89644712 -0.1871112 0.12934029 1.6346718e-38
0.89644712 -0.1846112 0.12934029 1.5979376e-38
0.89644712 -0.1821112 0.12934029 1.5979376e-38
0.89144713 -0.17961121 0.12934029 1.5887541e-38
0.89394712 -0.17961121 0.12934029 1.5795705e-38
0.89144713 -0.1746112 0.12934029 1.5612034e-38
0.89144713 -0.1721112 0.12934029 1.570387e-38
0.89394712 -0.1746112 0.12934029 1.5979376e-38
0.89394712 -0.1721112 0.12934029 1.5979376e-38
0.89644712 -0.17961121 0.12934029 1.5979376e-38
0.89644712 -0.17711121 0.12934029 1.5979376e-38
0.89894712 -0.17961121 0.12934029 1.7081402e-38
0.89894712 -0.17711121 0.12934029 1.7081402e-38
0.89644712 -0.1746112 0.12934029 1.5979376e-38
0.89644712 -0.1721112 0.12934029 1.5979376e-38
0.89894712 -0.1746112 0.12934029 1.7081409e-38
0.89894712 -0.1721112 0.12934029 1.6438554e-38
0.90144712 -0.1871112 0.12934029 1.7356909e-38
0.90144712 -0.1846112 0.12934029 1.7081402e-38
0.90144712 -0.1821112 0.12934029 1.7081402e-38
0.90144712 -0.17961121 0.12934029 1.7081402e-38
0.90144712 -0.1746112 0.12934029 1.818526e-38
0.90144712 -0.1746112 0.13184029 1.7911547e-38
0.90144712 -0.1721112 0.12934029 1.8367843e-38
0.90144712 -0.1721112 0.13184029 1.8275994e-38
0.90394711 -0.1721112 0.13184029 1.8093442e-38
0.89894712 -0.1696112 0.10934028 8.9289365e-39
0.89894712 -0.1696112 0.11184029 1.2140685e-38
0.89894712 -0.1696112 0.11434028 1.3327327e-38
0.89144713 -0.1696112 0.12184028 1.5795707e-38
0.89394712 -0.1696112 0.11934029 1.5520206e-38
0.89144713 -0.1696112 0.12434028 1.5520199e-38
0.89144713 -0.1696112 0.12684028 1.570387e-38
0.89144713 -0.1671112 0.12434028 1.5887544e-38
0.89394712 -0.1696112 0.12434028 1.570387e-38
0.89394712 -0.1696112 0.12684028 1.5612034e-38
0.89394712 -0.1671112 0.12434028 1.5612039e-38
0.89394712 -0.1671112 0.12684028 1.570387e-38
0.89144713 -0.16461121 0.12684028 1.5612039e-38
0.89144713 -0.16211121 0.12684028 1.5703875e-38
0.89394712 -0.16461121 0.12434028 1.570387e-38
0.89394712 -0.16461121 0.12684028 1.5520199e-38
0.89394712 -0.16211121 0.12684028 1.5703875e-38
0.89644712 -0.1696112 0.11934029 1.5979376e-38
0.89644712 -0.1696112 0.12184028 1.5428363e-38
0.89644712 -0.1671112 0.12184028 1.5520199e-38
0.89894712 -0.1696112 0.11934029 1.5612034e-38
0.89894712 -0.1696112 0.12184028 1.5336528e-38
0.89894712 -0.1671112 0.11934029 1.5612034e-38
0.89894712 -0.1671112 0.12184028 1.5336528e-38
0.89644712 -0.1696112 0.12434028 1.5336528e-38
0.89644712 -0.1696112 0.12684028 1.5795705e-38
0.89644712 -0.1671112 0.12434028 1.5520199e-38
0.89644712 -0.1671112 0.12684028 1.5795705e-38
0.89894712 -0.1696112 0.12684028 1.5795705e-38
0.89894712 -0.1671112 0.12434028 1.570387e-38
0.89894712 -0.1671112 0.12684028 1.5887541e-38
0.89894712 -0.16461121 0.11934029 1.5795707e-38
0.89894712 -0.16461121 0.12184028 1.5795707e-38
0.89894712 -0.16211121 0.11934029 1.579571e-38
0.89894712 -0.16211121 0.12184028 1.5795707e-38
0.89644712 -0.16461121 0.12434028 1.5428363e-38
0.89644712 -0.16461121 0.12684028 1.5795705e-38
0.89644712 -0.16211121 0.12684028 1.6071212e-38
0.89894712 -0.16461121 0.12434028 1.5795707e-38
0.89894712 -0.16461121 0.12684028 1.6254883e-38
0.89894712 -0.16211121 0.12434028 1.5795707e-38
0.89894712 -0.16211121 0.12684028 1.6163047e-38
0.89894712 -0.1596112 0.11934029 1.6071224e-38
0.89894712 -0.1571112 0.11934029 1.6254895e-38
0.89644712 -0.1596112 0.12684028 1.6071212e-38
0.89894712 -0.1596112 0.12434028 1.5979381e-38
0.89894712 -0.1596112 0.12684028 1.6530389e-38
0.89894712 -0.1571112 0.12434028 1.6438554e-38
0.89894712 -0.1546112 0.11934029 1.6438568e-38
0.90144712 -0.1696112 0.10934028 1.0672019e-38
0.90144712 -0.1696112 0.11184029 1.7199543e-38
0.90144712 -0.1671112 0.11184029 1.7474672e-38
0.90394711 -0.1696112 0.10934028 1.5834974e-38
0.90394711 -0.1671112 0.10934028 1.7679605e-38
0.90144712 -0.1696112 0.11434028 1.5612085e-38
0.90144712 -0.1696112 0.11684028 1.5887541e-38
0.90144712 -0.1671112 0.11684028 1.570387e-38
0.90394711 -0.1696112 0.11434028 1.579576e-38
0.90394711 -0.1696112 0.11684028 1.5612034e-38
0.90394711 -0.1671112 0.11434028 1.6438554e-38
0.90394711 -0.1671112 0.11684028 1.570387e-38
0.90144712 -0.16461121 0.11184029 1.646016e-38
0.90144712 -0.16211121 0.11184029 1.6091751e-38
0.90394711 -0.16461121 0.10934028 1.7956194e-38
0.90394711 -0.16211121 0.10934028 1.546149e-38
0.90144712 -0.16461121 0.11684028 1.570387e-38
0.90144712 -0.16211121 0.11434028 1.6163047e-38
0.90144712 -0.16211121 0.11684028 1.5979376e-38
0.90394711 -0.16461121 0.11434028 1.6071212e-38
0.90394711 -0.16461121 0.11684028 1.570387e-38
0.90394711 -0.16211121 0.11434028 1.6163047e-38
0.90394711 -0.16211121 0.11684028 1.5887541e-38
0.90644711 -0.1696112 0.10934028 1.7673501e-38
0.90644711 -0.1696112 0.11184029 1.7199546e-38
0.90644711 -0.1671112 0.11184029 1.7749462e-38
0.90894711 -0.1696112 0.10934028 1.7292471e-38
0.90894711 -0.1696112 0.11184029 1.597943e-38
0.90644711 -0.1696112 0.11434028 1.5336528e-38
0.90644711 -0.1671112 0.11434028 1.570387e-38
0.90644711 -0.1671112 0.11684028 1.5795705e-38
0.90894711 -0.1696112 0.11684028 1.5428363e-38
0.90894711 -0.1671112 0.11684028 1.5612034e-38
0.90644711 -0.16461121 0.10934028 1.5829547e-38
0.90644711 -0.16461121 0.11184029 1.6738905e-38
0.90644711 -0.16211121 0.10934028 1.5462209e-38
0.90644711 -0.16211121 0.11184029 1.664671e-38
0.90644711 -0.16461121 0.11434028 1.570387e-38
0.90644711 -0.16461121 0.11684028 1.5703884e-38
0.90644711 -0.16211121 0.11434028 1.5887541e-38
0.90644711 -0.16211121 0.11684028 1.6254883e-38
0.90894711 -0.16461121 0.11684028 1.5795705e-38
0.90894711 -0.16211121 0.11684028 1.5887541e-38
0.90144712 -0.1671112 0.11934029 1.5612034e-38
0.90144712 -0.1671112 0.12184028 1.5336528e-38
0.90394711 -0.1671112 0.11934029 1.5795705e-38
0.90144712 -0.16461121 0.11934029 1.5703875e-38
0.90144712 -0.16461121 0.12184028 1.5612034e-38
0.90144712 -0.16211121 0.11934029 1.6346727e-38
0.90144712 -0.16211121 0.12184028 1.6071217e-38
0.90394711 -0.16461121 0.11934029 1.5887541e-38
0.90394711 -0.16211121 0.11934029 1.6071212e-38
0.90394711 -0.16211121 0.12184028 1.5887541e-38
0.90144712 -0.16461121 0.12434028 1.5795705e-38
0.90144712 -0.16461121 0.12684028 1.6254883e-38
0.90144712 -0.16211121 0.12434028 1.5612034e-38
0.90144712 -0.16211121 0.12684028 1.6254883e-38
0.90644711 -0.16461121 0.11934029 1.5703875e-38
0.90644711 -0.16211121 0.11934029 1.6071217e-38
0.90144712 -0.1596112 0.11184029 1.6191487e-38
0.90144712 -0.1571112 0.11184029 1.7759887e-38
0.90394711 -0.1596112 0.10934028 1.6020064e-38
0.90394711 -0.1571112 0.10934028 1.7126772e-38
0.90144712 -0.1596112 0.11434028 1.616306e-38
0.90144712 -0.1596112 0.11684028 1.6254883e-38
0.90144712 -0.1571112 0.11684028 1.5979378e-38
0.90394711 -0.1596112 0.11434028 1.6163084e-38
0.90394711 -0.1596112 0.11684028 1.6163047e-38
0.90394711 -0.1571112 0.11434028 1.6438569e-38
0.90394711 -0.1571112 0.11684028 1.6071212e-38
0.90394711 -0.1546112 0.10934028 1.4821153e-38
0.90144712 -0.1546112 0.11684028 1.5612034e-38
0.90144712 -0.1521112 0.11684028 1.4969186e-38
0.90394711 -0.1546112 0.11434028 1.6257042e-38
0.90394711 -0.1546112 0.11684028 1.570387e-38
0.90394711 -0.1521112 0.11684028 1.5061055e-38
0.90644711 -0.1596112 0.10934028 1.6943823e-38
0.90644711 -0.1596112 0.11184029 1.6191487e-38
0.90644711 -0.1571112 0.10934028 1.6847306e-38
0.90644711 -0.1571112 0.11184029 1.7759171e-38
0.90894711 -0.1596112 0.10934028 1.7574424e-38
0.90894711 -0.1571112 0.10934028 1.7575885e-38
0.90894711 -0.1571112 0.11184029 1.6347444e-38
0.90644711 -0.1596112 0.11434028 1.6163047e-38
0.90644711 -0.1596112 0.11684028 1.6530405e-38
0.90644711 -0.1571112 0.11434028 1.6071212e-38
0.90644711 -0.1571112 0.11684028 1.6438565e-38
0.90894711 -0.1596112 0.11684028 1.6346732e-38
0.90894711 -0.1571112 0.11684028 1.6622229e-38
0.90644711 -0.1546112 0.10934028 1.4726806e-38
0.90644711 -0.1546112 0.11184029 1.6071224e-38
0.90644711 -0.1521112 0.10934028 1.3812072e-38
0.90644711 -0.1521112 0.11184029 1.3139345e-38
0.90894711 -0.1546112 0.10934028 1.6654291e-38
0.90894711 -0.1546112 0.11184029 1.6531837e-38
0.90894711 -0.1521112 0.10934028 1.6289837e-38
0.90894711 -0.1521112 0.11184029 1.4061279e-38
0.90644711 -0.1546112 0.11434028 1.5612034e-38
0.90644711 -0.1546112 0.11684028 1.6438579e-38
0.90644711 -0.1521112 0.11434028 1.5336528e-38
0.90644711 -0.1521112 0.11684028 1.6254895e-38
0.90894711 -0.1546112 0.11684028 1.6438568e-38
0.90894711 -0.1521112 0.11684028 1.6071212e-38
0.90144712 -0.1596112 0.11934029 1.6438565e-38
0.90144712 -0.1596112 0.12184028 1.6071217e-38
0.90144712 -0.1571112 0.11934029 1.6346718e-38
0.90144712 -0.1571112 0.12184028 1.6530408e-38
0.90394711 -0.1596112 0.11934029 1.6254883e-38
0.90394711 -0.1596112 0.12184028 1.6438561e-38
0.90394711 -0.1571112 0.11934029 1.6530399e-38
0.90394711 -0.1571112 0.12184028 1.6438554e-38
0.90144712 -0.1596112 0.12434028 1.5795705e-38
0.90144712 -0.1596112 0.12684028 1.6346718e-38
0.90144712 -0.1571112 0.12434028 1.6346724e-38
0.90144712 -0.1571112 0.12684028 1.6530389e-38
0.90394711 -0.1596112 0.12684028 1.6254883e-38
0.90394711 -0.1571112 0.12684028 1.6346718e-38
0.90144712 -0.1546112 0.11934029 1.6438565e-38
0.90144712 -0.1546112 0.12184028 1.6438554e-38
0.90144712 -0.1521112 0.11934029 1.6254883e-38
0.90144712 -0.1521112 0.12184028 1.579571e-38
0.90394711 -0.1546112 0.11934029 1.6346727e-38
0.90394711 -0.1546112 0.12184028 1.6346728e-38
0.90394711 -0.1521112 0.11934029 1.5612034e-38
0.90394711 -0.1521112 0.12184028 1.6163052e-38
0.90144712 -0.1546112 0.12434028 1.6438561e-38
0.90144712 -0.1521112 0.12434028 1.6163059e-38
0.90394711 -0.1546112 0.12684028 1.6438554e-38
0.90394711 -0.1521112 0.12684028 1.5887541e-38
0.90644711 -0.1596112 0.11934029 1.625489e-38
0.90644711 -0.1571112 0.11934029 1.6438576e-38
0.90644711 -0.1571112 0.12184028 1.625489e-38
0.90644711 -0.1571112 0.12434028 1.6438554e-38
0.90644711 -0.1571112 0.12684028 1.6622225e-38
0.90644711 -0.1546112 0.11934029 1.6438576e-38
0.90644711 -0.1546112 0.12184028 1.6346724e-38
0.90644711 -0.1521112 0.11934029 1.6254895e-38
0.90644711 -0.1521112 0.12184028 1.6163059e-38
0.90644711 -0.1546112 0.12434028 1.6346718e-38
0.90644711 -0.1546112 0.12684028 1.6530389e-38
0.90644711 -0.1521112 0.12434028 1.6346718e-38
0.90644711 -0.1521112 0.12684028 1.6254883e-38
0.90894711 -0.1546112 0.12684028 1.6438554e-38
0.90894711 -0.1521112 0.12684028 1.6530389e-38
0.89144713 -0.1696112 0.12934029 1.5612034e-38
0.89394712 -0.1696112 0.12934029 1.6071212e-38
0.89144713 -0.16461121 0.12934029 1.561204e-38
0.89144713 -0.16211121 0.12934029 1.5887549e-38
0.89394712 -0.16461121 0.12934029 1.6071212e-38
0.89394712 -0.16461121 0.13184029 1.662223e-38
0.89394712 -0.16211121 0.12934029 1.6071212e-38
0.89394712 -0.16211121 0.13184029 1.662223e-38
0.89644712 -0.1696112 0.12934029 1.6071212e-38
0.89644712 -0.1671112 0.12934029 1.6254883e-38
0.89894712 -0.1696112 0.12934029 1.6530389e-38
0.89894712 -0.1696112 0.13184029 1.7265096e-38
0.89894712 -0.1671112 0.12934029 1.6530389e-38
0.89894712 -0.1671112 0.13184029 1.6805896e-38
0.89894712 -0.1671112 0.13434029 1.7540938e-38
0.89644712 -0.16461121 0.12934029 1.6346718e-38
0.89644712 -0.16211121 0.12934029 1.6254883e-38
0.89894712 -0.16461121 0.12934029 1.6530389e-38
0.89894712 -0.16461121 0.13184029 1.6805896e-38
0.89894712 -0.16211121 0.12934029 1.6438559e-38
0.89894712 -0.16211121 0.13184029 1.6897731e-38
0.89644712 -0.16461121 0.13434029 1.6622233e-38
0.89644712 -0.16211121 0.13434029 1.671407e-38
0.89894712 -0.16461121 0.13434029 1.7356909e-38
0.89894712 -0.16211121 0.13434029 1.7173238e-38
0.89644712 -0.1596112 0.12934029 1.6254883e-38
0.89894712 -0.1596112 0.12934029 1.6530389e-38
0.89894712 -0.1596112 0.13184029 1.6622225e-38
0.89894712 -0.1571112 0.12934029 1.6622225e-38
0.89894712 -0.1596112 0.13434029 1.6714066e-38
0.90144712 -0.1696112 0.13184029 1.7081402e-38
0.90144712 -0.1671112 0.12934029 1.6897731e-38
0.90144712 -0.1671112 0.13184029 1.6897731e-38
0.90394711 -0.1696112 0.13184029 1.671406e-38
0.90394711 -0.1671112 0.13184029 1.7265073e-38
0.90144712 -0.1696112 0.13434029 1.7816106e-38
0.90144712 -0.1671112 0.13434029 1.7910455e-38
0.90144712 -0.16461121 0.12934029 1.6622225e-38
0.90144712 -0.16461121 0.13184029 1.6897731e-38
0.90144712 -0.16211121 0.12934029 1.6530389e-38
0.90144712 -0.16211121 0.13184029 1.671406e-38
0.90394711 -0.16461121 0.13184029 1.7999766e-38
0.90394711 -0.16211121 0.13184029 1.7816086e-38
0.90144712 -0.16461121 0.13434029 1.8275265e-38
0.90144712 -0.16211121 0.13434029 1.7173241e-38
0.90394711 -0.16461121 0.13434029 1.6989567e-38
0.90394711 -0.16211121 0.13434029 1.7265073e-38
0.90644711 -0.1671112 0.13434029 1.6622226e-38
0.90894711 -0.1671112 0.13434029 1.5520199e-38
0.90894711 -0.16461121 0.13184029 1.6622225e-38
0.90894711 -0.16211121 0.13184029 1.7265073e-38
0.90644711 -0.16461121 0.13434029 1.671406e-38
0.90644711 -0.16461121 0.13684028 1.5520199e-38
0.90644711 -0.16211121 0.13434029 1.6897731e-38
0.90894711 -0.16461121 0.13434029 1.570387e-38
0.90894711 -0.16211121 0.13434029 1.5152857e-38
0.90144712 -0.1596112 0.12934029 1.6622225e-38
0.90144712 -0.1596112 0.13184029 1.671406e-38
0.90144712 -0.1571112 0.12934029 1.6622225e-38
0.90144712 -0.1571112 0.13184029 1.671406e-38
0.90394711 -0.1596112 0.13184029 1.7173238e-38
0.90394711 -0.1571112 0.13184029 1.7173238e-38
0.90144712 -0.1596112 0.13434029 1.7356913e-38
0.90144712 -0.1571112 0.13434029 1.763244e-38
0.90144712 -0.1546112 0.12934029 1.6530389e-38
0.90144712 -0.1546112 0.13184029 1.7173238e-38
0.90144712 -0.1521112 0.12934029 1.634672e-38
0.90144712 -0.1521112 0.13184029 1.7081402e-38
0.90394711 -0.1546112 0.13184029 1.7081402e-38
0.90394711 -0.1521112 0.13184029 1.6897741e-38
0.90144712 -0.1546112 0.13434029 1.8367112e-38
0.90144712 -0.1521112 0.13434029 1.7724254e-38
0.90644711 -0.1596112 0.13184029 1.6714083e-38
0.90644711 -0.1571112 0.12934029 1.6622225e-38
0.90644711 -0.1571112 0.13184029 1.7910806e-38
0.90894711 -0.1596112 0.13184029 1.6897731e-38
0.90894711 -0.1571112 0.13184029 1.7173249e-38
0.90644711 -0.1596112 0.13434029 1.6805896e-38
0.90644711 -0.1546112 0.12934029 1.6254883e-38
0.90644711 -0.1546112 0.13184029 1.8734447e-38
0.90644711 -0.1521112 0.12934029 1.671406e-38
0.90644711 -0.1521112 0.13184029 1.7816093e-38
0.90894711 -0.1546112 0.12934029 1.7081402e-38
0.90894711 -0.1546112 0.13184029 1.7448746e-38
0.90894711 -0.1521112 0.12934029 1.6897731e-38
0.90644711 -0.1546112 0.13434029 1.7542061e-38
0.90644711 -0.1521112 0.13434029 1.7817887e-38
0.90144712 -0.1496112 0.11684028 1.5890053e-38
0.90394711 -0.1496112 0.11684028 1.6441844e-38
0.90394711 -0.14711121 0.11684028 1.4969225e-38
0.90394711 -0.14461119 0.11684028 1.1573096e-38
0.90894711 -0.1496112 0.10934028 1.7121044e-38
0.90894711 -0.1496112 0.11184029 1.6552385e-38
0.90894711 -0.14711121 0.11184029 1.479779e-38
0.90644711 -0.1496112 0.11434028 1.662768e-38
0.90644711 -0.1496112 0.11684028 1.6530401e-38
0.90644711 -0.14711121 0.11434028 1.4785561e-38
0.90644711 -0.14711121 0.11684028 1.625489e-38
0.90894711 -0.1496112 0.11684028 1.5703882e-38
0.90894711 -0.14711121 0.11684028 1.5887558e-38
0.90894711 -0.14461119 0.11184029 1.544316e-38
0.90894711 -0.1421112 0.11184029 1.7296745e-38
0.90644711 -0.14461119 0.11434028 1.5166933e-38
0.90644711 -0.14461119 0.11684028 1.5612037e-38
0.90644711 -0.1421112 0.11434028 1.7206345e-38
0.90644711 -0.1421112 0.11684028 1.5795724e-38
0.90894711 -0.14461119 0.11684028 1.579571e-38
0.90894711 -0.1421112 0.11684028 1.5795705e-38
0.90144712 -0.1496112 0.11934029 1.6438554e-38
0.90144712 -0.1496112 0.12184028 1.5979383e-38
0.90144712 -0.14711121 0.11934029 1.6254887e-38
0.90394711 -0.1496112 0.11934029 1.5979383e-38
0.90394711 -0.1496112 0.12184028 1.625489e-38
0.90394711 -0.14711121 0.11934029 1.5979395e-38
0.90394711 -0.14711121 0.12184028 1.5612037e-38
0.90144712 -0.1496112 0.12434028 1.6071222e-38
0.90144712 -0.14711121 0.12434028 1.5795707e-38
0.90394711 -0.1496112 0.12684028 1.634672e-38
0.90394711 -0.14711121 0.12684028 1.5795707e-38
0.90144712 -0.14461119 0.11934029 1.5520204e-38
0.90144712 -0.1421112 0.11934029 1.5887541e-38
0.90144712 -0.1421112 0.12184028 1.5795745e-38
0.90394711 -0.14461119 0.11934029 1.616305e-38
0.90394711 -0.14461119 0.12184028 1.5703875e-38
0.90394711 -0.1421112 0.11934029 1.570387e-38
0.90394711 -0.1421112 0.12184028 1.6163054e-38
0.90144712 -0.1421112 0.12434028 1.5612046e-38
0.90394711 -0.14461119 0.12684028 1.5795718e-38
0.90394711 -0.1421112 0.12684028 1.5795718e-38
0.90644711 -0.1496112 0.11934029 1.6071217e-38
0.90644711 -0.1496112 0.12184028 1.6071222e-38
0.90644711 -0.14711121 0.11934029 1.6071217e-38
0.90644711 -0.14711121 0.12184028 1.5795707e-38
0.90894711 -0.1496112 0.12184028 1.5703877e-38
0.90894711 -0.14711121 0.11934029 1.5703903e-38
0.90894711 -0.14711121 0.12184028 1.5703877e-38
0.90644711 -0.1496112 0.12434028 1.5795705e-38
0.90644711 -0.1496112 0.12684028 1.5612034e-38
0.90644711 -0.14711121 0.12434028 1.5428369e-38
0.90644711 -0.14711121 0.12684028 1.5887541e-38
0.90894711 -0.1496112 0.12684028 1.6346724e-38
0.90894711 -0.14711121 0.12684028 1.6346724e-38
0.90644711 -0.14461119 0.11934029 1.5979376e-38
0.90644711 -0.14461119 0.12184028 1.5795718e-38
0.90644711 -0.1421112 0.11934029 1.5520199e-38
0.90644711 -0.1421112 0.12184028 1.5979376e-38
0.90894711 -0.14461119 0.11934029 1.5887576e-38
0.90894711 -0.14461119 0.12184028 1.5703873e-38
0.90894711 -0.1421112 0.11934029 1.5612034e-38
0.90894711 -0.1421112 0.12184028 1.5887555e-38
0.90644711 -0.14461119 0.12434028 1.5336532e-38
0.90644711 -0.14461119 0.12684028 1.5795707e-38
0.90894711 -0.14461119 0.12434028 1.6254898e-38
0.90894711 -0.14461119 0.12684028 1.6438558e-38
0.90894711 -0.1421112 0.12434028 1.5979376e-38
0.90894711 -0.1396112 0.11184029 1.8593588e-38
0.90644711 -0.1396112 0.11434028 1.9142453e-38
0.90644711 -0.1396112 0.11684028 1.5612034e-38
0.90894711 -0.1396112 0.11684028 1.5612034e-38
0.90894711 -0.1371112 0.11684028 1.5244692e-38
0.90394711 -0.1396112 0.11934029 1.5520199e-38
0.90394711 -0.1396112 0.12184028 1.6071217e-38
0.90644711 -0.1396112 0.11934029 1.5336528e-38
0.90644711 -0.1396112 0.12184028 1.570387e-38
0.90894711 -0.1396112 0.11934029 1.607338e-38
0.90894711 -0.1396112 0.12184028 1.5795718e-38
0.90894711 -0.1371112 0.11934029 1.5981184e-38
0.90894711 -0.1396112 0.12434028 1.5795705e-38
0.90144712 -0.1496112 0.12934029 1.6438559e-38
0.90394711 -0.1496112 0.13184029 1.6897741e-38
0.90394711 -0.14711121 0.13184029 1.6622225e-38
0.90144712 -0.14711121 0.13434029 1.6805903e-38
0.90394711 -0.14711121 0.13434029 1.7173263e-38
0.90644711 -0.1496112 0.12934029 1.662223e-38
0.90644711 -0.1496112 0.13184029 1.7265096e-38
0.90644711 -0.14711121 0.12934029 1.662223e-38
0.90644711 -0.14711121 0.13184029 1.6989567e-38
0.90894711 -0.1496112 0.12934029 1.6805896e-38
0.90894711 -0.1496112 0.13184029 1.7173238e-38
0.90894711 -0.14711121 0.12934029 1.671406e-38
0.90894711 -0.14711121 0.13184029 1.7081402e-38
0.90644711 -0.14461119 0.12934029 1.6346721e-38
0.90644711 -0.14461119 0.13184029 1.6989582e-38
0.90644711 -0.1421112 0.12934029 1.662223e-38
0.90644711 -0.1421112 0.13184029 1.6989582e-38
0.90894711 -0.14461119 0.12934029 1.6714067e-38
0.90894711 -0.14461119 0.13184029 1.7173239e-38
0.90894711 -0.1421112 0.13184029 1.7173238e-38
0.94394714 -0.2321112 0.066840284 1.7178313e-38
0.94894713 -0.2346112 0.066840284 1.8188836e-38
0.94894713 -0.2321112 0.066840284 1.7175781e-38
0.94644713 -0.2321112 0.071840286 1.6993203e-38
0.94894713 -0.2321112 0.069340281 1.6904231e-38
0.91394711 -0.2221112 0.066840284 1.7641441e-38
0.9164471 -0.22461121 0.066840284 1.6538321e-38
0.9164471 -0.2221112 0.066840284 1.7733976e-38
0.91394711 -0.2196112 0.066840284 1.7458479e-38
0.9164471 -0.2196112 0.066840284 1.7271219e-38
0.9239471 -0.2221112 0.066840284 1.7274068e-38
0.92894709 -0.22461121 0.066840284 1.7178313e-38
0.94394714 -0.2296112 0.066840284 1.4338176e-38
0.94394714 -0.22711121 0.066840284 1.8302575e-38
0.94394714 -0.22461121 0.066840284 1.8304819e-38
0.94894713 -0.2296112 0.066840284 1.4616232e-38
0.94894713 -0.22711121 0.066840284 1.9133818e-38
0.91394711 -0.2221112 0.069340281 1.8009856e-38
0.91144711 -0.2196112 0.069340281 1.7273017e-38
0.91144711 -0.2171112 0.069340281 1.7456329e-38
0.91394711 -0.2196112 0.069340281 1.7364487e-38
0.94144714 -0.22711121 0.069340281 1.8027786e-38
0.94144714 -0.22711121 0.071840286 1.8675714e-38
0.94394714 -0.2296112 0.069340281 1.4065933e-38
0.94394714 -0.22711121 0.069340281 1.8675011e-38
0.94394714 -0.22711121 0.071840286 1.886118e-38
0.94144714 -0.22461121 0.069340281 1.8121843e-38
0.94144714 -0.22461121 0.071840286 1.8859068e-38
0.94394714 -0.22461121 0.069340281 1.8399881e-38
0.94644713 -0.2296112 0.071840286 1.4435791e-38
0.94644713 -0.22711121 0.071840286 1.8863361e-38
0.94894713 -0.2296112 0.069340281 1.4987529e-38
0.94894713 -0.22711121 0.069340281 1.8951941e-38
0.95644712 -0.2371112 0.066840284 1.700146e-38
0.95644712 -0.2346112 0.066840284 1.5990891e-38
0.95644712 -0.2321112 0.066840284 1.7281271e-38
0.95144713 -0.2371112 0.069340281 1.6815282e-38
0.95144713 -0.2346112 0.069340281 1.7638573e-38
0.95144713 -0.2321112 0.069340281 1.6904231e-38
0.95144713 -0.2296112 0.069340281 1.4803498e-38
0.91144711 -0.1571112 0.074340284 1.671695e-38
0.91144711 -0.1546112 0.069340281 1.7082858e-38
0.91144711 -0.1521112 0.069340281 1.689884e-38
0.91144711 -0.1546112 0.074340284 1.7176866e-38
0.91144711 -0.1521112 0.074340284 1.754708e-38
0.91144711 -0.1546112 0.084340282 1.6579e-38
0.91144711 -0.1546112 0.086840287 1.4365216e-38
0.91144711 -0.1521112 0.084340282 1.6210577e-38
0.91144711 -0.1571112 0.091840282 9.2908106e-39
0.91144711 -0.1546112 0.091840282 8.5648007e-39
0.91144711 -0.1521112 0.091840282 1.2989832e-38
0.91144711 -0.1521112 0.096840285 1.5837084e-38
0.91144711 -0.1521112 0.099340282 1.5102781e-38
0.91144711 -0.1521112 0.10184029 1.4829457e-38
0.91144711 -0.1521112 0.10434029 1.5564854e-38
0.91394711 -0.1496112 0.066840284 1.6900265e-38
0.91394711 -0.14711121 0.066840284 1.7081802e-38
0.91394711 -0.14461119 0.066840284 1.689884e-38
0.9164471 -0.14711121 0.066840284 1.7081783e-38
0.9164471 -0.14461119 0.066840284 1.7173632e-38
0.9164471 -0.1421112 0.066840284 1.6897762e-38
0.9214471 -0.1421112 0.066840284 1.7081436e-38
0.9214471 -0.1396112 0.066840284 1.6989599e-38
0.9214471 -0.1371112 0.066840284 1.6897748e-38
0.9214471 -0.1346112 0.066840284 1.6898121e-38
0.9214471 -0.13211121 0.066840284 1.6899546e-38
0.9164471 -0.12961119 0.066840284 1.6900289e-38
0.9164471 -0.1271112 0.066840284 1.7085399e-38
0.9214471 -0.12961119 0.066840284 1.6992105e-38
0.9214471 -0.1271112 0.066840284 1.6992835e-38
0.9214471 -0.1246112 0.066840284 1.6900289e-38
0.9214471 -0.1221112 0.066840284 1.6900289e-38
0.9239471 -0.1221112 0.066840284 1.7266896e-38
0.9214471 -0.1196112 0.066840284 1.6808812e-38
0.9214471 -0.1171112 0.066840284 1.6899556e-38
0.9239471 -0.1196112 0.066840284 1.7268345e-38
0.9239471 -0.1171112 0.066840284 1.7179001e-38
0.9239471 -0.1146112 0.066840284 1.7086806e-38
0.9239471 -0.1121112 0.066840284 1.6816348e-38
0.92894709 -0.1171112 0.066840284 1.7175781e-38
0.92894709 -0.1146112 0.066840284 1.6812029e-38
0.92894709 -0.1121112 0.066840284 1.7181172e-38
0.91144711 -0.1496112 0.069340281 1.6991035e-38
0.91144711 -0.1496112 0.071840286 1.7081436e-38
0.91144711 -0.14711121 0.071840286 1.6989599e-38
0.91394711 -0.14711121 0.069340281 1.7081436e-38
0.91144711 -0.1496112 0.074340284 1.7361979e-38
0.91144711 -0.1496112 0.076840281 1.4428622e-38
0.91144711 -0.14711121 0.074340284 1.7362685e-38
0.91144711 -0.14711121 0.076840281 1.5712171e-38
0.91394711 -0.14711121 0.074340284 1.7086458e-38
0.91394711 -0.14711121 0.076840281 1.2223112e-38
0.91394711 -0.14461119 0.069340281 1.7081436e-38
0.91394711 -0.14461119 0.074340284 1.7544197e-38
0.91394711 -0.14461119 0.076840281 1.3510649e-38
0.91394711 -0.1421112 0.074340284 1.7082858e-38
0.91394711 -0.1421112 0.076840281 1.6737496e-38
0.9164471 -0.14711121 0.069340281 1.7082155e-38
0.9164471 -0.14711121 0.071840286 1.73616e-38
