# .PCD v0.7 - Point Cloud Data file format
VERSION 0.7
FIELDS x y z rgb
SIZE 4 4 4 4
TYPE F F F F
COUNT 1 1 1 1
WIDTH 989
HEIGHT 1
VIEWPOINT 0 0 0 1 0 0 0
POINTS 989
DATA ascii
0.88348472 -0.20991813 0.086098149 1.7178303e-38
0.88348472 -0.20741813 0.086098149 1.7541694e-38
0.87598473 -0.20741813 0.096098147 1.6989579e-38
0.88348472 -0.21241812 0.088598147 1.8837466e-38
0.88348472 -0.20991813 0.088598147 1.7085749e-38
0.88348472 -0.20991813 0.091098145 1.6900304e-38
0.88348472 -0.20741813 0.088598147 1.6989586e-38
0.88348472 -0.20741813 0.091098145 1.680591e-38
0.88098472 -0.20741813 0.09359815 1.6805911e-38
0.88098472 -0.20741813 0.096098147 1.6530396e-38
0.88348472 -0.20991813 0.09359815 1.6163073e-38
0.88348472 -0.20741813 0.09359815 1.6438575e-38
0.87348473 -0.20991813 0.098598145 2.2338006e-38
0.87348473 -0.20741813 0.098598145 1.6622236e-38
0.87848473 -0.21741813 0.11109815 1.8028197e-38
0.87848473 -0.21741813 0.11359815 1.9044124e-38
0.88098472 -0.21991813 0.10859815 1.3970834e-38
0.88098472 -0.21741813 0.10859815 1.7843798e-38
0.88098472 -0.21741813 0.11109815 1.8768613e-38
0.88348472 -0.21741813 0.11609815 1.9141377e-38
0.88098472 -0.21491814 0.098598145 1.738468e-38
0.88098472 -0.21241812 0.098598145 1.8860169e-38
0.88348472 -0.21491814 0.10109815 1.9594115e-38
0.88348472 -0.21241812 0.098598145 1.8674323e-38
0.88348472 -0.21241812 0.10109815 1.8118985e-38
0.88348472 -0.21241812 0.10609815 1.7381417e-38
0.88348472 -0.20991813 0.098598145 2.1781949e-38
0.88348472 -0.20991813 0.10109815 2.1414242e-38
0.87848473 -0.21491814 0.11109815 1.8495642e-38
0.87848473 -0.21491814 0.11359815 1.8495639e-38
0.88098472 -0.21491814 0.10859815 1.8585702e-38
0.88098472 -0.21491814 0.11109815 1.8770443e-38
0.88098472 -0.21241812 0.10859815 2.0145124e-38
0.88098472 -0.21241812 0.11109815 2.0603228e-38
0.88348472 -0.21491814 0.10859815 1.8587497e-38
0.88348472 -0.21491814 0.11109815 1.8680402e-38
0.88348472 -0.21241812 0.10859815 1.7101592e-38
0.88348472 -0.21241812 0.11109815 1.7008678e-38
0.88348472 -0.21491814 0.11609815 1.8775484e-38
0.88348472 -0.20991813 0.10859815 1.8280683e-38
0.88348472 -0.20991813 0.11109815 1.8279964e-38
0.87348473 -0.20991813 0.13109815 1.6346718e-38
0.87348473 -0.20741813 0.13109815 1.6163047e-38
0.87598473 -0.20991813 0.12609814 1.5061045e-38
0.87598473 -0.20741813 0.12609814 1.487735e-38
0.87848473 -0.20991813 0.12609814 1.4510008e-38
0.87848473 -0.20741813 0.12609814 1.4510008e-38
0.88098472 -0.21491814 0.12609814 1.9602359e-38
0.88098472 -0.21241812 0.12609814 1.9141021e-38
0.88348472 -0.21491814 0.12359815 1.8869147e-38
0.88348472 -0.21241812 0.12359815 1.8501438e-38
0.88348472 -0.21241812 0.12609814 1.8957346e-38
0.88348472 -0.20991813 0.12109815 1.4877373e-38
0.88348472 -0.20741813 0.12109815 1.5703905e-38
0.88098472 -0.20991813 0.12609814 1.5244692e-38
0.88098472 -0.20741813 0.12609814 1.4601844e-38
0.88348472 -0.20991813 0.12359815 1.4601847e-38
0.88348472 -0.20991813 0.12609814 1.5336549e-38
0.88348472 -0.20741813 0.12359815 1.5061021e-38
0.88348472 -0.20741813 0.12609814 1.625489e-38
0.87848473 -0.21491814 0.12859815 1.9878223e-38
0.87848473 -0.21241812 0.12859815 1.8956267e-38
0.87598473 -0.20991813 0.12859815 2.1602592e-38
0.87598473 -0.20991813 0.13109815 1.6622237e-38
0.87598473 -0.20741813 0.12859815 1.5428363e-38
0.87598473 -0.20741813 0.13109815 1.5979376e-38
0.87848473 -0.20991813 0.12859815 2.1141265e-38
0.87848473 -0.20991813 0.13109815 1.607122e-38
0.87848473 -0.20741813 0.12859815 1.5336533e-38
0.87848473 -0.20741813 0.13109815 1.6438554e-38
0.87598473 -0.20991813 0.13359815 1.6071212e-38
0.87598473 -0.20741813 0.13359815 1.6530391e-38
0.87848473 -0.20741813 0.13359815 1.6530389e-38
0.88098472 -0.21491814 0.12859815 1.6993185e-38
0.88098472 -0.21491814 0.13109815 1.6897731e-38
0.88098472 -0.21241812 0.12859815 1.5520206e-38
0.88098472 -0.21241812 0.13109815 1.5428363e-38
0.88348472 -0.21491814 0.12859815 1.6992853e-38
0.88348472 -0.21241812 0.12859815 1.6622236e-38
0.88348472 -0.21241812 0.13109815 1.5612034e-38
0.88098472 -0.20991813 0.12859815 1.6622225e-38
0.88098472 -0.20991813 0.13109815 1.6163047e-38
0.88098472 -0.20741813 0.12859815 1.6438557e-38
0.88098472 -0.20741813 0.13109815 1.6622225e-38
0.88348472 -0.20991813 0.12859815 1.6530399e-38
0.88348472 -0.20741813 0.12859815 1.6346718e-38
0.88348472 -0.20741813 0.13109815 1.6254883e-38
0.88348472 -0.20991813 0.13359815 1.7356909e-38
0.88348472 -0.20991813 0.13609815 1.7816102e-38
0.88348472 -0.20741813 0.13359815 1.7265073e-38
0.89098471 -0.20991813 0.066098146 1.7180822e-38
0.89098471 -0.20741813 0.066098146 1.7269052e-38
0.88598472 -0.21241812 0.068598151 1.7647538e-38
0.88848472 -0.21241812 0.071098149 1.7553915e-38
0.88848472 -0.21241812 0.073598146 1.727337e-38
0.88598472 -0.20991813 0.068598151 1.8468333e-38
0.88598472 -0.20741813 0.068598151 1.7085399e-38
0.88848472 -0.20991813 0.068598151 1.6995351e-38
0.88848472 -0.20991813 0.071098149 1.855945e-38
0.88848472 -0.20741813 0.068598151 1.7087525e-38
0.88848472 -0.20741813 0.071098149 1.7176515e-38
0.88848472 -0.20991813 0.073598146 1.7085749e-38
0.88848472 -0.20991813 0.076098144 1.7544928e-38
0.88848472 -0.20741813 0.073598146 1.7266546e-38
0.88848472 -0.20741813 0.076098144 1.6991754e-38
0.89098471 -0.21241812 0.068598151 1.7275886e-38
0.89098471 -0.21241812 0.071098149 1.7363784e-38
0.89348471 -0.21241812 0.068598151 1.7368081e-38
0.89098471 -0.21241812 0.073598146 1.754708e-38
0.89098471 -0.21241812 0.076098144 1.754708e-38
0.89348471 -0.21241812 0.073598146 1.7364484e-38
0.89098471 -0.20991813 0.068598151 1.7086468e-38
0.89098471 -0.20991813 0.071098149 1.7085749e-38
0.89098471 -0.20741813 0.068598151 1.6717313e-38
0.89098471 -0.20741813 0.071098149 1.7269052e-38
0.89348471 -0.20991813 0.068598151 1.7086468e-38
0.89348471 -0.20991813 0.071098149 1.6716612e-38
0.89348471 -0.20741813 0.068598151 1.6900639e-38
0.89098471 -0.20991813 0.073598146 1.7180819e-38
0.89098471 -0.20991813 0.076098144 1.7731124e-38
0.89098471 -0.20741813 0.073598146 1.6899559e-38
0.89098471 -0.20741813 0.076098144 1.6808809e-38
0.89598471 -0.21241812 0.066098146 1.8284292e-38
0.89848471 -0.21491814 0.066098146 1.7368081e-38
0.89848471 -0.21241812 0.066098146 1.7273014e-38
0.89598471 -0.20991813 0.066098146 1.7178303e-38
0.89598471 -0.20741813 0.066098146 1.6992105e-38
0.9034847 -0.21491814 0.066098146 1.7364487e-38
0.89598471 -0.21241812 0.068598151 1.7823673e-38
0.89598471 -0.20991813 0.068598151 1.6996428e-38
0.88598472 -0.21241812 0.081098147 1.699606e-38
0.88848472 -0.21241812 0.078598149 1.727337e-38
0.88848472 -0.21241812 0.081098147 1.7551001e-38
0.88598472 -0.21491814 0.083598144 1.7364487e-38
0.88598472 -0.21491814 0.086098149 1.7548878e-38
0.88598472 -0.21241812 0.083598144 1.764143e-38
0.88598472 -0.21241812 0.086098149 1.8283924e-38
0.88848472 -0.21491814 0.083598144 1.7456683e-38
0.88848472 -0.21491814 0.086098149 1.77336e-38
0.88848472 -0.21241812 0.083598144 1.7733627e-38
0.88848472 -0.21241812 0.086098149 1.9110461e-38
0.88598472 -0.20991813 0.081098147 1.7364484e-38
0.88598472 -0.20741813 0.081098147 1.6808442e-38
0.88848472 -0.20991813 0.078598149 1.8282493e-38
0.88848472 -0.20991813 0.081098147 1.7544925e-38
0.88848472 -0.20741813 0.078598149 1.6899559e-38
0.88848472 -0.20741813 0.081098147 1.6899556e-38
0.88598472 -0.20991813 0.083598144 1.7272289e-38
0.88598472 -0.20991813 0.086098149 1.7177575e-38
0.88598472 -0.20741813 0.083598144 1.7545266e-38
0.88598472 -0.20741813 0.086098149 1.7357985e-38
0.88848472 -0.20991813 0.083598144 1.7272289e-38
0.88848472 -0.20741813 0.083598144 1.6992092e-38
0.89098471 -0.21491814 0.081098147 1.754708e-38
0.89098471 -0.21241812 0.081098147 1.764143e-38
0.89098471 -0.21491814 0.083598144 1.7548878e-38
0.89098471 -0.21241812 0.083598144 1.8282143e-38
0.89098471 -0.20741813 0.081098147 1.6992105e-38
0.88598472 -0.21491814 0.091098145 1.415563e-38
0.88598472 -0.21241812 0.091098145 1.8206785e-38
0.88848472 -0.21491814 0.091098145 1.5631482e-38
0.88848472 -0.21241812 0.091098145 2.2338362e-38
0.88598472 -0.21491814 0.09359815 1.4986858e-38
0.88598472 -0.21241812 0.09359815 2.2429133e-38
0.88598472 -0.21241812 0.096098147 1.9044187e-38
0.88848472 -0.21491814 0.09359815 1.7386108e-38
0.88848472 -0.21241812 0.09359815 1.9043484e-38
0.88848472 -0.21241812 0.096098147 1.8950191e-38
0.88598472 -0.20991813 0.091098145 1.6900304e-38
0.88598472 -0.20741813 0.091098145 1.7265103e-38
0.88848472 -0.20991813 0.091098145 1.6438559e-38
0.88848472 -0.20741813 0.091098145 1.6438554e-38
0.88598472 -0.20991813 0.09359815 1.6438569e-38
0.88598472 -0.20991813 0.096098147 2.1694436e-38
0.88598472 -0.20741813 0.09359815 1.6530399e-38
0.88598472 -0.20741813 0.096098147 1.6530389e-38
0.88848472 -0.20991813 0.09359815 1.6071224e-38
0.88848472 -0.20991813 0.096098147 1.6438554e-38
0.88848472 -0.20741813 0.09359815 1.6530396e-38
0.88848472 -0.20741813 0.096098147 1.6438558e-38
0.89348471 -0.21491814 0.091098145 1.9135325e-38
0.89348471 -0.21241812 0.091098145 2.252059e-38
0.89098471 -0.21491814 0.09359815 1.7938204e-38
0.89098471 -0.21241812 0.09359815 2.2336571e-38
0.89348471 -0.21491814 0.09359815 1.8122578e-38
0.89348471 -0.21491814 0.096098147 1.7753092e-38
0.89348471 -0.21241812 0.09359815 2.2061052e-38
0.89348471 -0.21241812 0.096098147 2.1690469e-38
0.89348471 -0.20991813 0.091098145 1.6622232e-38
0.89098471 -0.20991813 0.09359815 1.616305e-38
0.89348471 -0.20991813 0.096098147 1.6163047e-38
0.89348471 -0.20741813 0.096098147 1.6805896e-38
0.89598471 -0.21491814 0.096098147 1.7844193e-38
0.89598471 -0.21241812 0.096098147 2.0587716e-38
0.9059847 -0.21741813 0.066098146 1.7823667e-38
0.91098475 -0.21991813 0.066098146 1.7457399e-38
0.91098475 -0.21741813 0.066098146 1.7366282e-38
0.91348475 -0.22241813 0.068598151 1.7641074e-38
0.91348475 -0.21991813 0.068598151 1.7364487e-38
0.9059847 -0.21241812 0.066098146 1.7913362e-38
0.91098475 -0.21491814 0.066098146 1.7364484e-38
0.91598475 -0.22241813 0.068598151 1.8009138e-38
0.91598475 -0.21991813 0.068598151 1.7271572e-38
0.91598475 -0.21741813 0.068598151 1.7733627e-38
0.92348474 -0.22241813 0.068598151 1.6628704e-38
0.92348474 -0.21991813 0.068598151 1.7734693e-38
0.88598472 -0.21741813 0.10359815 1.7388941e-38
0.89348471 -0.21741813 0.10109815 1.9138153e-38
0.88598472 -0.21741813 0.11609815 1.8773315e-38
0.88848472 -0.21741813 0.11609815 1.8499623e-38
0.89348471 -0.21741813 0.11109815 1.8498175e-38
0.89098471 -0.21741813 0.11359815 1.8866607e-38
0.89098471 -0.21741813 0.11609815 1.8775128e-38
0.88598472 -0.21491814 0.098598145 1.8030007e-38
0.88598472 -0.21241812 0.098598145 1.8583181e-38
0.88598472 -0.21241812 0.10109815 1.7845969e-38
0.88848472 -0.21491814 0.10109815 1.9411878e-38
0.88848472 -0.21241812 0.10109815 1.747577e-38
0.88598472 -0.21491814 0.10359815 2.0235537e-38
0.88598472 -0.21491814 0.10609815 2.0329856e-38
0.88598472 -0.21241812 0.10359815 1.7193083e-38
0.88598472 -0.21241812 0.10609815 1.7195565e-38
0.88848472 -0.21491814 0.10609815 2.0511751e-38
0.88848472 -0.21241812 0.10609815 1.710231e-38
0.88598472 -0.20991813 0.098598145 2.1783385e-38
0.88598472 -0.20991813 0.10109815 2.0861787e-38
0.88598472 -0.20741813 0.098598145 1.6622232e-38
0.88848472 -0.20991813 0.10109815 2.0312207e-38
0.88848472 -0.20741813 0.10109815 1.6530391e-38
0.88598472 -0.20991813 0.10359815 1.9206232e-38
0.88598472 -0.20991813 0.10609815 1.818956e-38
0.88848472 -0.20991813 0.10609815 1.8005168e-38
0.88848472 -0.20741813 0.10609815 1.6530391e-38
0.89098471 -0.21491814 0.098598145 1.8214418e-38
0.89098471 -0.21491814 0.10109815 1.9687739e-38
0.89098471 -0.21241812 0.098598145 1.8121153e-38
0.89098471 -0.21241812 0.10109815 1.9573216e-38
0.89348471 -0.21491814 0.098598145 1.7843831e-38
0.89348471 -0.21491814 0.10109815 1.9872108e-38
0.89348471 -0.21241812 0.10109815 1.9389173e-38
0.89098471 -0.21491814 0.10359815 2.0146897e-38
0.89098471 -0.21241812 0.10359815 1.7657985e-38
0.89098471 -0.20991813 0.098598145 1.6254883e-38
0.89098471 -0.20991813 0.10109815 1.6071217e-38
0.89098471 -0.20741813 0.098598145 1.6530394e-38
0.89098471 -0.20741813 0.10109815 1.6530389e-38
0.89348471 -0.20991813 0.098598145 1.5979376e-38
0.89348471 -0.20991813 0.10109815 1.6071212e-38
0.89348471 -0.20741813 0.098598145 1.6530391e-38
0.89348471 -0.20741813 0.10109815 1.6530402e-38
0.89098471 -0.20991813 0.10359815 1.9205513e-38
0.89098471 -0.20991813 0.10609815 1.6071217e-38
0.89098471 -0.20741813 0.10359815 1.671406e-38
0.89098471 -0.20741813 0.10609815 1.6254884e-38
0.88598472 -0.21491814 0.10859815 2.0604651e-38
0.88598472 -0.21491814 0.11109815 1.8681848e-38
0.88598472 -0.21241812 0.10859815 1.7009381e-38
0.88598472 -0.21241812 0.11109815 2.106491e-38
0.88848472 -0.21491814 0.10859815 2.0696144e-38
0.88848472 -0.21491814 0.11109815 2.1708477e-38
0.88848472 -0.21241812 0.10859815 1.6918277e-38
0.88848472 -0.21241812 0.11109815 1.6637719e-38
0.88598472 -0.21491814 0.11359815 1.9048853e-38
0.88598472 -0.21491814 0.11609815 1.8499607e-38
0.88598472 -0.21241812 0.11359815 2.207402e-38
0.88848472 -0.21491814 0.11609815 1.9235766e-38
0.88848472 -0.21241812 0.11609815 2.2439563e-38
0.88598472 -0.20991813 0.10859815 1.7729304e-38
0.88848472 -0.20991813 0.10859815 1.7821151e-38
0.88848472 -0.20991813 0.11109815 1.6254898e-38
0.88848472 -0.20741813 0.10859815 1.6438565e-38
0.88848472 -0.20741813 0.11109815 1.6254901e-38
0.88598472 -0.20991813 0.11359815 1.5795721e-38
0.88598472 -0.20741813 0.11359815 1.5795715e-38
0.88848472 -0.20991813 0.11609815 1.4418179e-38
0.88848472 -0.20741813 0.11609815 1.5797884e-38
0.89098471 -0.21491814 0.10859815 2.1247854e-38
0.89098471 -0.21491814 0.11109815 2.1891411e-38
0.89098471 -0.21241812 0.10859815 1.6730268e-38
0.89098471 -0.21241812 0.11109815 1.6267478e-38
0.89348471 -0.21491814 0.10859815 2.1247488e-38
0.89348471 -0.21241812 0.10859815 1.7007943e-38
0.89098471 -0.21491814 0.11359815 2.2166216e-38
0.89098471 -0.21491814 0.11609815 1.8868775e-38
0.89098471 -0.21241812 0.11359815 1.6357891e-38
0.89098471 -0.21241812 0.11609815 1.5336556e-38
0.89348471 -0.21491814 0.11359815 2.2624301e-38
0.89098471 -0.20991813 0.10859815 1.6438596e-38
0.89098471 -0.20991813 0.11109815 1.6071212e-38
0.89098471 -0.20741813 0.10859815 1.6254895e-38
0.89098471 -0.20741813 0.11109815 1.6622229e-38
0.89348471 -0.20991813 0.10859815 1.5795705e-38
0.89348471 -0.20741813 0.10859815 1.6622237e-38
0.89098471 -0.20991813 0.11359815 1.5979383e-38
0.89098471 -0.20991813 0.11609815 1.4877356e-38
0.89098471 -0.20741813 0.11359815 1.6254895e-38
0.89098471 -0.20741813 0.11609815 1.6071593e-38
0.89348471 -0.20991813 0.11359815 1.5152892e-38
0.89348471 -0.20991813 0.11609815 1.58883e-38
0.89348471 -0.20741813 0.11359815 1.5795714e-38
0.89348471 -0.20741813 0.11609815 1.5979381e-38
0.89598471 -0.21741813 0.11109815 1.831486e-38
0.89598471 -0.21241812 0.098598145 2.0128538e-38
0.89098471 -0.21741813 0.11859815 1.8775837e-38
0.89098471 -0.21741813 0.12109815 1.905389e-38
0.89348471 -0.21741813 0.11859815 1.886876e-38
0.88598472 -0.21491814 0.11859815 1.8866261e-38
0.88598472 -0.21491814 0.12109815 1.8866963e-38
0.88598472 -0.21241812 0.11859815 2.2530309e-38
0.88598472 -0.21241812 0.12109815 2.1977134e-38
0.88848472 -0.21241812 0.12109815 2.2250508e-38
0.88598472 -0.21241812 0.12359815 2.2527442e-38
0.88598472 -0.20991813 0.11859815 1.5612767e-38
0.88598472 -0.20991813 0.12109815 1.4878429e-38
0.88598472 -0.20741813 0.11859815 1.6071593e-38
0.88598472 -0.20741813 0.12109815 1.5703905e-38
0.88848472 -0.20991813 0.12109815 1.4326347e-38
0.88848472 -0.20741813 0.12109815 1.5520206e-38
0.88598472 -0.20991813 0.12359815 1.5428366e-38
0.88598472 -0.20991813 0.12609814 1.6163052e-38
0.88598472 -0.20741813 0.12359815 1.5521646e-38
0.88598472 -0.20741813 0.12609814 1.6346724e-38
0.88848472 -0.20991813 0.12609814 1.6530389e-38
0.88848472 -0.20741813 0.12359815 1.5795712e-38
0.88848472 -0.20741813 0.12609814 1.6438554e-38
0.89098471 -0.21491814 0.11859815 1.9052425e-38
0.89098471 -0.21491814 0.12109815 1.8408523e-38
0.89098471 -0.21241812 0.11859815 2.2250875e-38
0.89098471 -0.21241812 0.12109815 2.2252282e-38
0.89348471 -0.21491814 0.11859815 1.8592172e-38
0.89348471 -0.21241812 0.11859815 1.4785556e-38
0.89098471 -0.20991813 0.11859815 1.4877356e-38
0.89098471 -0.20741813 0.11859815 1.5703887e-38
0.89348471 -0.20991813 0.11859815 1.496919e-38
0.89348471 -0.20741813 0.11859815 1.5703885e-38
0.88598472 -0.20741813 0.13109815 1.7356909e-38
0.88848472 -0.20991813 0.12859815 1.6530396e-38
0.88848472 -0.20741813 0.12859815 1.6438559e-38
0.88598472 -0.20741813 0.13359815 1.8091612e-38
0.88848472 -0.20741813 0.13359815 1.7173238e-38
0.89098471 -0.20741813 0.12859815 1.6622225e-38
0.89098471 -0.20741813 0.13109815 1.7265073e-38
0.89348471 -0.20741813 0.12859815 1.7265073e-38
0.89348471 -0.20741813 0.13109815 1.799978e-38
0.87598473 -0.20491813 0.096098147 1.6805907e-38
0.87848473 -0.20241813 0.09359815 1.6897743e-38
0.87848473 -0.20241813 0.096098147 1.6897745e-38
0.88348472 -0.20491813 0.088598147 1.6898094e-38
0.88348472 -0.20491813 0.091098145 1.6989595e-38
0.88348472 -0.20241813 0.091098145 1.6897748e-38
0.88098472 -0.20491813 0.09359815 1.6989586e-38
0.88098472 -0.20491813 0.096098147 1.6989579e-38
0.88098472 -0.20241813 0.096098147 1.6805906e-38
0.88348472 -0.20491813 0.09359815 1.6989586e-38
0.88348472 -0.20241813 0.09359815 1.6989579e-38
0.88348472 -0.20491813 0.098598145 1.6897748e-38
0.88348472 -0.20241813 0.098598145 1.6805896e-38
0.87598473 -0.20491813 0.12609814 1.5704593e-38
0.87848473 -0.20491813 0.12609814 1.5428363e-38
0.87848473 -0.20241813 0.12609814 1.5612034e-38
0.88348472 -0.20491813 0.12109815 1.5703881e-38
0.88348472 -0.20241813 0.12109815 1.5795707e-38
0.88098472 -0.20491813 0.12609814 1.5612034e-38
0.88098472 -0.20241813 0.12609814 1.5612034e-38
0.88348472 -0.20491813 0.12359815 1.5612034e-38
0.88348472 -0.20491813 0.12609814 1.6071212e-38
0.88348472 -0.20241813 0.12359815 1.487735e-38
0.88348472 -0.20241813 0.12609814 1.5887541e-38
0.88348472 -0.19991814 0.12109815 1.5428363e-38
0.88348472 -0.19741812 0.12109815 1.5703874e-38
0.88348472 -0.19991814 0.12359815 1.5152857e-38
0.88348472 -0.19991814 0.12609814 1.5795705e-38
0.88348472 -0.19741812 0.12359815 1.5428363e-38
0.88348472 -0.19741812 0.12609814 1.5428363e-38
0.87598473 -0.20491813 0.12859815 1.5336528e-38
0.87598473 -0.20491813 0.13109815 1.6163047e-38
0.87598473 -0.20241813 0.13109815 1.6163047e-38
0.87848473 -0.20491813 0.12859815 1.5612039e-38
0.87848473 -0.20491813 0.13109815 1.6438554e-38
0.87848473 -0.20241813 0.12859815 1.5795705e-38
0.87848473 -0.20241813 0.13109815 1.6163047e-38
0.87598473 -0.20491813 0.13359815 1.6346718e-38
0.87598473 -0.20491813 0.13609815 1.7265073e-38
0.87848473 -0.20491813 0.13359815 1.6622225e-38
0.87848473 -0.20241813 0.13359815 1.6346718e-38
0.88098472 -0.20491813 0.12859815 1.616305e-38
0.88098472 -0.20491813 0.13109815 1.6346718e-38
0.88098472 -0.20241813 0.12859815 1.6163047e-38
0.88098472 -0.20241813 0.13109815 1.6346718e-38
0.88348472 -0.20491813 0.12859815 1.6163047e-38
0.88348472 -0.20491813 0.13109815 1.6254883e-38
0.88348472 -0.20241813 0.12859815 1.616305e-38
0.88348472 -0.20241813 0.13109815 1.6254883e-38
0.88098472 -0.20491813 0.13609815 1.7173238e-38
0.88098472 -0.20241813 0.13609815 1.7173238e-38
0.88348472 -0.20491813 0.13359815 1.726508e-38
0.88348472 -0.20491813 0.13609815 1.7907941e-38
0.88348472 -0.20241813 0.13359815 1.7173239e-38
0.88348472 -0.20241813 0.13609815 1.818346e-38
0.88098472 -0.19991814 0.12859815 1.5795705e-38
0.88098472 -0.19991814 0.13109815 1.6346718e-38
0.88348472 -0.19991814 0.12859815 1.570387e-38
0.88348472 -0.19991814 0.13109815 1.6163047e-38
0.88848472 -0.19741812 0.066098146 1.6901358e-38
0.89098471 -0.20491813 0.066098146 1.7176856e-38
0.89098471 -0.20241813 0.066098146 1.6718043e-38
0.89098471 -0.19991814 0.066098146 1.6808092e-38
0.89098471 -0.19741812 0.066098146 1.6808092e-38
0.88598472 -0.20491813 0.068598151 1.7086458e-38
0.88848472 -0.20491813 0.068598151 1.7087525e-38
0.88848472 -0.20491813 0.071098149 1.7175781e-38
0.88848472 -0.20241813 0.068598151 1.726942e-38
0.88848472 -0.20491813 0.073598146 1.7082155e-38
0.88848472 -0.20491813 0.076098144 1.6991742e-38
0.88848472 -0.20241813 0.073598146 1.7543466e-38
0.88848472 -0.19991814 0.068598151 1.6899208e-38
0.88848472 -0.19741812 0.068598151 1.6716612e-38
0.89098471 -0.20491813 0.068598151 1.699426e-38
0.89098471 -0.20491813 0.071098149 1.6992105e-38
0.89098471 -0.20241813 0.068598151 1.7178303e-38
0.89098471 -0.20241813 0.071098149 1.7083937e-38
0.89348471 -0.20491813 0.068598151 1.6808442e-38
0.89348471 -0.20241813 0.068598151 1.7174338e-38
0.89348471 -0.20241813 0.071098149 1.7081426e-38
0.89098471 -0.20491813 0.073598146 1.6899559e-38
0.89098471 -0.20491813 0.076098144 1.6901345e-38
0.89098471 -0.20241813 0.073598146 1.7266533e-38
0.89098471 -0.20241813 0.076098144 1.7266881e-38
0.89098471 -0.19991814 0.068598151 1.7173632e-38
0.89098471 -0.19991814 0.071098149 1.6714088e-38
0.89098471 -0.19741812 0.068598151 1.6714446e-38
0.89098471 -0.19741812 0.071098149 1.7082152e-38
0.89348471 -0.19991814 0.068598151 1.7083951e-38
0.89348471 -0.19991814 0.071098149 1.7173257e-38
0.89348471 -0.19741812 0.068598151 1.6991754e-38
0.89348471 -0.19741812 0.071098149 1.6989586e-38
0.89098471 -0.19991814 0.073598146 1.708249e-38
0.89098471 -0.19991814 0.076098144 1.7081435e-38
0.89098471 -0.19741812 0.073598146 1.6990294e-38
0.89098471 -0.19741812 0.076098144 1.6989598e-38
0.89348471 -0.19991814 0.073598146 1.7265091e-38
0.89348471 -0.19991814 0.076098144 1.6989586e-38
0.89348471 -0.19741812 0.073598146 1.7081416e-38
0.89348471 -0.19741812 0.076098144 1.6989586e-38
0.89098471 -0.19491813 0.066098146 1.6715177e-38
0.89098471 -0.19241813 0.066098146 1.6897754e-38
0.89098471 -0.18991813 0.066098146 1.6071231e-38
0.88848472 -0.19491813 0.068598151 1.6897786e-38
0.88848472 -0.19241813 0.068598151 1.6806278e-38
0.88848472 -0.19241813 0.071098149 1.7266902e-38
0.88848472 -0.19491813 0.073598146 1.7082152e-38
0.88848472 -0.19241813 0.073598146 1.7082139e-38
0.88848472 -0.18991813 0.068598151 1.6530408e-38
0.88848472 -0.18991813 0.071098149 1.7082858e-38
0.88848472 -0.18991813 0.073598146 1.6989586e-38
0.89098471 -0.19491813 0.068598151 1.6991035e-38
0.89098471 -0.19491813 0.071098149 1.7081783e-38
0.89098471 -0.19241813 0.068598151 1.6991742e-38
0.89098471 -0.19241813 0.071098149 1.7082858e-38
0.89348471 -0.19491813 0.068598151 1.6991035e-38
0.89348471 -0.19491813 0.071098149 1.7081423e-38
0.89348471 -0.19241813 0.068598151 1.7266902e-38
0.89348471 -0.19241813 0.071098149 1.7081423e-38
0.89098471 -0.19491813 0.073598146 1.6989586e-38
0.89098471 -0.19491813 0.076098144 1.6805906e-38
0.89098471 -0.19241813 0.073598146 1.7173255e-38
0.89098471 -0.19241813 0.076098144 1.7081416e-38
0.89348471 -0.19491813 0.073598146 1.7081416e-38
0.89348471 -0.19491813 0.076098144 1.7081416e-38
0.89348471 -0.19241813 0.073598146 1.7173255e-38
0.89348471 -0.19241813 0.076098144 1.7173243e-38
0.89098471 -0.18991813 0.068598151 1.6899546e-38
0.89098471 -0.18991813 0.071098149 1.7082858e-38
0.89098471 -0.18741813 0.068598151 1.7174701e-38
0.89098471 -0.18741813 0.071098149 1.6989586e-38
0.89348471 -0.18991813 0.068598151 1.6715527e-38
0.89348471 -0.18991813 0.071098149 1.7081416e-38
0.89348471 -0.18741813 0.068598151 1.6989598e-38
0.89348471 -0.18741813 0.071098149 1.7081428e-38
0.89098471 -0.18991813 0.073598146 1.7081423e-38
0.89098471 -0.18741813 0.073598146 1.6989579e-38
0.89348471 -0.18991813 0.073598146 1.7081416e-38
0.89348471 -0.18991813 0.076098144 1.7081406e-38
0.89348471 -0.18741813 0.073598146 1.7081416e-38
0.89348471 -0.18741813 0.076098144 1.6989579e-38
0.89598471 -0.20491813 0.066098146 1.7451648e-38
0.89598471 -0.20241813 0.066098146 1.7266896e-38
0.89598471 -0.19741812 0.076098144 1.6989579e-38
0.89598471 -0.18741813 0.066098146 1.6898827e-38
0.89848471 -0.18741813 0.066098146 1.6899175e-38
0.89598471 -0.19491813 0.076098144 1.6989579e-38
0.89598471 -0.19241813 0.073598146 1.7081416e-38
0.89598471 -0.19241813 0.076098144 1.7081416e-38
0.89848471 -0.19491813 0.076098144 1.6897748e-38
0.89848471 -0.19241813 0.076098144 1.7081416e-38
0.89598471 -0.18741813 0.068598151 1.6898827e-38
0.89848471 -0.18741813 0.068598151 1.7081416e-38
0.89848471 -0.18741813 0.071098149 1.6897757e-38
0.89598471 -0.18991813 0.073598146 1.7081416e-38
0.89598471 -0.18991813 0.076098144 1.6989579e-38
0.89598471 -0.18741813 0.073598146 1.6989589e-38
0.89598471 -0.18741813 0.076098144 1.6989591e-38
0.89848471 -0.18991813 0.076098144 1.6989579e-38
0.89848471 -0.18741813 0.073598146 1.6622246e-38
0.89848471 -0.18741813 0.076098144 1.5428398e-38
0.9009847 -0.18741813 0.068598151 1.7081416e-38
0.9009847 -0.18741813 0.071098149 1.7081428e-38
0.9009847 -0.18741813 0.073598146 1.5798941e-38
0.9009847 -0.18741813 0.076098144 1.5888984e-38
0.88848472 -0.20491813 0.078598149 1.6899546e-38
0.88848472 -0.20491813 0.081098147 1.7175054e-38
0.88848472 -0.20241813 0.078598149 1.7448765e-38
0.88848472 -0.20241813 0.081098147 1.7265091e-38
0.88598472 -0.20491813 0.086098149 1.7081402e-38
0.88598472 -0.20241813 0.086098149 1.7081416e-38
0.88848472 -0.20491813 0.083598144 1.7081416e-38
0.88848472 -0.20491813 0.086098149 1.6989579e-38
0.88848472 -0.20241813 0.083598144 1.7356928e-38
0.88848472 -0.20241813 0.086098149 1.6989568e-38
0.88848472 -0.19991814 0.081098147 1.6989579e-38
0.88848472 -0.19991814 0.086098149 1.6806255e-38
0.89098471 -0.20491813 0.081098147 1.680591e-38
0.89098471 -0.20241813 0.078598149 1.7081416e-38
0.89098471 -0.20241813 0.081098147 1.7081416e-38
0.89348471 -0.20241813 0.081098147 1.7081416e-38
0.89098471 -0.20491813 0.083598144 1.6989579e-38
0.89098471 -0.20241813 0.083598144 1.6989579e-38
0.89348471 -0.20241813 0.083598144 1.7265086e-38
0.89098471 -0.19991814 0.078598149 1.7173255e-38
0.89098471 -0.19991814 0.081098147 1.7081416e-38
0.89098471 -0.19741812 0.078598149 1.7081416e-38
0.89348471 -0.19991814 0.081098147 1.7081416e-38
0.89348471 -0.19741812 0.081098147 1.7081416e-38
0.89098471 -0.19991814 0.083598144 1.7081408e-38
0.89348471 -0.19991814 0.083598144 1.7173249e-38
0.89348471 -0.19991814 0.086098149 1.6989577e-38
0.89348471 -0.19741812 0.086098149 1.6989579e-38
0.88598472 -0.20491813 0.091098145 1.6989571e-38
0.88598472 -0.20241813 0.091098145 1.6897734e-38
0.88848472 -0.20491813 0.088598147 1.6989579e-38
0.88848472 -0.20491813 0.091098145 1.6897741e-38
0.88848472 -0.20241813 0.088598147 1.6805907e-38
0.88848472 -0.20241813 0.091098145 1.6897741e-38
0.88598472 -0.20491813 0.09359815 1.6805906e-38
0.88598472 -0.20491813 0.096098147 1.7081408e-38
0.88598472 -0.20241813 0.09359815 1.6805906e-38
0.88848472 -0.20491813 0.09359815 1.6622228e-38
0.88848472 -0.20491813 0.096098147 1.6714065e-38
0.88848472 -0.20241813 0.09359815 1.6714065e-38
0.88848472 -0.20241813 0.096098147 1.6714065e-38
0.88598472 -0.19991814 0.091098145 1.7173242e-38
0.88598472 -0.19741812 0.091098145 1.6714069e-38
0.88848472 -0.19991814 0.088598147 1.6989568e-38
0.88848472 -0.19991814 0.091098145 1.6805917e-38
0.88848472 -0.19741812 0.088598147 1.6805907e-38
0.88848472 -0.19741812 0.091098145 1.7081415e-38
0.88598472 -0.19991814 0.09359815 1.6805906e-38
0.88598472 -0.19741812 0.09359815 1.6805906e-38
0.88848472 -0.19991814 0.09359815 1.6897738e-38
0.88848472 -0.19991814 0.096098147 1.6714065e-38
0.88848472 -0.19741812 0.09359815 1.6805906e-38
0.88848472 -0.19741812 0.096098147 1.671407e-38
0.89098471 -0.20241813 0.088598147 1.7265086e-38
0.89348471 -0.20241813 0.091098145 1.6989575e-38
0.89098471 -0.20491813 0.09359815 1.6897743e-38
0.89098471 -0.20241813 0.09359815 1.6805906e-38
0.89348471 -0.20491813 0.09359815 1.6805906e-38
0.89348471 -0.20491813 0.096098147 1.6530395e-38
0.89348471 -0.20241813 0.09359815 1.6622246e-38
0.89348471 -0.20241813 0.096098147 1.6438558e-38
0.89098471 -0.19991814 0.088598147 1.6805906e-38
0.89098471 -0.19741812 0.088598147 1.6805907e-38
0.89348471 -0.19991814 0.088598147 1.6897738e-38
0.89348471 -0.19991814 0.091098145 1.6897738e-38
0.89348471 -0.19741812 0.088598147 1.6989579e-38
0.89348471 -0.19741812 0.091098145 1.6897738e-38
0.89098471 -0.19991814 0.09359815 1.6714076e-38
0.89098471 -0.19741812 0.09359815 1.6714065e-38
0.89348471 -0.19991814 0.09359815 1.6805918e-38
0.89348471 -0.19991814 0.096098147 1.6530406e-38
0.89348471 -0.19741812 0.09359815 1.6897738e-38
0.89348471 -0.19741812 0.096098147 1.6622239e-38
0.89098471 -0.19491813 0.078598149 1.6805907e-38
0.89098471 -0.19241813 0.078598149 1.6989606e-38
0.89348471 -0.19491813 0.081098147 1.6989579e-38
0.89348471 -0.19241813 0.081098147 1.6989591e-38
0.89348471 -0.19491813 0.086098149 1.6989579e-38
0.89348471 -0.19241813 0.086098149 1.6989568e-38
0.88598472 -0.19491813 0.091098145 1.6805906e-38
0.88848472 -0.19491813 0.091098145 1.6805896e-38
0.88848472 -0.19241813 0.091098145 1.6805915e-38
0.88598472 -0.19491813 0.09359815 1.6805906e-38
0.88848472 -0.19491813 0.09359815 1.6714069e-38
0.88848472 -0.19491813 0.096098147 1.6805907e-38
0.88848472 -0.19241813 0.096098147 1.6805913e-38
0.88848472 -0.18991813 0.091098145 1.6714069e-38
0.88848472 -0.18991813 0.096098147 1.6346732e-38
0.89098471 -0.19241813 0.088598147 1.6989579e-38
0.89348471 -0.19491813 0.088598147 1.6989579e-38
0.89348471 -0.19491813 0.091098145 1.671407e-38
0.89348471 -0.19241813 0.088598147 1.7081416e-38
0.89348471 -0.19241813 0.091098145 1.6989579e-38
0.89098471 -0.19491813 0.09359815 1.6897743e-38
0.89098471 -0.19241813 0.09359815 1.6897743e-38
0.89348471 -0.19491813 0.09359815 1.6897741e-38
0.89348471 -0.19491813 0.096098147 1.6805913e-38
0.89348471 -0.19241813 0.09359815 1.6714065e-38
0.89348471 -0.19241813 0.096098147 1.6805913e-38
0.89348471 -0.18991813 0.088598147 1.698957e-38
0.89348471 -0.18991813 0.091098145 1.6805907e-38
0.89348471 -0.18741813 0.088598147 1.7081402e-38
0.89348471 -0.18741813 0.091098145 1.588793e-38
0.89098471 -0.18991813 0.09359815 1.6897743e-38
0.89348471 -0.18991813 0.09359815 1.6805917e-38
0.89348471 -0.18991813 0.096098147 1.689775e-38
0.89348471 -0.18741813 0.09359815 1.5337257e-38
0.89598471 -0.20241813 0.083598144 1.7081418e-38
0.89598471 -0.19741812 0.078598149 1.6989579e-38
0.89598471 -0.19741812 0.081098147 1.698957e-38
0.89848471 -0.19991814 0.081098147 1.6989579e-38
0.89848471 -0.19741812 0.081098147 1.6989568e-38
0.89598471 -0.19991814 0.083598144 1.6989589e-38
0.89598471 -0.19741812 0.083598144 1.7081426e-38
0.89598471 -0.19741812 0.086098149 1.6805906e-38
0.89848471 -0.19991814 0.083598144 1.6989579e-38
0.89848471 -0.19741812 0.083598144 1.7081416e-38
0.9009847 -0.19991814 0.081098147 1.7173255e-38
0.9009847 -0.19741812 0.081098147 1.7081418e-38
0.9034847 -0.19991814 0.081098147 1.6805907e-38
0.9034847 -0.19741812 0.081098147 1.6897731e-38
0.9009847 -0.19991814 0.083598144 1.6897741e-38
0.89598471 -0.20491813 0.096098147 1.6897731e-38
0.89598471 -0.20241813 0.096098147 1.6714076e-38
0.89598471 -0.19991814 0.088598147 1.7081416e-38
0.89598471 -0.19991814 0.091098145 1.6805906e-38
0.89598471 -0.19741812 0.088598147 1.6897741e-38
0.89598471 -0.19741812 0.091098145 1.6897741e-38
0.89848471 -0.19741812 0.088598147 1.6897741e-38
0.89598471 -0.19991814 0.096098147 1.6714076e-38
0.89598471 -0.19741812 0.096098147 1.6714065e-38
0.89848471 -0.19991814 0.09359815 1.68059e-38
0.89848471 -0.19741812 0.09359815 1.68059e-38
0.89598471 -0.19491813 0.078598149 1.6989579e-38
0.89598471 -0.19491813 0.081098147 1.6989579e-38
0.89598471 -0.19241813 0.078598149 1.671406e-38
0.89598471 -0.19241813 0.081098147 1.6805897e-38
0.89848471 -0.19491813 0.078598149 1.6989568e-38
0.89848471 -0.19491813 0.081098147 1.6989568e-38
0.89848471 -0.19241813 0.078598149 1.6805896e-38
0.89848471 -0.19241813 0.081098147 1.671406e-38
0.89598471 -0.19491813 0.083598144 1.6897741e-38
0.89598471 -0.19491813 0.086098149 1.6989579e-38
0.89598471 -0.19241813 0.083598144 1.6346718e-38
0.89598471 -0.19241813 0.086098149 1.7081402e-38
0.89848471 -0.19491813 0.083598144 1.6989568e-38
0.89848471 -0.19241813 0.083598144 1.6805899e-38
0.89598471 -0.18991813 0.078598149 1.6897734e-38
0.89598471 -0.18991813 0.081098147 1.6897734e-38
0.89598471 -0.18741813 0.078598149 1.6805907e-38
0.89598471 -0.18741813 0.081098147 1.6714065e-38
0.89848471 -0.18991813 0.078598149 1.7081411e-38
0.89848471 -0.18991813 0.081098147 1.671406e-38
0.89848471 -0.18741813 0.078598149 1.4602959e-38
0.89848471 -0.18741813 0.081098147 1.6346718e-38
0.89598471 -0.18991813 0.083598144 1.6805896e-38
0.89598471 -0.18991813 0.086098149 1.6989567e-38
0.89598471 -0.18741813 0.083598144 1.6346718e-38
0.89598471 -0.18741813 0.086098149 1.6071212e-38
0.89848471 -0.18991813 0.083598144 1.7081408e-38
0.89848471 -0.18741813 0.083598144 1.5979376e-38
0.9009847 -0.19491813 0.081098147 1.6897741e-38
0.9009847 -0.19241813 0.081098147 1.6438554e-38
0.9034847 -0.19491813 0.078598149 1.6989577e-38
0.9034847 -0.19491813 0.081098147 1.6897731e-38
0.9009847 -0.19491813 0.083598144 1.6805915e-38
0.9009847 -0.18991813 0.081098147 1.754095e-38
0.9009847 -0.18741813 0.078598149 1.4879536e-38
0.9009847 -0.18741813 0.081098147 1.6346718e-38
0.9009847 -0.18741813 0.083598144 1.1220892e-38
0.89598471 -0.19491813 0.088598147 1.6897731e-38
0.89598471 -0.19491813 0.091098145 1.671407e-38
0.89598471 -0.19241813 0.088598147 1.6714069e-38
0.89598471 -0.19241813 0.091098145 1.6714069e-38
0.89848471 -0.19491813 0.088598147 1.6897741e-38
0.89848471 -0.19241813 0.088598147 1.6897743e-38
0.89598471 -0.19491813 0.096098147 1.689775e-38
0.89598471 -0.19241813 0.096098147 1.6438558e-38
0.89848471 -0.19491813 0.09359815 1.689774e-38
0.89848471 -0.19241813 0.09359815 1.7081415e-38
0.89598471 -0.18991813 0.088598147 1.6897743e-38
0.89598471 -0.18991813 0.091098145 1.6622236e-38
0.89598471 -0.18741813 0.088598147 1.6530395e-38
0.89598471 -0.18741813 0.091098145 1.597939e-38
0.89848471 -0.18991813 0.088598147 1.6071223e-38
0.89848471 -0.18741813 0.088598147 1.570387e-38
0.89848471 -0.18741813 0.091098145 1.515394e-38
0.89598471 -0.18991813 0.096098147 1.689775e-38
0.89598471 -0.18741813 0.096098147 1.5153574e-38
0.89848471 -0.18991813 0.09359815 1.6530408e-38
0.89848471 -0.18741813 0.09359815 1.5337963e-38
0.89848471 -0.18741813 0.096098147 1.5621029e-38
0.89098471 -0.18491814 0.068598151 1.6715525e-38
0.89098471 -0.18491814 0.071098149 1.7081423e-38
0.89098471 -0.18491814 0.073598146 1.7081416e-38
0.89348471 -0.18491814 0.073598146 1.7081416e-38
0.89348471 -0.18491814 0.076098144 1.6438571e-38
0.89848471 -0.18491814 0.066098146 1.6899175e-38
0.9034847 -0.18491814 0.066098146 1.7173255e-38
0.89848471 -0.18491814 0.071098149 1.6989579e-38
0.89598471 -0.18491814 0.073598146 1.7082858e-38
0.89598471 -0.18491814 0.076098144 1.5704629e-38
0.89848471 -0.18491814 0.073598146 1.6897757e-38
0.89848471 -0.18491814 0.076098144 1.58883e-38
0.89848471 -0.18241812 0.073598146 1.6992107e-38
0.89848471 -0.18241812 0.076098144 1.4515755e-38
0.9009847 -0.18491814 0.068598151 1.7081416e-38
0.9009847 -0.18491814 0.071098149 1.6989591e-38
0.9009847 -0.18241812 0.071098149 1.6989579e-38
0.9034847 -0.18491814 0.068598151 1.68059e-38
0.9034847 -0.18241812 0.068598151 1.7081416e-38
0.9009847 -0.18491814 0.073598146 1.6259559e-38
0.9009847 -0.18491814 0.076098144 1.3958995e-38
0.9009847 -0.18241812 0.073598146 1.4791994e-38
0.9009847 -0.18241812 0.076098144 1.0744753e-38
0.9009847 -0.17991813 0.071098149 1.7545278e-38
0.9009847 -0.17741813 0.071098149 1.7176856e-38
0.9034847 -0.17991813 0.071098149 1.7817551e-38
0.9034847 -0.17741813 0.071098149 1.7173257e-38
0.9009847 -0.17991813 0.076098144 1.432635e-38
0.9034847 -0.17991813 0.073598146 1.6075896e-38
0.9034847 -0.17741813 0.073598146 1.5983701e-38
0.9034847 -0.17741813 0.076098144 1.3596341e-38
0.9034847 -0.16991813 0.066098146 1.7266902e-38
0.9034847 -0.16741812 0.066098146 1.7082152e-38
0.89848471 -0.16991813 0.073598146 1.6898827e-38
0.89848471 -0.16741812 0.073598146 1.6898827e-38
0.9034847 -0.17491813 0.071098149 1.7173269e-38
0.9034847 -0.17241813 0.068598151 1.6989598e-38
0.9034847 -0.17241813 0.071098149 1.7356934e-38
0.9009847 -0.17491813 0.073598146 1.6805907e-38
0.9009847 -0.17491813 0.076098144 1.6714433e-38
0.9009847 -0.17241813 0.073598146 1.7173255e-38
0.9009847 -0.17241813 0.076098144 1.7083211e-38
0.9034847 -0.17491813 0.073598146 1.6897757e-38
0.9034847 -0.17241813 0.073598146 1.7081416e-38
0.9009847 -0.16991813 0.071098149 1.717326e-38
0.9009847 -0.16741812 0.068598151 1.6806641e-38
0.9009847 -0.16741812 0.071098149 1.6989596e-38
0.9034847 -0.16991813 0.068598151 1.6805921e-38
0.9034847 -0.16741812 0.068598151 1.6989596e-38
0.9009847 -0.16991813 0.073598146 1.7081416e-38
0.9009847 -0.16991813 0.076098144 1.7266896e-38
0.9009847 -0.16741812 0.073598146 1.6989599e-38
0.9009847 -0.16741812 0.076098144 1.7268345e-38
0.9034847 -0.16991813 0.073598146 1.6898827e-38
0.9034847 -0.16991813 0.076098144 1.3781084e-38
0.89598471 -0.18491814 0.078598149 1.5153237e-38
0.89598471 -0.18491814 0.081098147 1.4605477e-38
0.89848471 -0.18491814 0.078598149 1.432853e-38
0.89848471 -0.18491814 0.081098147 1.8412133e-38
0.89848471 -0.18241812 0.078598149 1.0287026e-38
0.89848471 -0.18241812 0.081098147 1.6942766e-38
0.89598471 -0.18491814 0.083598144 1.1128678e-38
0.89598471 -0.18491814 0.086098149 1.1220186e-38
0.89848471 -0.18491814 0.083598144 1.8594732e-38
0.89848471 -0.18241812 0.083598144 1.7132174e-38
0.9009847 -0.18491814 0.081098147 1.8413205e-38
0.9009847 -0.18241812 0.078598149 1.1024591e-38
0.9009847 -0.18241812 0.081098147 1.6759447e-38
0.9034847 -0.18241812 0.078598149 1.2701767e-38
0.9009847 -0.18491814 0.086098149 1.7303948e-38
0.9009847 -0.18241812 0.086098149 1.7405167e-38
0.9009847 -0.17991813 0.078598149 1.1671748e-38
0.9009847 -0.17991813 0.081098147 1.2609213e-38
0.9009847 -0.17741813 0.078598149 1.2317118e-38
0.9034847 -0.17991813 0.078598149 1.2796827e-38
0.9034847 -0.17991813 0.081098147 1.5287205e-38
0.9034847 -0.17741813 0.078598149 1.3442197e-38
0.9034847 -0.17741813 0.081098147 1.3535847e-38
0.9009847 -0.17991813 0.083598144 1.242624e-38
0.9009847 -0.17991813 0.086098149 1.1965985e-38
0.9009847 -0.17741813 0.083598144 1.1878102e-38
0.9034847 -0.17991813 0.086098149 8.1873988e-39
0.9034847 -0.17741813 0.086098149 1.2244008e-38
0.89598471 -0.18491814 0.091098145 1.2233233e-38
0.89598471 -0.18241812 0.091098145 1.711993e-38
0.89848471 -0.18491814 0.088598147 1.2140295e-38
0.89848471 -0.18491814 0.091098145 1.3156224e-38
0.89848471 -0.18241812 0.088598147 1.7487643e-38
0.89848471 -0.18241812 0.091098145 1.7121358e-38
0.89848471 -0.18491814 0.09359815 1.2511968e-38
0.89848471 -0.18491814 0.096098147 1.3157332e-38
0.89848471 -0.18241812 0.09359815 1.5185642e-38
0.89848471 -0.18241812 0.096098147 1.5001245e-38
0.89848471 -0.17991813 0.091098145 1.2706431e-38
0.89848471 -0.17991813 0.096098147 1.2798985e-38
0.89848471 -0.17741813 0.096098147 1.3812428e-38
0.9009847 -0.18241812 0.088598147 1.703889e-38
0.9009847 -0.18241812 0.091098145 1.5092727e-38
0.9009847 -0.17991813 0.088598147 1.2797531e-38
0.9009847 -0.17991813 0.091098145 1.3072325e-38
0.9009847 -0.17741813 0.091098145 1.2336953e-38
0.9034847 -0.17991813 0.088598147 9.391344e-39
0.9034847 -0.17991813 0.091098145 1.2520983e-38
0.9034847 -0.17741813 0.088598147 1.7135418e-38
0.9034847 -0.17741813 0.091098145 1.5932224e-38
0.9009847 -0.17991813 0.09359815 1.2798276e-38
0.9009847 -0.17741813 0.09359815 1.3627664e-38
0.9034847 -0.17741813 0.096098147 1.3995373e-38
0.9009847 -0.17491813 0.078598149 1.3596341e-38
0.9009847 -0.17241813 0.078598149 1.3594543e-38
0.9034847 -0.17491813 0.078598149 1.343607e-38
0.9034847 -0.17491813 0.081098147 1.2797515e-38
0.9034847 -0.17241813 0.078598149 9.0052596e-39
0.9034847 -0.17241813 0.081098147 1.5556962e-38
0.9034847 -0.17491813 0.086098149 1.924477e-38
0.9034847 -0.17241813 0.086098149 1.5930397e-38
0.9009847 -0.16991813 0.078598149 1.3686739e-38
0.9009847 -0.16991813 0.081098147 1.3525787e-38
0.9009847 -0.16741812 0.078598149 1.4607642e-38
0.9009847 -0.16741812 0.081098147 1.4624494e-38
0.9034847 -0.16991813 0.078598149 8.6364827e-39
0.9034847 -0.16991813 0.081098147 1.325207e-38
0.9034847 -0.16741812 0.078598149 1.0286652e-38
0.9034847 -0.16741812 0.081098147 1.213879e-38
0.9009847 -0.16991813 0.083598144 1.888065e-38
0.9009847 -0.16741812 0.083598144 1.8054484e-38
0.9034847 -0.16991813 0.086098149 1.8328194e-38
0.9034847 -0.16741812 0.086098149 1.8972843e-38
0.89848471 -0.17491813 0.096098147 1.3904624e-38
0.9034847 -0.17491813 0.091098145 1.6851624e-38
0.9034847 -0.17241813 0.091098145 1.6021864e-38
0.9034847 -0.17491813 0.096098147 1.2613871e-38
0.9034847 -0.17241813 0.096098147 1.2152894e-38
0.9034847 -0.16991813 0.091098145 1.7313347e-38
0.9034847 -0.16741812 0.091098145 1.7130009e-38
0.9009847 -0.16991813 0.09359815 1.6209492e-38
0.9009847 -0.16741812 0.09359815 1.6670483e-38
0.9034847 -0.16991813 0.096098147 1.5012063e-38
0.9034847 -0.16741812 0.096098147 1.5841788e-38
0.9059847 -0.19991814 0.081098147 1.7081416e-38
0.9059847 -0.19741812 0.081098147 1.6805896e-38
0.9059847 -0.18491814 0.066098146 1.6897748e-38
0.9059847 -0.18241812 0.066098146 1.6897748e-38
0.9059847 -0.17991813 0.066098146 1.6989586e-38
0.9059847 -0.17991813 0.068598151 1.7634957e-38
0.9059847 -0.17741813 0.068598151 1.7173255e-38
0.9059847 -0.17491813 0.066098146 1.6989607e-38
0.9059847 -0.17241813 0.066098146 1.7081435e-38
0.9059847 -0.16991813 0.066098146 1.6897762e-38
0.9059847 -0.17491813 0.068598151 1.6897748e-38
0.9059847 -0.17241813 0.068598151 1.7265454e-38
0.9059847 -0.17741813 0.081098147 1.2152891e-38
0.9059847 -0.17741813 0.083598144 1.2429111e-38
0.9059847 -0.17741813 0.088598147 1.7502777e-38
0.9059847 -0.17491813 0.081098147 1.2522765e-38
0.9059847 -0.17241813 0.081098147 1.9065043e-38
0.9059847 -0.17491813 0.083598144 1.3995711e-38
0.9059847 -0.17491813 0.086098149 1.5651655e-38
0.9059847 -0.17241813 0.083598144 1.8328194e-38
0.9059847 -0.17241813 0.086098149 1.5379738e-38
0.9059847 -0.16991813 0.081098147 1.8788451e-38
0.9059847 -0.16991813 0.083598144 1.8143788e-38
0.9059847 -0.16991813 0.086098149 1.6574682e-38
0.90848476 -0.16991813 0.086098149 1.6483915e-38
0.9059847 -0.17491813 0.088598147 2.0168166e-38
0.9059847 -0.17491813 0.091098145 1.3902501e-38
0.9059847 -0.17241813 0.088598147 1.5653087e-38
0.9059847 -0.17241813 0.091098145 1.5563406e-38
0.9059847 -0.17241813 0.09359815 1.1971765e-38
0.9059847 -0.16991813 0.088598147 1.6574684e-38
0.9059847 -0.16991813 0.091098145 1.6026533e-38
0.9059847 -0.16741812 0.088598147 1.6206621e-38
0.9059847 -0.16741812 0.09359815 1.6487158e-38
0.88598472 -0.20491813 0.098598145 1.6897743e-38
0.89098471 -0.20491813 0.098598145 1.6714065e-38
0.89098471 -0.20491813 0.10109815 1.6438558e-38
0.89098471 -0.20241813 0.098598145 1.6714065e-38
0.89098471 -0.20241813 0.10109815 1.6530395e-38
0.89348471 -0.20491813 0.098598145 1.6346721e-38
0.89348471 -0.20491813 0.10109815 1.634672e-38
0.89348471 -0.20241813 0.098598145 1.6438558e-38
0.89348471 -0.20241813 0.10109815 1.6438557e-38
0.89098471 -0.20491813 0.10359815 1.6530406e-38
0.89098471 -0.20491813 0.10609815 1.6714065e-38
0.89098471 -0.20241813 0.10609815 1.6438557e-38
0.89348471 -0.20491813 0.10359815 1.6622229e-38
0.89348471 -0.20241813 0.10359815 1.6438557e-38
0.89098471 -0.19991814 0.098598145 1.6714065e-38
0.89098471 -0.19991814 0.10109815 1.6714065e-38
0.89098471 -0.19741812 0.098598145 1.6805907e-38
0.89098471 -0.19741812 0.10109815 1.6714065e-38
0.89348471 -0.19991814 0.098598145 1.6622237e-38
0.89348471 -0.19991814 0.10109815 1.6897747e-38
0.89348471 -0.19741812 0.098598145 1.6622239e-38
0.89348471 -0.19741812 0.10109815 1.6530391e-38
0.89098471 -0.19991814 0.10609815 1.6622226e-38
0.89098471 -0.19741812 0.10609815 1.6438576e-38
0.89348471 -0.19991814 0.10359815 1.6622237e-38
0.89348471 -0.19991814 0.10609815 1.634673e-38
0.89348471 -0.19741812 0.10359815 1.6622237e-38
0.89348471 -0.19741812 0.10609815 1.6254919e-38
0.88848472 -0.20491813 0.11109815 1.6438561e-38
0.88848472 -0.20241813 0.10859815 1.6438565e-38
0.88848472 -0.20241813 0.11109815 1.6254883e-38
0.88598472 -0.20491813 0.11359815 1.6071223e-38
0.88598472 -0.20241813 0.11359815 1.6071217e-38
0.88848472 -0.20491813 0.11609815 1.6071217e-38
0.88848472 -0.20241813 0.11609815 1.6071224e-38
0.88848472 -0.19991814 0.10859815 1.6438565e-38
0.88848472 -0.19991814 0.11109815 1.6163047e-38
0.88848472 -0.19741812 0.11109815 1.6254883e-38
0.88598472 -0.19991814 0.11359815 1.6071217e-38
0.88598472 -0.19991814 0.11609815 1.5703873e-38
0.88598472 -0.19741812 0.11359815 1.6071217e-38
0.88848472 -0.19991814 0.11609815 1.5795712e-38
0.88848472 -0.19741812 0.11609815 1.5703903e-38
0.89098471 -0.20491813 0.10859815 1.6438565e-38
0.89098471 -0.20491813 0.11109815 1.6622229e-38
0.89098471 -0.20241813 0.10859815 1.634673e-38
0.89098471 -0.20241813 0.11109815 1.6163047e-38
0.89348471 -0.20491813 0.10859815 1.6622237e-38
0.89348471 -0.20241813 0.10859815 1.634673e-38
0.89098471 -0.20491813 0.11359815 1.6346718e-38
0.89098471 -0.20491813 0.11609815 1.5795707e-38
0.89098471 -0.20241813 0.11359815 1.5795707e-38
0.89098471 -0.19991814 0.10859815 1.6346727e-38
0.89098471 -0.19991814 0.11109815 1.6254883e-38
0.89098471 -0.19741812 0.10859815 1.625489e-38
0.89098471 -0.19741812 0.11109815 1.6071212e-38
0.89348471 -0.19991814 0.10859815 1.625489e-38
0.89348471 -0.19741812 0.10859815 1.625489e-38
0.89098471 -0.19991814 0.11359815 1.5979376e-38
0.89098471 -0.19991814 0.11609815 1.5612037e-38
0.89098471 -0.19741812 0.11359815 1.5887556e-38
0.89098471 -0.19741812 0.11609815 1.5703875e-38
0.89098471 -0.19491813 0.098598145 1.6805907e-38
0.89098471 -0.19491813 0.10109815 1.6805913e-38
0.89098471 -0.19241813 0.098598145 1.68059e-38
0.89098471 -0.19241813 0.10109815 1.68059e-38
0.89348471 -0.19491813 0.098598145 1.68059e-38
0.89348471 -0.19491813 0.10109815 1.6622228e-38
0.89348471 -0.19241813 0.098598145 1.6805913e-38
0.89348471 -0.19241813 0.10109815 1.671406e-38
0.89098471 -0.19491813 0.10359815 1.68059e-38
0.89098471 -0.19491813 0.10609815 1.6622226e-38
0.89098471 -0.19241813 0.10359815 1.68059e-38
0.89098471 -0.19241813 0.10609815 1.6622226e-38
0.89348471 -0.19491813 0.10359815 1.6622237e-38
0.89348471 -0.19491813 0.10609815 1.6438576e-38
0.89348471 -0.19241813 0.10359815 1.6622228e-38
0.89348471 -0.19241813 0.10609815 1.6622237e-38
0.89098471 -0.18991813 0.098598145 1.6530413e-38
0.89098471 -0.18991813 0.10109815 1.6805924e-38
0.89348471 -0.18991813 0.098598145 1.6622243e-38
0.89348471 -0.18991813 0.10109815 1.6622247e-38
0.89348471 -0.18991813 0.10359815 1.6989568e-38
0.89348471 -0.18991813 0.10609815 1.680591e-38
0.88598472 -0.19491813 0.11359815 1.5979381e-38
0.88848472 -0.19491813 0.11609815 1.6071224e-38
0.88848472 -0.19241813 0.11609815 1.5520209e-38
0.88848472 -0.18991813 0.11609815 1.5520209e-38
0.89098471 -0.19491813 0.11109815 1.5979381e-38
0.89098471 -0.19241813 0.11109815 1.6438562e-38
0.89348471 -0.19491813 0.10859815 1.6163052e-38
0.89348471 -0.19491813 0.11109815 1.6254883e-38
0.89348471 -0.19241813 0.10859815 1.6530399e-38
0.89348471 -0.19241813 0.11109815 1.6254887e-38
0.89098471 -0.19491813 0.11359815 1.5795712e-38
0.89098471 -0.19491813 0.11609815 1.5612034e-38
0.89098471 -0.19241813 0.11359815 1.5979381e-38
0.89098471 -0.19241813 0.11609815 1.561204e-38
0.89348471 -0.19491813 0.11359815 1.5703877e-38
0.89348471 -0.19241813 0.11359815 1.5795715e-38
0.89348471 -0.19241813 0.11609815 1.5612034e-38
0.89348471 -0.18991813 0.10859815 1.6438576e-38
0.89348471 -0.18991813 0.11109815 1.625489e-38
0.89348471 -0.18741813 0.11109815 1.6438561e-38
0.89098471 -0.18991813 0.11609815 1.5795715e-38
0.89098471 -0.18741813 0.11609815 1.5703873e-38
0.89348471 -0.18991813 0.11359815 1.5795707e-38
0.89348471 -0.18991813 0.11609815 1.5795715e-38
0.89348471 -0.18741813 0.11359815 1.6071217e-38
0.89348471 -0.18741813 0.11609815 1.5979389e-38
0.89598471 -0.20241813 0.10109815 1.6622228e-38
0.89598471 -0.19991814 0.10109815 1.6438554e-38
0.89598471 -0.19741812 0.098598145 1.671406e-38
0.89598471 -0.19741812 0.10109815 1.634672e-38
0.89598471 -0.19491813 0.098598145 1.6714069e-38
