# .PCD v0.7 - Point Cloud Data file format
VERSION 0.7
FIELDS x y z rgb
SIZE 4 4 4 4
TYPE F F F F
COUNT 1 1 1 1
WIDTH 999
HEIGHT 1
VIEWPOINT 0 0 0 1 0 0 0
POINTS 999
DATA ascii
0.8972165 -0.19212209 0.10282972 1.6897755e-38
0.8972165 -0.18962209 0.095329717 1.6622235e-38
0.8972165 -0.18962209 0.097829714 1.6438565e-38
0.8972165 -0.18712208 0.095329717 1.4698001e-38
0.8972165 -0.18712208 0.097829714 1.3320812e-38
0.8997165 -0.18712208 0.095329717 1.5896169e-38
0.8972165 -0.18962209 0.10032972 1.6438578e-38
0.8972165 -0.18962209 0.10282972 1.6438565e-38
0.8972165 -0.18712208 0.10032972 1.3321546e-38
0.8972165 -0.18712208 0.10282972 1.3413023e-38
0.8997165 -0.18712208 0.10032972 1.6084914e-38
0.8972165 -0.18962209 0.10782972 1.6438565e-38
0.8972165 -0.18712208 0.10532971 1.487736e-38
0.8972165 -0.18712208 0.10782972 1.5612034e-38
0.8972165 -0.18962209 0.11032972 1.634673e-38
0.8972165 -0.18962209 0.11282972 1.5795705e-38
0.8972165 -0.18712208 0.11032972 1.5520214e-38
0.8972165 -0.18712208 0.11282972 1.6163059e-38
0.8997165 -0.18462208 0.067829713 1.6989596e-38
0.8997165 -0.18212208 0.067829713 1.6898827e-38
0.8972165 -0.18462208 0.070329718 1.6989579e-38
0.8997165 -0.18462208 0.070329718 1.6622239e-38
0.8997165 -0.18462208 0.072829716 1.6899546e-38
0.8997165 -0.18212208 0.070329718 1.7081418e-38
0.8997165 -0.18212208 0.072829716 1.6993904e-38
0.90221649 -0.18462208 0.067829713 1.7081416e-38
0.90221649 -0.18212208 0.067829713 1.6898827e-38
0.90471649 -0.18462208 0.067829713 1.7265802e-38
0.90471649 -0.18212208 0.067829713 1.6898827e-38
0.90221649 -0.18462208 0.070329718 1.6992092e-38
0.90221649 -0.18212208 0.070329718 1.7178654e-38
0.90471649 -0.17962208 0.067829713 1.698962e-38
0.90221649 -0.17962208 0.070329718 1.7541705e-38
0.90221649 -0.17962208 0.072829716 1.5984809e-38
0.90221649 -0.17712209 0.070329718 1.717435e-38
0.90221649 -0.17712209 0.072829716 1.5984809e-38
0.90471649 -0.17962208 0.070329718 1.726942e-38
0.90471649 -0.17712209 0.070329718 1.7451292e-38
0.90221649 -0.17462209 0.072829716 1.6714086e-38
0.90221649 -0.17212209 0.072829716 1.7173266e-38
0.90471649 -0.17462209 0.070329718 1.7265118e-38
0.90471649 -0.17212209 0.070329718 1.7081428e-38
0.90221649 -0.16962208 0.072829716 1.6989595e-38
0.90221649 -0.16712208 0.072829716 1.6989595e-38
0.90471649 -0.16962208 0.070329718 1.6989595e-38
0.90471649 -0.16712208 0.070329718 1.7081423e-38
0.90221649 -0.16462208 0.072829716 1.6989586e-38
0.90221649 -0.16212209 0.072829716 1.6989586e-38
0.90471649 -0.16462208 0.070329718 1.6989586e-38
0.90471649 -0.16212209 0.070329718 1.6989599e-38
0.90221649 -0.15962209 0.072829716 1.6989599e-38
0.90471649 -0.15962209 0.070329718 1.6989598e-38
0.8947165 -0.18462208 0.077829719 1.5522724e-38
0.8947165 -0.18462208 0.082829714 1.1221592e-38
0.8947165 -0.18462208 0.085329719 1.1590008e-38
0.8947165 -0.18462208 0.087829717 1.1955176e-38
0.8947165 -0.18462208 0.090329714 1.2416899e-38
0.8947165 -0.18212208 0.090329714 1.7395463e-38
0.8972165 -0.18462208 0.075329714 1.7174701e-38
0.8972165 -0.18462208 0.077829719 1.4142666e-38
0.8972165 -0.18212208 0.077829719 1.0836589e-38
0.8997165 -0.18462208 0.075329714 1.5797884e-38
0.8997165 -0.18462208 0.077829719 1.405337e-38
0.8997165 -0.18212208 0.075329714 1.488491e-38
0.8997165 -0.18212208 0.077829719 1.1024591e-38
0.8972165 -0.18462208 0.080329716 1.4698021e-38
0.8972165 -0.18462208 0.082829714 1.8320656e-38
0.8972165 -0.18212208 0.080329716 1.0563253e-38
0.8972165 -0.18212208 0.082829714 1.6484309e-38
0.8997165 -0.18462208 0.080329716 1.8046224e-38
0.8997165 -0.18462208 0.082829714 1.8594729e-38
0.8997165 -0.18212208 0.080329716 1.2151114e-38
0.8997165 -0.18212208 0.082829714 1.7133972e-38
0.8997165 -0.17962208 0.080329716 1.3072695e-38
0.90221649 -0.18462208 0.075329714 1.4142666e-38
0.90221649 -0.18212208 0.075329714 1.2309565e-38
0.90221649 -0.18212208 0.077829719 1.1299729e-38
0.90221649 -0.18212208 0.082829714 1.4829441e-38
0.90221649 -0.17962208 0.075329714 1.4050855e-38
0.90221649 -0.17962208 0.077829719 1.1671035e-38
0.90221649 -0.17712209 0.077829719 1.2316405e-38
0.90471649 -0.17962208 0.075329714 1.4145568e-38
0.90471649 -0.17712209 0.075329714 1.4422155e-38
0.90221649 -0.17962208 0.082829714 1.4919501e-38
0.90221649 -0.17712209 0.082829714 1.1692635e-38
0.90471649 -0.17962208 0.080329716 1.4828029e-38
0.90471649 -0.17712209 0.080329716 1.3536566e-38
0.90471649 -0.17712209 0.082829714 1.2983376e-38
0.8972165 -0.18462208 0.085329719 1.1037592e-38
0.8972165 -0.18462208 0.087829717 1.7302882e-38
0.8972165 -0.18212208 0.087829717 1.7036742e-38
0.8997165 -0.18462208 0.085329719 1.693775e-38
0.8997165 -0.18212208 0.085329719 1.6300974e-38
0.8972165 -0.18462208 0.092829719 1.288036e-38
0.8972165 -0.18212208 0.092829719 1.7028803e-38
0.8997165 -0.18462208 0.090329714 1.7394756e-38
0.8997165 -0.18212208 0.090329714 1.6946694e-38
0.8997165 -0.17962208 0.085329719 1.1874149e-38
0.8997165 -0.17962208 0.090329714 1.2612462e-38
0.8997165 -0.17962208 0.092829719 1.297906e-38
0.8997165 -0.17712209 0.090329714 1.0127477e-38
0.8997165 -0.17712209 0.092829719 1.2060364e-38
0.90221649 -0.18212208 0.085329719 1.223969e-38
0.90221649 -0.17962208 0.085329719 7.5445503e-39
0.90221649 -0.17962208 0.087829717 1.3166673e-38
0.90221649 -0.17712209 0.085329719 1.1970301e-38
0.90221649 -0.17712209 0.087829717 1.6674811e-38
0.90471649 -0.17712209 0.085329719 1.6400375e-38
0.90221649 -0.17962208 0.090329714 9.9445149e-39
0.90221649 -0.17962208 0.092829719 1.2798279e-38
0.90221649 -0.17712209 0.090329714 1.7135774e-38
0.90221649 -0.17712209 0.092829719 1.3629096e-38
0.90471649 -0.17712209 0.092829719 1.3814213e-38
0.90221649 -0.17462209 0.077829719 1.1958413e-38
0.90221649 -0.17212209 0.077829719 9.1892893e-39
0.90471649 -0.17462209 0.075329714 1.6530408e-38
0.90471649 -0.17212209 0.075329714 1.6624051e-38
0.90471649 -0.17212209 0.077829719 9.1892893e-39
0.90471649 -0.17462209 0.080329716 1.4640329e-38
0.90471649 -0.17462209 0.082829714 1.7408767e-38
0.90471649 -0.17212209 0.080329716 1.5739529e-38
0.90471649 -0.17212209 0.082829714 1.906395e-38
0.90221649 -0.16962208 0.077829719 1.0656146e-38
0.90221649 -0.16712208 0.077829719 1.0656146e-38
0.90471649 -0.16962208 0.075329714 1.4148805e-38
0.90471649 -0.16962208 0.077829719 1.0744753e-38
0.90471649 -0.16712208 0.075329714 1.7359462e-38
0.90471649 -0.16712208 0.077829719 1.1020981e-38
0.90471649 -0.16962208 0.080329716 1.3250605e-38
0.90471649 -0.16962208 0.082829714 1.8695168e-38
0.90471649 -0.16712208 0.080329716 1.2596936e-38
0.90471649 -0.16712208 0.082829714 1.7775754e-38
0.90471649 -0.17462209 0.085329719 1.9245489e-38
0.90471649 -0.17462209 0.087829717 1.9524945e-38
0.90471649 -0.17212209 0.085329719 1.6114428e-38
0.90471649 -0.17212209 0.087829717 1.5748154e-38
0.90221649 -0.17462209 0.090329714 1.6852699e-38
0.90221649 -0.17212209 0.090329714 1.5838564e-38
0.90471649 -0.17462209 0.090329714 1.6114775e-38
0.90471649 -0.17462209 0.092829719 1.408687e-38
0.90471649 -0.17212209 0.090329714 1.5656697e-38
0.90471649 -0.17212209 0.092829719 1.5103893e-38
0.90221649 -0.16962208 0.085329719 1.860584e-38
0.90221649 -0.16712208 0.085329719 1.8328177e-38
0.90471649 -0.16962208 0.085329719 1.620842e-38
0.90471649 -0.16962208 0.087829717 1.6393523e-38
0.90471649 -0.16712208 0.085329719 1.611623e-38
0.90471649 -0.16712208 0.087829717 1.5931832e-38
0.90221649 -0.16962208 0.090329714 1.6854514e-38
0.90221649 -0.16712208 0.090329714 1.6486419e-38
0.90471649 -0.16962208 0.090329714 1.7131468e-38
0.90471649 -0.16962208 0.092829719 1.6118043e-38
0.90471649 -0.16712208 0.090329714 1.6210571e-38
0.90471649 -0.16712208 0.092829719 1.6303123e-38
0.8947165 -0.18462208 0.095329717 1.2326498e-38
0.8947165 -0.18462208 0.10532971 1.6904581e-38
0.8947165 -0.18462208 0.11282972 1.6071217e-38
0.8947165 -0.18212208 0.11282972 1.6164499e-38
0.8947165 -0.17962208 0.11282972 1.5801863e-38
0.8947165 -0.17712209 0.11032972 8.0008243e-39
0.8947165 -0.17712209 0.11282972 1.4511124e-38
0.8947165 -0.17462209 0.11032972 9.9369325e-39
0.8947165 -0.17462209 0.11282972 1.3696089e-38
0.8972165 -0.18462208 0.095329717 1.3158041e-38
0.8972165 -0.18462208 0.097829714 1.3250953e-38
0.8972165 -0.18212208 0.097829714 1.4173269e-38
0.8997165 -0.18462208 0.095329717 1.2880741e-38
0.8997165 -0.18212208 0.095329717 1.5001595e-38
0.8972165 -0.18462208 0.10032972 1.3526817e-38
0.8972165 -0.18462208 0.10282972 1.5810109e-38
0.8972165 -0.18212208 0.10032972 1.4541329e-38
0.8972165 -0.18212208 0.10282972 1.4265462e-38
0.8997165 -0.18462208 0.10032972 1.2327908e-38
0.8997165 -0.18212208 0.10032972 1.4356582e-38
0.8997165 -0.17962208 0.095329717 1.2616033e-38
0.8997165 -0.17962208 0.097829714 1.2982651e-38
0.8997165 -0.17712209 0.095329717 1.4180119e-38
0.8997165 -0.17712209 0.097829714 1.2799725e-38
0.8972165 -0.17962208 0.10282972 1.279718e-38
0.8997165 -0.17962208 0.10032972 1.3074127e-38
0.8997165 -0.17962208 0.10282972 1.4083956e-38
0.8997165 -0.17712209 0.10032972 1.362876e-38
0.8997165 -0.17712209 0.10282972 1.3447617e-38
0.90221649 -0.17712209 0.095329717 1.3904974e-38
0.90221649 -0.17962208 0.10032972 1.3348563e-38
0.90221649 -0.17712209 0.10032972 1.3352544e-38
0.90221649 -0.17712209 0.10282972 1.1231284e-38
0.8972165 -0.18462208 0.10532971 1.6354276e-38
0.8972165 -0.18462208 0.10782972 1.6624032e-38
0.8972165 -0.18212208 0.10532971 1.8122225e-38
0.8972165 -0.18212208 0.10782972 1.8582504e-38
0.8972165 -0.18462208 0.11032972 1.5796082e-38
0.8972165 -0.18462208 0.11282972 1.6071222e-38
0.8972165 -0.18212208 0.11032972 1.7658732e-38
0.8972165 -0.18212208 0.11282972 1.6163049e-38
0.8997165 -0.18212208 0.11282972 1.6163052e-38
0.8972165 -0.17962208 0.10532971 1.6654263e-38
0.8972165 -0.17962208 0.10782972 1.7757328e-38
0.8972165 -0.17712209 0.10532971 9.6636022e-39
0.8972165 -0.17712209 0.10782972 8.0947968e-39
0.8997165 -0.17962208 0.10782972 1.2868464e-38
0.8997165 -0.17712209 0.10782972 8.1880672e-39
0.8972165 -0.17962208 0.11032972 1.7386029e-38
0.8972165 -0.17962208 0.11282972 1.5979379e-38
0.8972165 -0.17712209 0.11032972 7.7260198e-39
0.8972165 -0.17712209 0.11282972 1.625489e-38
0.8997165 -0.17962208 0.11282972 1.6071212e-38
0.8997165 -0.17712209 0.11282972 1.5890083e-38
0.8997165 -0.17462209 0.10282972 1.307739e-38
0.90221649 -0.17462209 0.095329717 1.2706784e-38
0.90221649 -0.17462209 0.097829714 1.2245461e-38
0.90221649 -0.17212209 0.095329717 1.2245471e-38
0.90221649 -0.17212209 0.097829714 1.289083e-38
0.90471649 -0.17462209 0.097829714 1.2062512e-38
0.90471649 -0.17212209 0.097829714 1.3261037e-38
0.90221649 -0.17462209 0.10032972 1.2246883e-38
0.90221649 -0.17462209 0.10282972 1.0588831e-38
0.90221649 -0.17212209 0.10032972 1.3261421e-38
0.90221649 -0.17212209 0.10282972 1.1510074e-38
0.90471649 -0.17462209 0.10282972 9.0204679e-39
0.90471649 -0.17212209 0.10032972 1.2525286e-38
0.90471649 -0.17212209 0.10282972 1.0311207e-38
0.90221649 -0.16962208 0.095329717 1.4829101e-38
0.90221649 -0.16962208 0.097829714 1.5011344e-38
0.90221649 -0.16712208 0.095329717 1.6211646e-38
0.90221649 -0.16712208 0.097829714 1.5287896e-38
0.90471649 -0.16962208 0.097829714 1.5472308e-38
0.90471649 -0.16712208 0.097829714 1.5379741e-38
0.90221649 -0.16962208 0.10032972 1.5197145e-38
0.90221649 -0.16962208 0.10282972 1.2984448e-38
0.90221649 -0.16712208 0.10032972 1.5563419e-38
0.90221649 -0.16712208 0.10282972 1.4918759e-38
0.90471649 -0.16962208 0.10032972 1.5197511e-38
0.90471649 -0.16962208 0.10282972 1.206177e-38
0.90471649 -0.16712208 0.10032972 1.5656674e-38
0.90471649 -0.16712208 0.10282972 1.4733644e-38
0.8997165 -0.17462209 0.10782972 9.7528748e-39
0.8972165 -0.17462209 0.11032972 9.7543181e-39
0.8972165 -0.17462209 0.11282972 1.6353209e-38
0.8972165 -0.17212209 0.11032972 1.3147983e-38
0.8972165 -0.17212209 0.11282972 1.5980493e-38
0.8997165 -0.17462209 0.11032972 1.3330243e-38
0.8997165 -0.17462209 0.11282972 1.6258505e-38
0.8997165 -0.17212209 0.11282972 1.5612065e-38
0.8997165 -0.16962208 0.11282972 1.351317e-38
0.8997165 -0.16712208 0.11282972 1.7199921e-38
0.90221649 -0.17462209 0.10532971 9.4787864e-39
0.90221649 -0.17462209 0.10782972 9.6640002e-39
0.90221649 -0.17212209 0.10782972 1.085822e-38
0.90471649 -0.17212209 0.10532971 9.9405871e-39
0.90221649 -0.17462209 0.11032972 1.5892616e-38
0.90221649 -0.17462209 0.11282972 1.5703903e-38
0.90221649 -0.17212209 0.11282972 1.5244708e-38
0.90471649 -0.17462209 0.11032972 1.5797887e-38
0.90471649 -0.17212209 0.11032972 1.5152876e-38
0.90221649 -0.16962208 0.10782972 8.6537733e-39
0.90221649 -0.16712208 0.10782972 1.6119124e-38
0.90471649 -0.16962208 0.10532971 8.9285679e-39
0.90471649 -0.16712208 0.10532971 1.5842533e-38
0.90221649 -0.16962208 0.11282972 1.3603933e-38
0.90221649 -0.16712208 0.11032972 1.7211071e-38
0.90221649 -0.16712208 0.11282972 1.7292118e-38
0.90471649 -0.16962208 0.11032972 1.3419522e-38
0.90471649 -0.16712208 0.11032972 1.7657266e-38
0.90471649 -0.16462208 0.075329714 1.717615e-38
0.90471649 -0.16462208 0.077829719 1.1020275e-38
0.90471649 -0.16212209 0.075329714 1.5983713e-38
0.90471649 -0.16212209 0.077829719 1.4513982e-38
0.90471649 -0.16462208 0.080329716 1.0289547e-38
0.90471649 -0.16462208 0.082829714 1.7864347e-38
0.90471649 -0.16212209 0.082829714 1.2981929e-38
0.90471649 -0.15962209 0.075329714 1.7173632e-38
0.90471649 -0.15962209 0.077829719 1.4791288e-38
0.90471649 -0.15962209 0.082829714 1.3350351e-38
0.90471649 -0.15712209 0.082829714 1.3805562e-38
0.90221649 -0.16462208 0.085329719 1.7501315e-38
0.90471649 -0.16462208 0.085329719 1.5932562e-38
0.90471649 -0.16462208 0.087829717 1.5377957e-38
0.90471649 -0.16212209 0.085329719 1.5010245e-38
0.90471649 -0.16212209 0.087829717 1.4732589e-38
0.90221649 -0.16462208 0.090329714 1.6301325e-38
0.90221649 -0.16212209 0.090329714 1.4733639e-38
0.90471649 -0.16462208 0.090329714 1.6483931e-38
0.90471649 -0.16462208 0.092829719 1.6302436e-38
0.90471649 -0.16212209 0.090329714 1.4640377e-38
0.90471649 -0.16212209 0.092829719 1.4735109e-38
0.90471649 -0.15962209 0.087829717 1.5379014e-38
0.90471649 -0.15962209 0.090329714 1.5010233e-38
0.90471649 -0.15962209 0.092829719 1.473616e-38
0.90471649 -0.15712209 0.092829719 1.4271514e-38
0.90471649 -0.15212208 0.077829719 1.7178654e-38
0.90471649 -0.15462208 0.082829714 1.4453111e-38
0.90471649 -0.15212208 0.082829714 8.8262662e-39
0.90221649 -0.16462208 0.095329717 1.6120896e-38
0.90221649 -0.16462208 0.097829714 1.6579e-38
0.90221649 -0.16212209 0.095329717 1.5014549e-38
0.90221649 -0.16212209 0.097829714 1.6025827e-38
0.90471649 -0.16212209 0.095329717 1.5932574e-38
0.90221649 -0.16462208 0.10032972 1.5748163e-38
0.90221649 -0.16462208 0.10282972 1.5656318e-38
0.90221649 -0.16212209 0.10032972 1.620803e-38
0.90221649 -0.16212209 0.10282972 1.427191e-38
0.90471649 -0.16462208 0.10282972 1.6208776e-38
0.90471649 -0.16212209 0.10282972 1.5011655e-38
0.90221649 -0.15962209 0.097829714 1.6116971e-38
0.90471649 -0.15962209 0.095329717 1.5564151e-38
0.90471649 -0.15962209 0.097829714 1.6485015e-38
0.90471649 -0.15712209 0.095329717 1.6293081e-38
0.90471649 -0.15712209 0.097829714 1.8144492e-38
0.90221649 -0.15962209 0.10032972 1.5103488e-38
0.90221649 -0.15962209 0.10282972 1.40872e-38
0.90221649 -0.15712209 0.10282972 1.4642529e-38
0.90471649 -0.15962209 0.10032972 1.4920892e-38
0.90471649 -0.15962209 0.10282972 1.5379361e-38
0.90471649 -0.15712209 0.10032972 1.8052338e-38
0.90471649 -0.15712209 0.10282972 1.3995342e-38
0.8997165 -0.16462208 0.11282972 1.646016e-38
0.90221649 -0.16462208 0.10782972 1.8049467e-38
0.90221649 -0.16212209 0.10782972 1.7034218e-38
0.90471649 -0.16462208 0.10532971 1.7041076e-38
0.90471649 -0.16212209 0.10532971 1.5288615e-38
0.90221649 -0.16462208 0.11032972 1.5828137e-38
0.90221649 -0.16462208 0.11282972 1.6736389e-38
0.90221649 -0.16212209 0.11282972 1.6737826e-38
0.90471649 -0.16462208 0.11032972 1.6735659e-38
0.90471649 -0.16212209 0.11032972 1.56448e-38
0.90221649 -0.15962209 0.10782972 1.6760114e-38
0.90221649 -0.15712209 0.10782972 1.6299857e-38
0.90471649 -0.15962209 0.10532971 1.5564826e-38
0.90471649 -0.15712209 0.10532971 1.5100984e-38
0.90221649 -0.15962209 0.11282972 1.6008172e-38
0.90221649 -0.15712209 0.11282972 1.7759887e-38
0.90471649 -0.15962209 0.11032972 1.6021145e-38
0.90471649 -0.15712209 0.11032972 1.7127491e-38
0.90471649 -0.15462208 0.095329717 1.1041502e-38
0.90471649 -0.15462208 0.097829714 1.7499122e-38
0.90471649 -0.15462208 0.10032972 1.7959782e-38
0.90471649 -0.15462208 0.10282972 1.4363046e-38
0.90471649 -0.15462208 0.10532971 1.4824037e-38
0.90471649 -0.15212208 0.10532971 1.4274834e-38
0.90471649 -0.15462208 0.11032972 1.4913354e-38
0.90471649 -0.15212208 0.11032972 1.6475279e-38
0.88471651 -0.20712209 0.12782972 1.6346718e-38
0.88221651 -0.20712209 0.13032971 1.6163049e-38
0.88471651 -0.20712209 0.13032971 1.6530389e-38
0.88471651 -0.20712209 0.13282971 1.7173238e-38
0.88471651 -0.20462209 0.11532971 1.625489e-38
0.88471651 -0.20462209 0.11782972 1.6071217e-38
0.88471651 -0.20212208 0.11532971 1.5887548e-38
0.88471651 -0.20212208 0.11782972 1.5795718e-38
0.88471651 -0.20462209 0.12282971 1.5703878e-38
0.88471651 -0.20212208 0.12282971 1.5428363e-38
0.88221651 -0.19962208 0.11782972 1.5520206e-38
0.88221651 -0.19712208 0.11782972 1.5520206e-38
0.88471651 -0.19962208 0.11532971 1.5887548e-38
0.88471651 -0.19962208 0.11782972 1.5795718e-38
0.88471651 -0.19712208 0.11532971 1.5703873e-38
0.88471651 -0.19712208 0.11782972 1.5795705e-38
0.88471651 -0.19962208 0.12032972 1.5612039e-38
0.88471651 -0.19962208 0.12282971 1.5612034e-38
0.88471651 -0.19712208 0.12032972 1.5612039e-38
0.88471651 -0.19712208 0.12282971 1.5336528e-38
0.88221651 -0.20462209 0.12782972 1.5612034e-38
0.88221651 -0.20212208 0.12532972 1.5152857e-38
0.88221651 -0.20212208 0.12782972 1.5795705e-38
0.88471651 -0.20462209 0.12782972 1.6163047e-38
0.88471651 -0.20212208 0.12532972 1.5520199e-38
0.88471651 -0.20212208 0.12782972 1.6346718e-38
0.88221651 -0.20462209 0.13032971 1.634672e-38
0.88221651 -0.20212208 0.13032971 1.634672e-38
0.88471651 -0.20462209 0.13032971 1.6163047e-38
0.88471651 -0.20462209 0.13282971 1.7173238e-38
0.88471651 -0.20212208 0.13032971 1.6163047e-38
0.88471651 -0.20212208 0.13282971 1.7081402e-38
0.88221651 -0.19962208 0.12532972 1.5336528e-38
0.88221651 -0.19712208 0.12532972 1.5428363e-38
0.88471651 -0.19962208 0.12532972 1.5612034e-38
0.88471651 -0.19962208 0.12782972 1.5612034e-38
0.88471651 -0.19712208 0.12532972 1.5612034e-38
0.88471651 -0.19712208 0.12782972 1.570387e-38
0.88471651 -0.19962208 0.13282971 1.6989567e-38
0.88471651 -0.19712208 0.13282971 1.7081402e-38
0.88221651 -0.19462208 0.11782972 1.570387e-38
0.88471651 -0.19462208 0.11532971 1.6346718e-38
0.88471651 -0.19462208 0.11782972 1.5887541e-38
0.88471651 -0.19462208 0.12032972 1.5428369e-38
0.88471651 -0.19462208 0.12282971 1.5336528e-38
0.88471651 -0.19212209 0.12282971 1.5244692e-38
0.88471651 -0.19462208 0.12782972 1.5612034e-38
0.88471651 -0.19212209 0.12782972 1.5795705e-38
0.88471651 -0.19462208 0.13282971 1.6805896e-38
0.88721651 -0.21962209 0.11532971 1.9325052e-38
0.88721651 -0.21712208 0.11532971 1.904991e-38
0.88721651 -0.21712208 0.11782972 1.8317011e-38
0.88971651 -0.21712208 0.11532971 1.8592522e-38
0.88971651 -0.21712208 0.11782972 1.8774409e-38
0.88721651 -0.21712208 0.12032972 1.8867667e-38
0.8922165 -0.21712208 0.11532971 1.9143194e-38
0.8922165 -0.21712208 0.11782972 1.9142838e-38
0.8947165 -0.21712208 0.11782972 1.8778029e-38
0.88721651 -0.21212208 0.11532971 2.2623951e-38
0.88971651 -0.21462208 0.11532971 1.9145696e-38
0.88971651 -0.21462208 0.11782972 1.8959879e-38
0.88971651 -0.21212208 0.11532971 1.5431641e-38
0.88971651 -0.21212208 0.11782972 2.2621453e-38
0.88721651 -0.21212208 0.12032972 1.4785525e-38
0.88971651 -0.21462208 0.12032972 1.8591479e-38
0.88971651 -0.21212208 0.12032972 2.252637e-38
0.88971651 -0.21212208 0.12282971 1.5612034e-38
0.88721651 -0.20962209 0.11532971 1.5244719e-38
0.88721651 -0.20712209 0.11532971 1.5979389e-38
0.88971651 -0.20962209 0.11532971 1.5520239e-38
0.88971651 -0.20962209 0.11782972 1.524472e-38
0.88971651 -0.20712209 0.11532971 1.6163063e-38
0.88971651 -0.20712209 0.11782972 1.5703903e-38
0.88721651 -0.20962209 0.12032972 1.487735e-38
0.88721651 -0.20712209 0.12032972 1.5887556e-38
0.88971651 -0.20962209 0.12032972 1.5336528e-38
0.88971651 -0.20962209 0.12282971 1.5612037e-38
0.88971651 -0.20712209 0.12032972 1.5703875e-38
0.88971651 -0.20712209 0.12282971 1.579571e-38
0.8922165 -0.21462208 0.11532971 1.8866607e-38
0.8922165 -0.21462208 0.11782972 1.886661e-38
0.8922165 -0.21212208 0.11532971 1.4877371e-38
0.8922165 -0.21212208 0.11782972 1.4877383e-38
0.8947165 -0.21462208 0.11782972 1.8867678e-38
0.8922165 -0.21462208 0.12282971 1.9140658e-38
0.8922165 -0.21212208 0.12282971 2.1324928e-38
0.8947165 -0.21462208 0.12032972 1.904846e-38
0.8947165 -0.21462208 0.12282971 1.5612034e-38
0.8922165 -0.20962209 0.11532971 1.5061047e-38
0.8922165 -0.20962209 0.11782972 1.5428391e-38
0.8922165 -0.20712209 0.11532971 1.5703875e-38
0.8922165 -0.20962209 0.12282971 1.5336528e-38
0.88971651 -0.21212208 0.12532972 1.6438554e-38
0.88721651 -0.20962209 0.12532972 1.5336531e-38
0.88721651 -0.20962209 0.12782972 1.6163047e-38
0.88721651 -0.20712209 0.12532972 1.5979389e-38
0.88721651 -0.20712209 0.12782972 1.6163047e-38
0.88971651 -0.20962209 0.12532972 1.6254883e-38
0.88971651 -0.20962209 0.12782972 1.671406e-38
0.88971651 -0.20712209 0.12532972 1.6163047e-38
0.88971651 -0.20712209 0.12782972 1.6622225e-38
0.88721651 -0.20712209 0.13032971 1.6346718e-38
0.88971651 -0.20962209 0.13032971 1.7265073e-38
0.88971651 -0.20712209 0.13032971 1.7356909e-38
0.8922165 -0.21212208 0.12532972 1.5887541e-38
0.8922165 -0.21212208 0.12782972 1.6530389e-38
0.8922165 -0.20962209 0.12782972 1.671406e-38
0.8922165 -0.20712209 0.12782972 1.6530389e-38
0.8922165 -0.20712209 0.13282971 1.7265073e-38
0.8997165 -0.21712208 0.11782972 1.9418321e-38
0.8972165 -0.21712208 0.12032972 1.9693829e-38
0.8972165 -0.21462208 0.12032972 1.8957343e-38
0.88721651 -0.20462209 0.11532971 1.6346718e-38
0.88721651 -0.20462209 0.11782972 1.5979381e-38
0.88721651 -0.20212208 0.11532971 1.5795705e-38
0.88721651 -0.20212208 0.11782972 1.5979376e-38
0.88971651 -0.20462209 0.11532971 1.616305e-38
0.88971651 -0.20462209 0.11782972 1.5703877e-38
0.88971651 -0.20212208 0.11782972 1.5887541e-38
0.88721651 -0.20462209 0.12032972 1.5520202e-38
0.88721651 -0.20212208 0.12032972 1.5612034e-38
0.88971651 -0.20462209 0.12282971 1.5703875e-38
0.88971651 -0.20212208 0.12282971 1.5612034e-38
0.88721651 -0.19962208 0.11532971 1.5795707e-38
0.88721651 -0.19962208 0.11782972 1.5795707e-38
0.88721651 -0.19712208 0.11532971 1.5795707e-38
0.88721651 -0.19712208 0.11782972 1.5612034e-38
0.88971651 -0.19962208 0.11782972 1.5795705e-38
0.88971651 -0.19712208 0.11782972 1.5612034e-38
0.88721651 -0.19962208 0.12032972 1.5612034e-38
0.88721651 -0.19712208 0.12032972 1.5336528e-38
0.88971651 -0.19962208 0.12282971 1.5428363e-38
0.88971651 -0.19712208 0.12282971 1.5336528e-38
0.8922165 -0.20462209 0.11532971 1.5703875e-38
0.8922165 -0.19712208 0.11782972 1.5061021e-38
0.88721651 -0.20462209 0.12532972 1.5887546e-38
0.88721651 -0.20462209 0.12782972 1.6346718e-38
0.88721651 -0.20212208 0.12532972 1.5979376e-38
0.88721651 -0.20212208 0.12782972 1.6071212e-38
0.88971651 -0.20462209 0.12532972 1.6346718e-38
0.88971651 -0.20462209 0.12782972 1.6438554e-38
0.88971651 -0.20212208 0.12532972 1.5795705e-38
0.88971651 -0.20212208 0.12782972 1.6163047e-38
0.88721651 -0.20462209 0.13032971 1.6254883e-38
0.88721651 -0.20462209 0.13282971 1.8367131e-38
0.88721651 -0.20212208 0.13032971 1.6530389e-38
0.88721651 -0.20212208 0.13282971 1.8275295e-38
0.88971651 -0.20462209 0.13032971 1.7173238e-38
0.88971651 -0.20462209 0.13282971 1.8275265e-38
0.88971651 -0.20212208 0.13032971 1.7173238e-38
0.88971651 -0.20212208 0.13282971 1.8458953e-38
0.88721651 -0.19962208 0.12532972 1.5612034e-38
0.88721651 -0.19962208 0.12782972 1.6163047e-38
0.88721651 -0.19712208 0.12532972 1.5612034e-38
0.88721651 -0.19712208 0.12782972 1.5795705e-38
0.88971651 -0.19962208 0.12532972 1.5612034e-38
0.88971651 -0.19962208 0.12782972 1.6163047e-38
0.88971651 -0.19712208 0.12532972 1.570387e-38
0.88971651 -0.19712208 0.12782972 1.6163047e-38
0.88721651 -0.19962208 0.13032971 1.6163047e-38
0.88721651 -0.19962208 0.13282971 1.8736972e-38
0.88721651 -0.19712208 0.13032971 1.6163047e-38
0.88721651 -0.19712208 0.13282971 1.8737698e-38
0.88971651 -0.19962208 0.13032971 1.7081402e-38
0.88971651 -0.19962208 0.13282971 1.9011408e-38
0.88971651 -0.19712208 0.13032971 1.6897731e-38
0.88971651 -0.19712208 0.13282971 1.8735562e-38
0.8922165 -0.20462209 0.13282971 1.763385e-38
0.8922165 -0.19712208 0.12782972 1.5979376e-38
0.8922165 -0.19962208 0.13032971 1.882737e-38
0.8947165 -0.19712208 0.13282971 1.7999796e-38
0.88721651 -0.19462208 0.11532971 1.5887541e-38
0.88721651 -0.19462208 0.11782972 1.5612034e-38
0.88721651 -0.19212209 0.11532971 1.5612034e-38
0.88971651 -0.19462208 0.11532971 1.5979376e-38
0.88971651 -0.19462208 0.11782972 1.5612034e-38
0.88971651 -0.19212209 0.11532971 1.5979376e-38
0.88971651 -0.19212209 0.11782972 1.5428363e-38
0.88721651 -0.19462208 0.12032972 1.5244692e-38
0.88721651 -0.19212209 0.12032972 1.5152857e-38
0.88971651 -0.19462208 0.12032972 1.5336529e-38
0.88971651 -0.19462208 0.12282971 1.5428363e-38
0.88971651 -0.19212209 0.12032972 1.5336528e-38
0.88971651 -0.19212209 0.12282971 1.5336528e-38
0.88721651 -0.18962209 0.12032972 1.5244692e-38
0.88971651 -0.18962209 0.12032972 1.5428363e-38
0.88971651 -0.18962209 0.12282971 1.5428363e-38
0.88971651 -0.18712208 0.12032972 1.5428363e-38
0.88971651 -0.18712208 0.12282971 1.5336528e-38
0.8922165 -0.19462208 0.11532971 1.5612034e-38
0.8922165 -0.19462208 0.11782972 1.5428363e-38
0.8922165 -0.19212209 0.11532971 1.5887541e-38
0.8922165 -0.19212209 0.11782972 1.5244692e-38
0.8947165 -0.19212209 0.11782972 1.5612034e-38
0.8922165 -0.19462208 0.12282971 1.5244695e-38
0.8922165 -0.19212209 0.12282971 1.5428363e-38
0.8922165 -0.18962209 0.11532971 1.5979376e-38
0.8922165 -0.18962209 0.11782972 1.5703875e-38
0.8922165 -0.18712208 0.11532971 1.5979376e-38
0.8922165 -0.18712208 0.11782972 1.5612034e-38
0.8947165 -0.18962209 0.11782972 1.5887541e-38
0.8947165 -0.18712208 0.11782972 1.5612034e-38
0.8922165 -0.18962209 0.12282971 1.5152878e-38
0.8922165 -0.18712208 0.12282971 1.5428387e-38
0.8947165 -0.18712208 0.12032972 1.5428365e-38
0.88721651 -0.19462208 0.12532972 1.5428363e-38
0.88721651 -0.19462208 0.12782972 1.5612037e-38
0.88721651 -0.19212209 0.12532972 1.5336529e-38
0.88721651 -0.19212209 0.12782972 1.5612034e-38
0.88971651 -0.19462208 0.12532972 1.5612034e-38
0.88971651 -0.19462208 0.12782972 1.6163047e-38
0.88971651 -0.19212209 0.12532972 1.5336528e-38
0.88971651 -0.19212209 0.12782972 1.6071212e-38
0.88721651 -0.19462208 0.13032971 1.6530389e-38
0.88721651 -0.19462208 0.13282971 1.7816127e-38
0.88721651 -0.19212209 0.13032971 1.6346718e-38
0.88721651 -0.19212209 0.13282971 1.7356913e-38
0.88971651 -0.19462208 0.13032971 1.6805896e-38
0.88971651 -0.19462208 0.13282971 1.864262e-38
0.88971651 -0.19212209 0.13032971 1.6346718e-38
0.88971651 -0.19212209 0.13282971 1.7448744e-38
0.88971651 -0.18962209 0.12532972 1.5428363e-38
0.88971651 -0.18962209 0.12782972 1.6071212e-38
0.88971651 -0.18712208 0.12532972 1.5244692e-38
0.88971651 -0.18962209 0.13032971 1.6346728e-38
0.8922165 -0.19462208 0.12782972 1.6254883e-38
0.8922165 -0.19212209 0.12782972 1.6163047e-38
0.8922165 -0.19462208 0.13032971 1.7540618e-38
0.8922165 -0.19462208 0.13282971 1.7816092e-38
0.8922165 -0.19212209 0.13032971 1.735691e-38
0.8922165 -0.19212209 0.13282971 1.7356909e-38
0.8947165 -0.19462208 0.13282971 1.7633133e-38
0.8922165 -0.18962209 0.12532972 1.5795705e-38
0.8922165 -0.18962209 0.12782972 1.6163047e-38
0.8922165 -0.18712208 0.12532972 1.5612034e-38
0.8922165 -0.18712208 0.12782972 1.5979376e-38
0.8947165 -0.18962209 0.12532972 1.616305e-38
0.8947165 -0.18712208 0.12532972 1.5979376e-38
0.8922165 -0.18962209 0.13032971 1.6897731e-38
0.8922165 -0.18712208 0.13032971 1.6530389e-38
0.88971651 -0.19712208 0.13532972 1.7634607e-38
0.88971651 -0.19462208 0.13532972 1.763278e-38
0.88971651 -0.17962208 0.12032972 1.5887541e-38
0.88971651 -0.17712209 0.12032972 1.570387e-38
0.88971651 -0.17712209 0.12282971 1.5703875e-38
0.8922165 -0.18212208 0.11782972 1.5795712e-38
0.8947165 -0.18462208 0.11782972 1.5612034e-38
0.8947165 -0.18212208 0.11782972 1.5795705e-38
0.8922165 -0.18462208 0.12282971 1.5244692e-38
0.8922165 -0.18212208 0.12282971 1.5428363e-38
0.8947165 -0.18462208 0.12032972 1.5428365e-38
0.8947165 -0.18212208 0.12032972 1.5612034e-38
0.8922165 -0.17962208 0.11782972 1.5703877e-38
0.8922165 -0.17712209 0.11782972 1.5795707e-38
0.8947165 -0.17962208 0.11782972 1.5979376e-38
0.8947165 -0.17712209 0.11782972 1.5795705e-38
0.8922165 -0.17962208 0.12282971 1.5795707e-38
0.8922165 -0.17712209 0.12282971 1.5612034e-38
0.8947165 -0.17962208 0.12032972 1.5428363e-38
0.88971651 -0.18462208 0.12532972 1.5520199e-38
0.88721651 -0.17712209 0.12532972 1.5612037e-38
0.88721651 -0.17712209 0.12782972 1.570387e-38
0.88971651 -0.17962208 0.12532972 1.5244695e-38
0.88971651 -0.17712209 0.12532972 1.5336528e-38
0.88971651 -0.17712209 0.13032971 1.6071212e-38
0.88971651 -0.17712209 0.13282971 1.6071212e-38
0.8922165 -0.18462208 0.12532972 1.5336528e-38
0.8922165 -0.18462208 0.12782972 1.5520224e-38
0.8922165 -0.18212208 0.12532972 1.5612034e-38
0.8922165 -0.18212208 0.12782972 1.5612034e-38
0.8947165 -0.18462208 0.12532972 1.5887549e-38
0.8947165 -0.18462208 0.12782972 1.5979409e-38
0.8947165 -0.18212208 0.12532972 1.5612034e-38
0.8947165 -0.18212208 0.12782972 1.5887541e-38
0.8922165 -0.18462208 0.13032971 1.5979381e-38
0.8922165 -0.18212208 0.13032971 1.5612034e-38
0.8922165 -0.17962208 0.12532972 1.5612034e-38
0.8922165 -0.17962208 0.12782972 1.5795705e-38
0.8922165 -0.17712209 0.12782972 1.5795705e-38
0.8947165 -0.17962208 0.12532972 1.5612034e-38
0.8947165 -0.17962208 0.12782972 1.5887541e-38
0.8947165 -0.17712209 0.12532972 1.5795705e-38
0.8947165 -0.17712209 0.12782972 1.5795705e-38
0.8922165 -0.17962208 0.13032971 1.5612034e-38
0.8922165 -0.17712209 0.13032971 1.5887541e-38
0.8947165 -0.17712209 0.13282971 1.7173238e-38
0.88971651 -0.17462209 0.12032972 1.5887541e-38
0.88971651 -0.17462209 0.12282971 1.5703875e-38
0.88971651 -0.17212209 0.12282971 1.5703875e-38
0.8922165 -0.17462209 0.11782972 1.5795705e-38
0.8922165 -0.17212209 0.11782972 1.5612043e-38
0.8947165 -0.17462209 0.11782972 1.5795707e-38
0.8947165 -0.17212209 0.11782972 1.5612054e-38
0.8922165 -0.17462209 0.12282971 1.5612039e-38
0.8922165 -0.17212209 0.12282971 1.570387e-38
0.8922165 -0.16962208 0.12282971 1.570387e-38
0.8922165 -0.16712208 0.12282971 1.5887541e-38
0.8947165 -0.16962208 0.12032972 1.5795718e-38
0.8947165 -0.16962208 0.12282971 1.5152858e-38
0.8947165 -0.16712208 0.12032972 1.5520199e-38
0.8947165 -0.16712208 0.12282971 1.5520199e-38
0.88721651 -0.17462209 0.12532972 1.5428363e-38
0.88721651 -0.17462209 0.12782972 1.5612034e-38
0.88971651 -0.17462209 0.12532972 1.570387e-38
0.88971651 -0.17212209 0.12532972 1.570387e-38
0.88971651 -0.16962208 0.12532972 1.5612034e-38
0.8922165 -0.17462209 0.12532972 1.5612034e-38
0.8922165 -0.17462209 0.12782972 1.5795705e-38
0.8922165 -0.17212209 0.12532972 1.5795707e-38
0.8922165 -0.17212209 0.12782972 1.5887541e-38
0.8947165 -0.17462209 0.12532972 1.5887541e-38
0.8947165 -0.17462209 0.12782972 1.5795705e-38
0.8947165 -0.17212209 0.12532972 1.570387e-38
0.8947165 -0.17212209 0.12782972 1.570387e-38
0.8922165 -0.17462209 0.13032971 1.5795705e-38
0.8922165 -0.17212209 0.13032971 1.6254883e-38
0.8947165 -0.17462209 0.13282971 1.6805896e-38
0.8922165 -0.16962208 0.12532972 1.5612034e-38
0.8922165 -0.16962208 0.12782972 1.5428363e-38
0.8922165 -0.16712208 0.12532972 1.5336528e-38
0.8947165 -0.16962208 0.12532972 1.5612034e-38
0.8947165 -0.16962208 0.12782972 1.5795705e-38
0.8947165 -0.16712208 0.12532972 1.5244695e-38
0.8947165 -0.16712208 0.12782972 1.5795707e-38
0.8922165 -0.16962208 0.13032971 1.634672e-38
0.8972165 -0.18462208 0.11532971 1.5795705e-38
0.8972165 -0.18462208 0.12032972 1.5428363e-38
0.8972165 -0.17962208 0.11532971 1.5703878e-38
0.8972165 -0.17712209 0.11532971 1.5795707e-38
0.8972165 -0.17712209 0.11782972 1.5795718e-38
0.8972165 -0.18462208 0.12782972 1.6163054e-38
0.8972165 -0.18212208 0.12782972 1.6071212e-38
0.8972165 -0.18212208 0.13032971 1.7081402e-38
0.8972165 -0.17962208 0.12782972 1.5979376e-38
0.8972165 -0.17712209 0.12782972 1.5887541e-38
0.8972165 -0.17962208 0.13032971 1.6989567e-38
0.8972165 -0.17712209 0.13032971 1.6989567e-38
0.8997165 -0.17712209 0.13032971 1.7081402e-38
0.8972165 -0.17462209 0.11532971 1.5703884e-38
0.8972165 -0.17462209 0.11782972 1.5979389e-38
0.8972165 -0.17212209 0.11532971 1.5428389e-38
0.8972165 -0.17212209 0.11782972 1.5887549e-38
0.8997165 -0.17462209 0.11532971 1.5795718e-38
0.8997165 -0.17212209 0.11532971 1.5795718e-38
0.8997165 -0.17212209 0.11782972 1.570387e-38
0.8972165 -0.16962208 0.11782972 1.5703932e-38
0.8972165 -0.16712208 0.11782972 1.6805908e-38
0.8997165 -0.16962208 0.11532971 1.5520248e-38
0.8997165 -0.16962208 0.11782972 1.5795705e-38
0.8997165 -0.16712208 0.11532971 1.5795759e-38
0.8997165 -0.16712208 0.11782972 1.5428363e-38
0.8972165 -0.16962208 0.12032972 1.5612034e-38
0.8972165 -0.16962208 0.12282971 1.5336528e-38
0.8972165 -0.16712208 0.12032972 1.5244695e-38
0.8972165 -0.16712208 0.12282971 1.5612037e-38
0.8997165 -0.16712208 0.12032972 1.5520199e-38
0.8997165 -0.16712208 0.12282971 1.5612034e-38
0.90221649 -0.17462209 0.11532971 1.570387e-38
0.90221649 -0.17212209 0.11532971 1.5520199e-38
0.90221649 -0.16962208 0.11532971 1.5703926e-38
0.90221649 -0.16712208 0.11532971 1.5703934e-38
0.90221649 -0.16712208 0.11782972 1.5612034e-38
0.8972165 -0.17462209 0.12782972 1.570387e-38
0.8972165 -0.17212209 0.12532972 1.6071212e-38
0.8972165 -0.17212209 0.12782972 1.5979376e-38
0.8997165 -0.17212209 0.12782972 1.6163047e-38
0.8972165 -0.17462209 0.13032971 1.7081402e-38
0.8972165 -0.17212209 0.13032971 1.671406e-38
0.8997165 -0.17462209 0.13032971 1.6897731e-38
0.8997165 -0.17212209 0.13032971 1.6438554e-38
0.8972165 -0.16962208 0.12532972 1.5795705e-38
0.8972165 -0.16962208 0.12782972 1.6071212e-38
0.8972165 -0.16712208 0.12532972 1.5795707e-38
0.8972165 -0.16712208 0.12782972 1.6163047e-38
0.8997165 -0.16962208 0.12782972 1.6254883e-38
0.8997165 -0.16712208 0.12532972 1.570387e-38
0.8997165 -0.16712208 0.12782972 1.6254883e-38
0.8972165 -0.16962208 0.13032971 1.671406e-38
0.8972165 -0.16712208 0.13032971 1.6530389e-38
0.8997165 -0.16962208 0.13032971 1.6530389e-38
0.8997165 -0.16712208 0.13032971 1.6622225e-38
0.90221649 -0.17462209 0.13032971 1.8185597e-38
0.90221649 -0.17212209 0.13032971 1.8367464e-38
0.90221649 -0.17212209 0.13282971 1.8093768e-38
0.90221649 -0.16962208 0.12782972 1.6530389e-38
0.90221649 -0.16712208 0.12532972 1.634672e-38
0.90221649 -0.16712208 0.12782972 1.6622225e-38
0.90221649 -0.16962208 0.13032971 1.763385e-38
0.90221649 -0.16962208 0.13282971 1.7265084e-38
0.90221649 -0.16712208 0.13032971 1.6897733e-38
0.90221649 -0.16712208 0.13282971 1.7356913e-38
0.90471649 -0.16962208 0.13282971 1.7356909e-38
0.90471649 -0.16712208 0.13282971 1.7632429e-38
0.90221649 -0.16712208 0.13532972 1.671406e-38
0.90471649 -0.16962208 0.13532972 1.6438554e-38
0.90471649 -0.16712208 0.13532972 1.6897731e-38
0.8947165 -0.16462208 0.12032972 1.5612034e-38
0.8947165 -0.16462208 0.12282971 1.5244698e-38
0.8922165 -0.16462208 0.12532972 1.5520206e-38
0.8947165 -0.16462208 0.12532972 1.5703875e-38
0.8947165 -0.16462208 0.12782972 1.5795705e-38
0.8947165 -0.16212209 0.12782972 1.5795705e-38
0.8972165 -0.16462208 0.11782972 1.5979376e-38
0.8972165 -0.16212209 0.11782972 1.6346718e-38
0.8997165 -0.16462208 0.11532971 1.5979376e-38
0.8997165 -0.16462208 0.11782972 1.5612034e-38
0.8997165 -0.16212209 0.11532971 1.6346718e-38
0.8997165 -0.16212209 0.11782972 1.5887541e-38
0.8972165 -0.16462208 0.12032972 1.5612034e-38
0.8972165 -0.16462208 0.12282971 1.5612034e-38
0.8972165 -0.16212209 0.12032972 1.6254893e-38
0.8972165 -0.16212209 0.12282971 1.5979376e-38
0.8997165 -0.16462208 0.12032972 1.5795707e-38
0.8997165 -0.16462208 0.12282971 1.5612034e-38
0.8997165 -0.16212209 0.12032972 1.5979376e-38
0.8997165 -0.16212209 0.12282971 1.5979381e-38
0.8972165 -0.15962209 0.11782972 1.6346718e-38
0.8997165 -0.15962209 0.11532971 1.6346732e-38
0.8997165 -0.15962209 0.11782972 1.5887541e-38
0.8997165 -0.15712209 0.11532971 1.6530408e-38
0.8972165 -0.15962209 0.12282971 1.5979376e-38
0.8997165 -0.15962209 0.12032972 1.6071212e-38
0.8997165 -0.15962209 0.12282971 1.5795707e-38
0.8997165 -0.15712209 0.12032972 1.6346724e-38
0.90221649 -0.16462208 0.11532971 1.6071212e-38
0.90221649 -0.16462208 0.11782972 1.5612034e-38
0.90221649 -0.16212209 0.11532971 1.6163047e-38
0.90221649 -0.16212209 0.11782972 1.5979376e-38
0.90221649 -0.15962209 0.11532971 1.5979385e-38
0.90221649 -0.15962209 0.11782972 1.6163047e-38
0.90221649 -0.15712209 0.11532971 1.6530406e-38
0.90221649 -0.15712209 0.11782972 1.6163047e-38
0.90471649 -0.15712209 0.11532971 1.5428363e-38
0.90471649 -0.15712209 0.11782972 1.6438557e-38
0.90221649 -0.15712209 0.12032972 1.625489e-38
0.90221649 -0.15712209 0.12282971 1.6254887e-38
0.8972165 -0.16462208 0.12532972 1.5612034e-38
0.8972165 -0.16462208 0.12782972 1.6346718e-38
0.8972165 -0.16212209 0.12532972 1.5979381e-38
0.8972165 -0.16212209 0.12782972 1.6346718e-38
0.8997165 -0.16462208 0.12532972 1.5428363e-38
0.8997165 -0.16462208 0.12782972 1.6254883e-38
0.8997165 -0.16212209 0.12532972 1.6346718e-38
0.8997165 -0.16212209 0.12782972 1.6071212e-38
0.8972165 -0.16212209 0.13032971 1.6530389e-38
0.8972165 -0.16212209 0.13282971 1.671406e-38
0.8997165 -0.16462208 0.13032971 1.6530389e-38
0.8997165 -0.16212209 0.13032971 1.6530389e-38
0.8997165 -0.16212209 0.13282971 1.7173239e-38
0.8972165 -0.15962209 0.12532972 1.616305e-38
0.8997165 -0.15962209 0.12532972 1.6438561e-38
0.8997165 -0.15962209 0.12782972 1.6346718e-38
0.8997165 -0.15962209 0.13032971 1.6530389e-38
0.90221649 -0.16462208 0.12782972 1.662223e-38
0.90221649 -0.16212209 0.12782972 1.662223e-38
0.90221649 -0.16462208 0.13032971 1.6897731e-38
0.90221649 -0.16462208 0.13282971 1.7265073e-38
0.90221649 -0.16212209 0.13032971 1.7081402e-38
0.90221649 -0.16212209 0.13282971 1.7081402e-38
0.90471649 -0.16462208 0.13282971 1.7907927e-38
0.90471649 -0.16212209 0.13282971 1.7907925e-38
0.90221649 -0.15962209 0.12782972 1.6622225e-38
0.90221649 -0.15712209 0.12532972 1.6346724e-38
0.90221649 -0.15712209 0.12782972 1.6622225e-38
0.90471649 -0.15712209 0.12782972 1.6622225e-38
0.90221649 -0.15962209 0.13032971 1.6622225e-38
0.90221649 -0.15962209 0.13282971 1.7081402e-38
0.90221649 -0.15712209 0.13032971 1.6530389e-38
0.90221649 -0.15712209 0.13282971 1.7173238e-38
0.90471649 -0.15962209 0.13282971 1.7632447e-38
0.90471649 -0.15712209 0.13282971 1.8277458e-38
0.8997165 -0.15462208 0.11532971 1.5979735e-38
0.8997165 -0.15462208 0.12032972 1.6346727e-38
0.90221649 -0.15462208 0.11532971 1.6165928e-38
0.90221649 -0.15462208 0.11782972 1.570387e-38
0.90221649 -0.15212208 0.11782972 1.5795717e-38
0.90471649 -0.15462208 0.11532971 1.570387e-38
0.90471649 -0.15462208 0.11782972 1.6530399e-38
0.90471649 -0.15212208 0.11532971 1.5244701e-38
0.90471649 -0.15212208 0.11782972 1.6254883e-38
0.90221649 -0.15462208 0.12032972 1.6438565e-38
0.90221649 -0.15462208 0.12282971 1.634673e-38
0.90221649 -0.15212208 0.12032972 1.5979395e-38
0.90471649 -0.15462208 0.12032972 1.6254883e-38
0.90471649 -0.15462208 0.12282971 1.6346718e-38
0.90471649 -0.15212208 0.12032972 1.5795721e-38
0.90471649 -0.15212208 0.12282971 1.5795721e-38
0.90221649 -0.14962208 0.11782972 1.6163091e-38
0.90221649 -0.14712209 0.11782972 1.5979416e-38
0.90471649 -0.14962208 0.11532971 1.5612048e-38
0.90471649 -0.14962208 0.11782972 1.6164499e-38
0.90471649 -0.14712209 0.11532971 1.4513282e-38
0.90471649 -0.14712209 0.11782972 1.6071212e-38
0.90221649 -0.14962208 0.12032972 1.5887562e-38
0.90221649 -0.14712209 0.12032972 1.5795725e-38
0.90471649 -0.14962208 0.12032972 1.5979395e-38
0.90471649 -0.14962208 0.12282971 1.5887558e-38
0.90471649 -0.14712209 0.12032972 1.5887548e-38
0.90471649 -0.14712209 0.12282971 1.570387e-38
0.90221649 -0.15462208 0.12532972 1.5979379e-38
0.90471649 -0.15462208 0.12782972 1.6346718e-38
0.90471649 -0.15212208 0.12782972 1.6163047e-38
0.90221649 -0.15462208 0.13032971 1.7081402e-38
0.90471649 -0.15462208 0.13282971 1.8550786e-38
0.90221649 -0.14962208 0.12532972 1.5612034e-38
0.90221649 -0.14712209 0.12532972 1.570387e-38
0.90471649 -0.14962208 0.12782972 1.6071212e-38
0.90471649 -0.14712209 0.12782972 1.6163047e-38
0.8997165 -0.16212209 0.13532972 1.7540592e-38
0.90221649 -0.16462208 0.13532972 1.6897731e-38
0.90221649 -0.16212209 0.13532972 1.6805896e-38
0.90471649 -0.16462208 0.13532972 1.671406e-38
0.90471649 -0.16212209 0.13532972 1.6989567e-38
0.90221649 -0.15962209 0.13532972 1.6989567e-38
0.90471649 -0.15962209 0.13532972 1.6989578e-38
0.90471649 -0.15712209 0.13532972 1.7265073e-38
0.90471649 -0.14462209 0.11782972 1.5795707e-38
0.90471649 -0.14212209 0.11782972 1.5795705e-38
0.90221649 -0.14462209 0.12032972 1.6071212e-38
0.90221649 -0.14212209 0.12032972 1.5612034e-38
0.90471649 -0.14462209 0.12032972 1.5887548e-38
0.90471649 -0.14462209 0.12282971 1.5428363e-38
0.90471649 -0.14212209 0.12032972 1.5703877e-38
0.90471649 -0.14212209 0.12282971 1.5703875e-38
0.90471649 -0.13962208 0.11782972 1.5520199e-38
0.90221649 -0.13962208 0.12032972 1.5520199e-38
0.90471649 -0.13962208 0.12032972 1.5795714e-38
0.90471649 -0.13962208 0.12282971 1.5703875e-38
0.8972165 -0.12462208 0.14282972 1.754058e-38
0.8972165 -0.12212209 0.14282972 1.7724261e-38
0.8997165 -0.12462208 0.14032972 1.754058e-38
0.8997165 -0.12212209 0.14032972 1.7265073e-38
0.8997165 -0.12212209 0.14282972 1.7907934e-38
0.90471649 -0.12462208 0.13532972 1.671406e-38
0.90471649 -0.12212209 0.13532972 1.671406e-38
0.90221649 -0.12462208 0.14032972 1.7816086e-38
0.90221649 -0.12212209 0.14032972 1.7356909e-38
0.90221649 -0.12212209 0.14282972 1.7173238e-38
0.8997165 -0.12462208 0.14532971 1.671406e-38
0.8997165 -0.12212209 0.14532971 1.6897731e-38
0.94471651 -0.23712209 0.070329718 1.6633406e-38
0.93721652 -0.22712208 0.067829713 1.7366988e-38
0.94471651 -0.23462209 0.067829713 1.6264273e-38
0.94471651 -0.23212208 0.067829713 1.7732881e-38
0.94221652 -0.23212208 0.070329718 1.7822263e-38
0.94471651 -0.23462209 0.070329718 1.6630184e-38
0.94471651 -0.23212208 0.070329718 1.8191728e-38
0.94471651 -0.23212208 0.072829716 1.6906396e-38
0.94471651 -0.22962208 0.067829713 1.4522205e-38
0.94471651 -0.22712208 0.067829713 1.8486594e-38
0.94221652 -0.22962208 0.070329718 1.7360926e-38
0.94221652 -0.22712208 0.070329718 1.84873e-38
0.94471651 -0.22962208 0.070329718 1.4523671e-38
0.94471651 -0.22962208 0.072829716 1.6630169e-38
0.94471651 -0.22712208 0.070329718 1.9041257e-38
0.94721651 -0.23962209 0.072829716 1.5625348e-38
0.94721651 -0.23712209 0.070329718 1.6724179e-38
0.94721651 -0.23712209 0.072829716 1.6999687e-38
0.94971651 -0.23712209 0.070329718 1.7184437e-38
0.94971651 -0.23712209 0.072829716 1.755214e-38
0.94721651 -0.23462209 0.067829713 1.672488e-38
0.94721651 -0.23462209 0.070329718 1.6816375e-38
0.94721651 -0.23462209 0.072829716 1.6907491e-38
0.94721651 -0.23212208 0.070329718 1.7917655e-38
0.94721651 -0.23212208 0.072829716 1.5807923e-38
0.94971651 -0.23462209 0.070329718 1.7000406e-38
0.94971651 -0.23462209 0.072829716 1.6814575e-38
0.94971651 -0.23212208 0.072829716 1.7842296e-38
0.94721651 -0.22962208 0.070329718 1.4342515e-38
0.94721651 -0.22962208 0.072829716 1.6005656e-38
0.94721651 -0.22712208 0.070329718 1.8952297e-38
0.94721651 -0.22712208 0.072829716 1.8955558e-38
0.94971651 -0.22962208 0.072829716 1.7479707e-38
0.94721651 -0.23712209 0.075329714 1.7368468e-38
0.94971651 -0.23712209 0.075329714 1.810133e-38
0.95221651 -0.23712209 0.075329714 1.7548881e-38
0.94721651 -0.23462209 0.075329714 1.6815294e-38
0.94721651 -0.23212208 0.075329714 1.7843725e-38
0.94971651 -0.23462209 0.075329714 1.6994623e-38
0.94971651 -0.23212208 0.075329714 1.3511314e-38
0.94971651 -0.23212208 0.077829719 1.2590096e-38
0.94721651 -0.22962208 0.075329714 1.7203493e-38
0.94721651 -0.22712208 0.075329714 1.9047406e-38
0.94971651 -0.22962208 0.075329714 1.8033259e-38
0.94971651 -0.22962208 0.077829719 1.8218342e-38
0.94971651 -0.22712208 0.075329714 1.8678629e-38
0.95221651 -0.23462209 0.075329714 1.6903512e-38
0.95221651 -0.23212208 0.075329714 1.7843435e-38
0.95221651 -0.23212208 0.077829719 1.8769725e-38
0.95221651 -0.22962208 0.077829719 1.8405259e-38
0.95221651 -0.22712208 0.075329714 1.8863711e-38
0.9547165 -0.22712208 0.077829719 1.9050629e-38
0.90721649 -0.21962209 0.067829713 1.7550327e-38
0.90721649 -0.21712208 0.067829713 1.7548878e-38
0.90971649 -0.21962209 0.067829713 1.7364137e-38
0.90971649 -0.21712208 0.067829713 1.7456329e-38
0.91221648 -0.22212209 0.067829713 1.7823667e-38
0.91221648 -0.21962209 0.067829713 1.754708e-38
0.91221648 -0.21712208 0.067829713 1.7549947e-38
0.91721648 -0.22462209 0.067829713 1.6999297e-38
0.91721648 -0.22212209 0.067829713 1.819245e-38
0.91721648 -0.21962209 0.067829713 1.7458831e-38
0.93721652 -0.22462209 0.067829713 1.5724744e-38
0.93721652 -0.22462209 0.070329718 1.7754161e-38
0.90721649 -0.17962208 0.067829713 1.7081423e-38
0.90721649 -0.17712209 0.067829713 1.7175054e-38
0.90721649 -0.17462209 0.067829713 1.6898827e-38
0.90721649 -0.17212209 0.067829713 1.7081419e-38
0.90971649 -0.17212209 0.067829713 1.7081416e-38
0.90721649 -0.17212209 0.072829716 1.6992835e-38
0.90721649 -0.16962208 0.067829713 1.6989586e-38
0.90721649 -0.16712208 0.067829713 1.6898827e-38
0.90971649 -0.16962208 0.067829713 1.6714077e-38
0.90721649 -0.16962208 0.072829716 1.7451658e-38
0.90721649 -0.16712208 0.072829716 1.7268696e-38
0.90721649 -0.16462208 0.067829713 1.6897748e-38
0.90721649 -0.16212209 0.067829713 1.6897759e-38
0.90721649 -0.16462208 0.072829716 1.7268345e-38
0.90721649 -0.16212209 0.070329718 1.6989595e-38
0.90721649 -0.16212209 0.072829716 1.7360897e-38
0.90721649 -0.15962209 0.067829713 1.6714098e-38
0.90721649 -0.15712209 0.067829713 1.7082858e-38
0.90971649 -0.15712209 0.067829713 1.6898489e-38
0.90721649 -0.15962209 0.070329718 1.6898827e-38
0.90721649 -0.15962209 0.072829716 1.7083951e-38
0.90721649 -0.15712209 0.070329718 1.7082858e-38
0.90971649 -0.15962209 0.072829716 1.7082155e-38
0.90971649 -0.15712209 0.072829716 1.7082155e-38
0.90721649 -0.15462208 0.067829713 1.7082152e-38
0.90971649 -0.15462208 0.067829713 1.6900265e-38
0.90971649 -0.15212208 0.067829713 1.6900639e-38
0.90721649 -0.15462208 0.070329718 1.6899175e-38
0.90971649 -0.15462208 0.072829716 1.7081783e-38
0.90971649 -0.15212208 0.072829716 1.6989607e-38
0.90971649 -0.14962208 0.067829713 1.7082152e-38
0.90971649 -0.14962208 0.072829716 1.717435e-38
0.91221648 -0.15462208 0.070329718 1.7081783e-38
0.91221648 -0.15212208 0.070329718 1.6806294e-38
0.91221648 -0.14962208 0.067829713 1.699211e-38
0.91221648 -0.14712209 0.067829713 1.6899556e-38
0.91471648 -0.14962208 0.067829713 1.6715525e-38
0.91471648 -0.14712209 0.067829713 1.6715525e-38
0.91221648 -0.14962208 0.070329718 1.6990685e-38
0.91221648 -0.14962208 0.072829716 1.6989607e-38
0.91221648 -0.14712209 0.072829716 1.708249e-38
0.91471648 -0.14712209 0.070329718 1.7081423e-38
0.91471648 -0.14712209 0.072829716 1.736125e-38
0.91721648 -0.14712209 0.067829713 1.6898121e-38
0.91721648 -0.14712209 0.072829716 1.736125e-38
0.90721649 -0.17212209 0.075329714 1.3504142e-38
0.90721649 -0.16962208 0.075329714 1.4332483e-38
0.90721649 -0.16962208 0.077829719 1.4440847e-38
0.90721649 -0.16712208 0.075329714 1.461086e-38
0.90721649 -0.16962208 0.080329716 1.8144881e-38
0.90721649 -0.16962208 0.085329719 1.6483212e-38
0.90721649 -0.16962208 0.090329714 1.6487154e-38
0.90721649 -0.17212209 0.10032972 1.1510427e-38
