# .PCD v0.7 - Point Cloud Data file format
VERSION 0.7
FIELDS x y z rgb
SIZE 4 4 4 4
TYPE F F F F
COUNT 1 1 1 1
WIDTH 986
HEIGHT 1
VIEWPOINT 0 0 0 1 0 0 0
POINTS 986
DATA ascii
0.87624341 0.068659648 0.1090079 1.6163047e-38
0.87624341 0.071159653 0.1065079 1.6438554e-38
0.87624341 0.071159653 0.1090079 1.6163047e-38
0.87874341 0.068659648 0.1065079 1.6163047e-38
0.87874341 0.071159653 0.1065079 1.6438554e-38
0.87624341 0.068659648 0.1115079 1.6254883e-38
0.87624341 0.068659648 0.11400791 1.6071212e-38
0.87624341 0.071159653 0.1115079 1.6254883e-38
0.87624341 0.071159653 0.11400791 1.6071212e-38
0.87874341 0.071159653 0.1115079 1.6254883e-38
0.87874341 0.071159653 0.11400791 1.5795705e-38
0.87624341 0.073659651 0.1065079 1.6254883e-38
0.87624341 0.073659651 0.1090079 1.6163047e-38
0.87624341 0.076159649 0.1065079 1.5520199e-38
0.87624341 0.076159649 0.1090079 1.5612034e-38
0.87874341 0.073659651 0.1065079 1.6346718e-38
0.87624341 0.073659651 0.1115079 1.6163047e-38
0.87624341 0.073659651 0.11400791 1.5887541e-38
0.87624341 0.076159649 0.1115079 1.5520199e-38
0.87624341 0.076159649 0.11400791 1.5520199e-38
0.87874341 0.073659651 0.1115079 1.6071212e-38
0.87874341 0.076159649 0.1115079 1.5612034e-38
0.86874342 0.061159648 0.1165079 1.6254883e-38
0.86624342 0.05865965 0.12150791 1.6254883e-38
0.86624342 0.05865965 0.1240079 1.5428363e-38
0.86624342 0.061159648 0.12150791 1.5887541e-38
0.86624342 0.061159648 0.1240079 1.5336528e-38
0.86874342 0.05865965 0.12150791 1.5795705e-38
0.86874342 0.05865965 0.1240079 1.5152857e-38
0.86874342 0.061159648 0.12150791 1.5795705e-38
0.86874342 0.061159648 0.1240079 1.5520199e-38
0.86874342 0.063659653 0.1165079 1.6163047e-38
0.86874342 0.066159651 0.1165079 1.6163047e-38
0.86624342 0.063659653 0.12150791 1.6071212e-38
0.86624342 0.063659653 0.1240079 1.4969186e-38
0.86624342 0.066159651 0.12150791 1.6071212e-38
0.86624342 0.066159651 0.1240079 1.5152857e-38
0.86874342 0.063659653 0.12150791 1.5795705e-38
0.86874342 0.063659653 0.1240079 1.5336528e-38
0.86874342 0.066159651 0.12150791 1.5887541e-38
0.86874342 0.066159651 0.1240079 1.5428363e-38
0.86374342 0.05865965 0.1315079 1.6897731e-38
0.86374342 0.063659653 0.12900791 1.5887541e-38
0.86374342 0.066159651 0.12650791 1.5428363e-38
0.86374342 0.066159651 0.12900791 1.6071212e-38
0.86374342 0.063659653 0.1315079 1.6254883e-38
0.86374342 0.066159651 0.1315079 1.6254883e-38
0.86624342 0.05865965 0.12900791 1.6897731e-38
0.86624342 0.061159648 0.12900791 1.6254883e-38
0.86874342 0.05865965 0.12650791 1.6071212e-38
0.86874342 0.05865965 0.12900791 1.6897731e-38
0.86874342 0.061159648 0.12650791 1.5795705e-38
0.86874342 0.061159648 0.12900791 1.6438554e-38
0.86624342 0.05865965 0.1315079 1.7356909e-38
0.86624342 0.05865965 0.1340079 1.7081402e-38
0.86624342 0.061159648 0.1315079 1.6805896e-38
0.86624342 0.061159648 0.1340079 1.6805896e-38
0.86874342 0.05865965 0.1315079 1.7448744e-38
0.86874342 0.05865965 0.1340079 1.5979376e-38
0.86874342 0.061159648 0.1315079 1.6989567e-38
0.86874342 0.061159648 0.1340079 1.6071212e-38
0.86624342 0.063659653 0.12900791 1.6254883e-38
0.86624342 0.066159651 0.12650791 1.5795705e-38
0.86624342 0.066159651 0.12900791 1.6254883e-38
0.86874342 0.063659653 0.12650791 1.5795705e-38
0.86874342 0.063659653 0.12900791 1.6346718e-38
0.86874342 0.066159651 0.12650791 1.5795705e-38
0.86874342 0.066159651 0.12900791 1.6438554e-38
0.86624342 0.063659653 0.1315079 1.6622225e-38
0.86624342 0.063659653 0.1340079 1.6805896e-38
0.86624342 0.066159651 0.1315079 1.671406e-38
0.86624342 0.066159651 0.1340079 1.7356909e-38
0.86874342 0.063659653 0.1315079 1.6897731e-38
0.86874342 0.063659653 0.1340079 1.5979376e-38
0.86874342 0.066159651 0.1315079 1.6989567e-38
0.86874342 0.066159651 0.1340079 1.6071212e-38
0.86874342 0.068659648 0.1165079 1.6071212e-38
0.86874342 0.071159653 0.1165079 1.6071212e-38
0.86624342 0.068659648 0.12150791 1.6071212e-38
0.86624342 0.068659648 0.1240079 1.5244692e-38
0.86624342 0.071159653 0.12150791 1.5887541e-38
0.86624342 0.071159653 0.1240079 1.4969186e-38
0.86874342 0.068659648 0.12150791 1.5612034e-38
0.86874342 0.068659648 0.1240079 1.5336528e-38
0.86874342 0.071159653 0.12150791 1.5612034e-38
0.86874342 0.071159653 0.1240079 1.5520199e-38
0.86874342 0.073659651 0.1165079 1.5887541e-38
0.86874342 0.076159649 0.1165079 1.5428363e-38
0.86624342 0.073659651 0.12150791 1.5887541e-38
0.86624342 0.073659651 0.1240079 1.5061021e-38
0.86624342 0.076159649 0.12150791 1.5520199e-38
0.86624342 0.076159649 0.1240079 1.5244692e-38
0.86874342 0.073659651 0.12150791 1.5520199e-38
0.86874342 0.073659651 0.1240079 1.570387e-38
0.86874342 0.076159649 0.12150791 1.5244692e-38
0.86874342 0.076159649 0.1240079 1.5244692e-38
0.86374342 0.068659648 0.1315079 1.6254883e-38
0.86374342 0.073659651 0.1340079 1.6805896e-38
0.86374342 0.076159649 0.1340079 1.7265073e-38
0.86624342 0.068659648 0.12900791 1.6254883e-38
0.86624342 0.071159653 0.12900791 1.6254883e-38
0.86874342 0.068659648 0.12650791 1.5520199e-38
0.86874342 0.068659648 0.12900791 1.6438554e-38
0.86874342 0.071159653 0.12650791 1.5520199e-38
0.86874342 0.071159653 0.12900791 1.6254883e-38
0.86624342 0.068659648 0.1315079 1.6805896e-38
0.86624342 0.068659648 0.1340079 1.6530389e-38
0.86624342 0.071159653 0.1340079 1.6897741e-38
0.86874342 0.068659648 0.1315079 1.6438554e-38
0.86874342 0.068659648 0.1340079 1.5979376e-38
0.86874342 0.071159653 0.1315079 1.6622225e-38
0.86874342 0.071159653 0.1340079 1.6071212e-38
0.86624342 0.076159649 0.12900791 1.6071212e-38
0.86874342 0.073659651 0.12650791 1.5520199e-38
0.86874342 0.073659651 0.12900791 1.6438554e-38
0.86874342 0.076159649 0.12650791 1.6071212e-38
0.86874342 0.076159649 0.12900791 1.6438554e-38
0.86624342 0.073659651 0.1340079 1.7081402e-38
0.86624342 0.076159649 0.1315079 1.671406e-38
0.86624342 0.076159649 0.1340079 1.754058e-38
0.86874342 0.073659651 0.1315079 1.6438554e-38
0.86874342 0.073659651 0.1340079 1.671406e-38
0.86874342 0.076159649 0.1315079 1.671406e-38
0.86874342 0.076159649 0.1340079 1.6530389e-38
0.87124342 0.05865965 0.1165079 1.6254883e-38
0.87124342 0.05865965 0.1190079 1.6254883e-38
0.87124342 0.061159648 0.1165079 1.6254883e-38
0.87124342 0.061159648 0.1190079 1.6071212e-38
0.87374341 0.05865965 0.1165079 1.6071212e-38
0.87374341 0.05865965 0.1190079 1.5612034e-38
0.87374341 0.061159648 0.1165079 1.6071212e-38
0.87124342 0.05865965 0.12150791 1.5887541e-38
0.87124342 0.061159648 0.12150791 1.5887541e-38
0.87374341 0.05865965 0.1240079 1.5795705e-38
0.87374341 0.061159648 0.1240079 1.5795705e-38
0.87124342 0.063659653 0.1165079 1.6254883e-38
0.87124342 0.063659653 0.1190079 1.6071212e-38
0.87124342 0.066159651 0.1165079 1.6254883e-38
0.87124342 0.066159651 0.1190079 1.6071212e-38
0.87374341 0.063659653 0.1165079 1.6071212e-38
0.87374341 0.063659653 0.1190079 1.5520199e-38
0.87374341 0.066159651 0.1165079 1.6071212e-38
0.87374341 0.066159651 0.1190079 1.5520199e-38
0.87124342 0.063659653 0.12150791 1.5520199e-38
0.87124342 0.066159651 0.12150791 1.5887541e-38
0.87374341 0.063659653 0.12150791 1.4969186e-38
0.87374341 0.063659653 0.1240079 1.5795705e-38
0.87374341 0.066159651 0.12150791 1.5244692e-38
0.87624341 0.061159648 0.1165079 1.6071212e-38
0.87624341 0.063659653 0.1165079 1.5887541e-38
0.87624341 0.066159651 0.1165079 1.5887541e-38
0.87624341 0.066159651 0.1190079 1.5428363e-38
0.87624341 0.063659653 0.12150791 1.5520199e-38
0.87874341 0.066159651 0.12150791 1.5612046e-38
0.87124342 0.05865965 0.12650791 1.6438554e-38
0.87124342 0.05865965 0.12900791 1.7081402e-38
0.87124342 0.061159648 0.12650791 1.6254883e-38
0.87124342 0.061159648 0.12900791 1.6805896e-38
0.87374341 0.05865965 0.12900791 1.7448744e-38
0.87374341 0.061159648 0.12900791 1.6805896e-38
0.87124342 0.05865965 0.1315079 1.6989567e-38
0.87124342 0.061159648 0.1315079 1.6622229e-38
0.87374341 0.061159648 0.1315079 1.6805896e-38
0.87124342 0.063659653 0.12650791 1.5887541e-38
0.87124342 0.063659653 0.12900791 1.6530391e-38
0.87124342 0.066159651 0.12650791 1.5887541e-38
0.87124342 0.066159651 0.12900791 1.68059e-38
0.87374341 0.063659653 0.12900791 1.671406e-38
0.87374341 0.063659653 0.1315079 1.6897731e-38
0.87374341 0.066159651 0.1315079 1.6805896e-38
0.87124342 0.068659648 0.1165079 1.6071212e-38
0.87124342 0.068659648 0.1190079 1.5887541e-38
0.87124342 0.071159653 0.1190079 1.5887541e-38
0.87374341 0.068659648 0.1165079 1.5887541e-38
0.87374341 0.068659648 0.1190079 1.5795705e-38
0.87374341 0.071159653 0.1165079 1.5795705e-38
0.87374341 0.071159653 0.1190079 1.5795705e-38
0.87124342 0.068659648 0.12150791 1.5887541e-38
0.87124342 0.071159653 0.12150791 1.570387e-38
0.87374341 0.068659648 0.12150791 1.5152857e-38
0.87374341 0.068659648 0.1240079 1.6071212e-38
0.87374341 0.071159653 0.1240079 1.5887541e-38
0.87124342 0.073659651 0.1165079 1.6071212e-38
0.87124342 0.073659651 0.1190079 1.5520199e-38
0.87124342 0.076159649 0.1165079 1.5336528e-38
0.87124342 0.076159649 0.1190079 1.5336528e-38
0.87374341 0.073659651 0.1165079 1.5795705e-38
0.87374341 0.073659651 0.1190079 1.5520199e-38
0.87124342 0.073659651 0.12150791 1.5520199e-38
0.87124342 0.076159649 0.12150791 1.5336528e-38
0.87374341 0.073659651 0.12150791 1.5520204e-38
0.87374341 0.073659651 0.1240079 1.5795705e-38
0.87374341 0.076159649 0.12150791 1.487735e-38
0.87374341 0.076159649 0.1240079 1.6071212e-38
0.87624341 0.068659648 0.1165079 1.6071212e-38
0.87624341 0.068659648 0.1190079 1.5795705e-38
0.87624341 0.071159653 0.1165079 1.6071212e-38
0.87624341 0.071159653 0.1190079 1.5520199e-38
0.87624341 0.068659648 0.1240079 1.6254883e-38
0.87624341 0.071159653 0.1240079 1.6254883e-38
0.87874341 0.068659648 0.12150791 1.5887541e-38
0.87624341 0.073659651 0.1165079 1.5887541e-38
0.87624341 0.073659651 0.1190079 1.5795705e-38
0.87624341 0.076159649 0.1165079 1.5520199e-38
0.87624341 0.076159649 0.1190079 1.5336528e-38
0.87624341 0.073659651 0.12150791 1.5520199e-38
0.87624341 0.076159649 0.12150791 1.5428363e-38
0.87124342 0.068659648 0.12650791 1.6071212e-38
0.87124342 0.068659648 0.12900791 1.6805896e-38
0.87124342 0.071159653 0.12650791 1.6071212e-38
0.87124342 0.071159653 0.12900791 1.6530389e-38
0.87374341 0.068659648 0.12650791 1.6254883e-38
0.87374341 0.068659648 0.12900791 1.6989567e-38
0.87374341 0.071159653 0.12650791 1.6254883e-38
0.87374341 0.071159653 0.12900791 1.6530389e-38
0.87124342 0.068659648 0.1315079 1.671406e-38
0.87124342 0.071159653 0.1315079 1.6805896e-38
0.87374341 0.068659648 0.1315079 1.671406e-38
0.87374341 0.071159653 0.1315079 1.6805896e-38
0.87124342 0.073659651 0.12650791 1.6254883e-38
0.87124342 0.073659651 0.12900791 1.6530389e-38
0.87124342 0.076159649 0.12650791 1.6254883e-38
0.87124342 0.076159649 0.12900791 1.6438554e-38
0.87374341 0.073659651 0.12650791 1.6254883e-38
0.87374341 0.073659651 0.12900791 1.6530389e-38
0.87124342 0.073659651 0.1315079 1.6897731e-38
0.87124342 0.076159649 0.1315079 1.671406e-38
0.87374341 0.073659651 0.1315079 1.6805896e-38
0.87374341 0.076159649 0.1315079 1.671406e-38
0.87624341 0.068659648 0.12650791 1.6530389e-38
0.87624341 0.068659648 0.12900791 1.6530389e-38
0.87624341 0.071159653 0.12650791 1.6530389e-38
0.87624341 0.071159653 0.12900791 1.6622225e-38
0.87624341 0.068659648 0.1340079 1.5428363e-38
0.87624341 0.073659651 0.12900791 1.6530389e-38
0.88124341 0.038659651 0.096507899 1.6897731e-38
0.88124341 0.038659651 0.099007905 1.6897731e-38
0.88124341 0.041159648 0.096507899 1.6897731e-38
0.88124341 0.041159648 0.099007905 1.6897731e-38
0.88374346 0.038659651 0.096507899 1.6805896e-38
0.88374346 0.041159648 0.096507899 1.6897731e-38
0.88374346 0.041159648 0.099007905 1.6897731e-38
0.88374346 0.038659651 0.1015079 1.671406e-38
0.88374346 0.041159648 0.1015079 1.671406e-38
0.88124341 0.04365965 0.096507899 1.6897731e-38
0.88124341 0.04365965 0.099007905 1.671406e-38
0.88124341 0.046159651 0.096507899 1.6897731e-38
0.88124341 0.046159651 0.099007905 1.671406e-38
0.88374346 0.04365965 0.099007905 1.671406e-38
0.88374346 0.046159651 0.096507899 1.671406e-38
0.88374346 0.046159651 0.099007905 1.671406e-38
0.88124341 0.046159651 0.1040079 1.6438554e-38
0.88374346 0.04365965 0.1015079 1.671406e-38
0.88374346 0.046159651 0.1015079 1.671406e-38
0.88624346 0.041159648 0.096507899 1.6897731e-38
0.88624346 0.04365965 0.096507899 1.671406e-38
0.88624346 0.046159651 0.096507899 1.6530389e-38
0.88624346 0.04365965 0.1015079 1.671406e-38
0.88124341 0.04365965 0.1090079 1.6438554e-38
0.88124341 0.046159651 0.1090079 1.6438554e-38
0.88124341 0.04365965 0.1115079 1.6438554e-38
0.88124341 0.046159651 0.1115079 1.6438554e-38
0.88374346 0.046159651 0.11400791 1.6071212e-38
0.88124341 0.048659649 0.096507899 1.6897731e-38
0.88124341 0.048659649 0.099007905 1.6989567e-38
0.88124341 0.05115965 0.096507899 1.671406e-38
0.88124341 0.05115965 0.099007905 1.671406e-38
0.88374346 0.048659649 0.096507899 1.671406e-38
0.88374346 0.048659649 0.099007905 1.6622225e-38
0.88124341 0.053659651 0.096507899 1.6622225e-38
0.88124341 0.053659651 0.099007905 1.6438554e-38
0.88124341 0.056159649 0.096507899 1.671406e-38
0.88374346 0.056159649 0.096507899 1.671406e-38
0.88124341 0.038659651 0.12150791 1.6622225e-38
0.88124341 0.038659651 0.1240079 1.7173238e-38
0.88124341 0.041159648 0.12150791 1.6805896e-38
0.88374346 0.038659651 0.1240079 1.7081402e-38
0.88374346 0.041159648 0.1240079 1.7448744e-38
0.88124341 0.04365965 0.1165079 1.6254883e-38
0.88124341 0.046159651 0.1165079 1.6254883e-38
0.88374346 0.04365965 0.1190079 1.6254883e-38
0.88374346 0.046159651 0.1190079 1.6346718e-38
0.88124341 0.04365965 0.12150791 1.6622225e-38
0.88124341 0.04365965 0.1240079 1.7356909e-38
0.88124341 0.046159651 0.12150791 1.671406e-38
0.88374346 0.04365965 0.1240079 1.7448744e-38
0.88374346 0.046159651 0.12150791 1.7173238e-38
0.88374346 0.046159651 0.1240079 1.7816086e-38
0.88624346 0.038659651 0.1240079 1.7173238e-38
0.88624346 0.041159648 0.1240079 1.7173238e-38
0.88624346 0.04365965 0.1240079 1.7081402e-38
0.88624346 0.046159651 0.1240079 1.754058e-38
0.88124341 0.038659651 0.12650791 1.7356909e-38
0.88124341 0.048659649 0.1165079 1.5887541e-38
0.88124341 0.05115965 0.1165079 1.5795705e-38
0.88374346 0.048659649 0.1190079 1.6438554e-38
0.88124341 0.048659649 0.12150791 1.754058e-38
0.88124341 0.05865965 0.096507899 1.671406e-38
0.88124341 0.061159648 0.096507899 1.6438554e-38
0.88124341 0.061159648 0.099007905 1.671406e-38
0.88374346 0.05865965 0.096507899 1.671406e-38
0.88374346 0.061159648 0.096507899 1.6530389e-38
0.88124341 0.063659653 0.096507899 1.6622225e-38
0.88124341 0.063659653 0.099007905 1.671406e-38
0.88124341 0.066159651 0.096507899 1.6805896e-38
0.88124341 0.066159651 0.099007905 1.6438554e-38
0.88374346 0.063659653 0.096507899 1.6530389e-38
0.88374346 0.066159651 0.096507899 1.671406e-38
0.88124341 0.063659653 0.1040079 1.6346718e-38
0.88124341 0.066159651 0.1040079 1.6346718e-38
0.88124341 0.068659648 0.096507899 1.671406e-38
0.88124341 0.068659648 0.099007905 1.671406e-38
0.88124341 0.071159653 0.099007905 1.6530389e-38
0.88124341 0.073659651 0.099007905 1.6254883e-38
0.88124341 0.076159649 0.096507899 1.5520199e-38
0.88124341 0.076159649 0.099007905 1.6163047e-38
0.88374346 0.076159649 0.096507899 1.5612034e-38
0.88124341 0.073659651 0.1065079 1.6163047e-38
0.88374346 0.073659651 0.1065079 1.6071212e-38
0.86624342 -0.0013403503 0.1365079 1.6622225e-38
0.86124343 0.046159651 0.1365079 1.7356909e-38
0.86624342 0.041159648 0.1365079 1.6622225e-38
0.86624342 0.04365965 0.1365079 1.6346718e-38
0.86124343 0.048659649 0.1365079 1.7265073e-38
0.86624342 0.05865965 0.1365079 1.6254883e-38
0.86624342 0.063659653 0.1365079 1.6071212e-38
0.86624342 0.066159651 0.1365079 1.5979376e-38
0.86874342 0.063659653 0.1365079 1.5520199e-38
0.86874342 0.066159651 0.1365079 1.5428363e-38
0.86624342 0.068659648 0.1365079 1.6071212e-38
0.86874342 0.068659648 0.1365079 1.5428363e-38
0.86874342 0.068659648 0.1390079 1.4601844e-38
0.86624342 0.073659651 0.1365079 1.6897733e-38
0.86624342 0.076159649 0.1365079 1.7356909e-38
0.86874342 0.073659651 0.1365079 1.5887546e-38
0.86874342 0.076159649 0.1365079 1.754058e-38
0.87124342 0.068659648 0.1365079 1.5152857e-38
0.87124342 0.076159649 0.1365079 1.6071212e-38
0.96874344 -0.048840351 0.1240079 1.920803e-38
0.96874344 -0.04634035 0.1240079 1.8009488e-38
0.96874344 -0.048840351 0.12650791 1.8839967e-38
0.96874344 -0.04634035 0.12650791 1.8194598e-38
0.97124344 -0.051340349 0.1240079 1.4433659e-38
0.97124344 -0.048840351 0.1240079 1.5081529e-38
0.97374344 -0.051340349 0.12150791 1.2961759e-38
0.97374344 -0.048840351 0.12150791 1.4716337e-38
0.97374344 -0.048840351 0.1240079 1.5170502e-38
0.97374344 -0.04634035 0.12150791 1.8099184e-38
0.97374344 -0.04634035 0.1240079 1.81042e-38
0.97374344 -0.043840349 0.12150791 1.9201542e-38
0.97374344 -0.043840349 0.1240079 1.8924953e-38
0.97624344 -0.048840351 0.12150791 1.8655576e-38
0.97624344 -0.048840351 0.1240079 1.5726881e-38
0.97874343 -0.048840351 0.12150791 1.9119781e-38
0.97874343 -0.048840351 0.1240079 1.5729403e-38
0.97624344 -0.04634035 0.1190079 1.8194245e-38
0.97624344 -0.043840349 0.1190079 1.8741285e-38
0.97874343 -0.04634035 0.1190079 1.8196763e-38
0.97874343 -0.043840349 0.1190079 1.9293737e-38
0.97624344 -0.04634035 0.12150791 1.8102402e-38
0.97624344 -0.04634035 0.1240079 1.7733274e-38
0.97624344 -0.043840349 0.12150791 1.947885e-38
0.97624344 -0.043840349 0.1240079 1.9201542e-38
0.97874343 -0.04634035 0.12150791 1.8290021e-38
0.97874343 -0.04634035 0.1240079 1.7916236e-38
0.97874343 -0.043840349 0.12150791 1.9202263e-38
0.97874343 -0.043840349 0.1240079 1.9294459e-38
0.97124344 -0.051340349 0.12650791 1.5913068e-38
0.97124344 -0.048840351 0.12650791 1.6005265e-38
0.97374344 -0.051340349 0.12650791 1.8214321e-38
0.97374344 -0.048840351 0.12650791 1.7015778e-38
0.97374344 -0.048840351 0.12900791 1.7658676e-38
0.97124344 -0.04634035 0.12650791 1.7916236e-38
0.97374344 -0.04634035 0.12650791 1.810098e-38
0.97374344 -0.04634035 0.12900791 1.7913362e-38
0.97624344 -0.051340349 0.12650791 1.8305445e-38
0.97624344 -0.048840351 0.12650791 1.7014726e-38
0.97874343 -0.048840351 0.12900791 1.9572879e-38
0.97624344 -0.04634035 0.12650791 1.7916586e-38
0.97624344 -0.043840349 0.12650791 1.8926032e-38
0.97874343 -0.04634035 0.12900791 1.7821522e-38
0.97874343 -0.041340351 0.1190079 1.5520199e-38
0.97874343 -0.041340351 0.12150791 1.5520199e-38
0.99374342 -0.043840349 0.079007901 2.1226251e-38
0.99124342 -0.04634035 0.081507899 1.829148e-38
0.99124342 -0.043840349 0.081507899 2.0767072e-38
0.99374342 -0.04634035 0.084007904 1.829148e-38
0.99374342 -0.043840349 0.084007904 2.1135851e-38
0.99874341 -0.04634035 0.079007901 1.8107814e-38
0.99874341 -0.043840349 0.079007901 2.1042933e-38
0.99624342 -0.04634035 0.084007904 1.8380428e-38
0.99624342 -0.043840349 0.081507899 2.1226604e-38
0.99624342 -0.043840349 0.084007904 2.0030579e-38
0.99874341 -0.043840349 0.081507899 2.0950738e-38
0.99374342 -0.04634035 0.086507902 1.8382585e-38
0.99374342 -0.043840349 0.086507902 2.0674872e-38
0.99624342 -0.04634035 0.089007899 1.8565176e-38
0.99624342 -0.043840349 0.089007899 1.9937663e-38
0.99874341 -0.043840349 0.086507902 2.021497e-38
1.0062435 -0.056340352 0.069007903 9.5792777e-39
1.0012435 -0.043840349 0.081507899 2.0398286e-38
1.0012435 -0.043840349 0.089007899 2.0214252e-38
1.0037434 -0.043840349 0.089007899 2.0307166e-38
0.98374343 -0.04634035 0.11400791 1.8102768e-38
0.98374343 -0.043840349 0.11400791 1.8648368e-38
0.98624343 -0.048840351 0.11400791 1.9302743e-38
0.98624343 -0.04634035 0.11400791 1.8194245e-38
0.98624343 -0.043840349 0.11400791 1.8649087e-38
0.98874342 -0.043840349 0.1115079 1.8648368e-38
0.99374342 -0.043840349 0.1090079 1.8924953e-38
0.98374343 -0.048840351 0.1190079 1.8655576e-38
0.98124343 -0.048840351 0.12150791 1.9116577e-38
0.98124343 -0.048840351 0.1240079 1.9207693e-38
0.98374343 -0.048840351 0.1240079 1.7567569e-38
0.98124343 -0.04634035 0.1165079 1.8290759e-38
0.98124343 -0.043840349 0.1165079 1.8924597e-38
0.98374343 -0.04634035 0.1190079 1.8286794e-38
0.98374343 -0.043840349 0.1190079 1.8740566e-38
0.98124343 -0.04634035 0.12150791 1.7733642e-38
0.98124343 -0.04634035 0.1240079 1.800915e-38
0.98124343 -0.043840349 0.12150791 1.8740566e-38
0.98124343 -0.043840349 0.1240079 1.9109347e-38
0.98374343 -0.04634035 0.1240079 1.7548878e-38
0.98374343 -0.043840349 0.1240079 1.8556175e-38
0.98624343 -0.04634035 0.1165079 1.8289317e-38
0.98624343 -0.043840349 0.1165079 1.8924953e-38
0.98124343 -0.048840351 0.12650791 1.7566125e-38
0.98124343 -0.048840351 0.12900791 1.9482117e-38
0.98374343 -0.051340349 0.12900791 1.4987882e-38
0.98374343 -0.048840351 0.12650791 1.902362e-38
0.98374343 -0.048840351 0.12900791 1.5820514e-38
0.98124343 -0.04634035 0.12650791 1.7914086e-38
0.98124343 -0.04634035 0.12900791 1.7822235e-38
0.98124343 -0.043840349 0.12650791 1.837178e-38
0.98124343 -0.043840349 0.12900791 1.8371782e-38
0.98374343 -0.04634035 0.12650791 1.7640686e-38
0.98374343 -0.04634035 0.12900791 1.7450942e-38
0.98374343 -0.043840349 0.12650791 1.8371782e-38
0.98374343 -0.043840349 0.12900791 1.8186667e-38
0.98624343 -0.048840351 0.12650791 1.9206254e-38
0.98624343 -0.048840351 0.12900791 1.4989664e-38
0.98874342 -0.048840351 0.12650791 1.9572869e-38
0.98874342 -0.048840351 0.12900791 1.9294481e-38
0.98624343 -0.04634035 0.12650791 1.763857e-38
0.98624343 -0.043840349 0.12650791 1.8556172e-38
0.98874342 -0.04634035 0.12650791 1.7544206e-38
0.98874342 -0.04634035 0.12900791 1.7266178e-38
0.98874342 -0.043840349 0.12650791 1.7818606e-38
0.98874342 -0.043840349 0.12900791 1.8367487e-38
0.99374342 -0.048840351 0.1240079 1.9478519e-38
0.99374342 -0.04634035 0.1240079 1.7542411e-38
0.99374342 -0.043840349 0.1240079 1.8186667e-38
0.99874341 -0.048840351 0.1240079 1.911044e-38
0.99874341 -0.04634035 0.1240079 1.7450918e-38
0.99874341 -0.043840349 0.1240079 1.864372e-38
0.99124342 -0.048840351 0.12650791 1.9939856e-38
0.99374342 -0.048840351 0.12900791 1.5091215e-38
0.99124342 -0.048840351 0.1315079 2.1323119e-38
0.99124342 -0.048840351 0.1340079 2.225408e-38
0.99124342 -0.04634035 0.12650791 1.7542411e-38
0.99124342 -0.043840349 0.12650791 1.8371058e-38
0.99374342 -0.04634035 0.12900791 1.708249e-38
0.99374342 -0.043840349 0.12900791 1.8371777e-38
0.99124342 -0.04634035 0.1315079 1.6254883e-38
0.99124342 -0.04634035 0.1340079 1.386716e-38
0.99124342 -0.043840349 0.1315079 1.6260295e-38
0.99124342 -0.043840349 0.1340079 1.4326337e-38
0.99624342 -0.048840351 0.12650791 1.8560491e-38
0.99624342 -0.048840351 0.12900791 2.13224e-38
0.99874341 -0.048840351 0.12650791 2.1416407e-38
0.99624342 -0.048840351 0.1315079 2.1328881e-38
0.99874341 -0.048840351 0.1315079 2.2713256e-38
0.99624342 -0.04634035 0.12650791 1.7360149e-38
0.99624342 -0.04634035 0.12900791 1.6438554e-38
0.99624342 -0.043840349 0.12650791 1.8736269e-38
0.99624342 -0.043840349 0.12900791 1.6534335e-38
0.99874341 -0.04634035 0.12650791 1.7083211e-38
0.99874341 -0.043840349 0.12650791 1.818883e-38
0.99874341 -0.043840349 0.12900791 1.6442141e-38
0.99624342 -0.04634035 0.1315079 1.386716e-38
0.99624342 -0.04634035 0.1340079 1.3224311e-38
0.99624342 -0.043840349 0.1315079 1.4142666e-38
0.99624342 -0.043840349 0.1340079 1.4050831e-38
0.99874341 -0.04634035 0.1315079 1.4142666e-38
0.99874341 -0.043840349 0.1315079 1.4326337e-38
1.0012435 -0.043840349 0.12900791 1.4510008e-38
1.0012435 -0.04634035 0.1315079 1.3224311e-38
1.0012435 -0.043840349 0.1315079 1.3775324e-38
0.99874341 -0.03884035 0.074007899 1.5336539e-38
0.99624342 -0.033840351 0.074007899 1.5795705e-38
0.99874341 -0.036340348 0.074007899 1.5520199e-38
0.99874341 -0.033840351 0.071507901 1.5520199e-38
0.99874341 -0.033840351 0.074007899 1.5336528e-38
0.99374342 -0.02884035 0.071507901 1.7356909e-38
0.99124342 -0.026340351 0.074007899 1.7266149e-38
0.99124342 -0.023840351 0.074007899 1.7999757e-38
0.99374342 -0.026340351 0.071507901 1.7999759e-38
0.99374342 -0.023840351 0.071507901 1.8458935e-38
0.99624342 -0.031340349 0.074007899 1.5520199e-38
0.99624342 -0.02884035 0.074007899 1.570387e-38
0.99874341 -0.031340349 0.071507901 1.7266867e-38
0.99874341 -0.031340349 0.074007899 1.5520199e-38
0.99874341 -0.02884035 0.071507901 1.7633133e-38
0.99624342 -0.026340351 0.069007903 1.7540601e-38
0.99624342 -0.023840351 0.069007903 1.8091593e-38
0.99624342 -0.026340351 0.074007899 1.5795705e-38
0.99624342 -0.023840351 0.074007899 1.6254883e-38
0.99874341 -0.026340351 0.071507901 1.7540938e-38
0.99874341 -0.023840351 0.071507901 1.8737322e-38
0.98874342 -0.041340351 0.079007901 1.5244713e-38
0.98874342 -0.03884035 0.079007901 1.5428389e-38
0.98874342 -0.041340351 0.084007904 1.4969186e-38
0.98874342 -0.03884035 0.084007904 1.5152857e-38
0.98874342 -0.036340348 0.079007901 1.5520202e-38
0.98874342 -0.033840351 0.079007901 1.5336529e-38
0.98874342 -0.031340349 0.079007901 1.5428363e-38
0.98874342 -0.02884035 0.076507904 1.5887541e-38
0.98874342 -0.02884035 0.079007901 1.5795705e-38
0.98624343 -0.023840351 0.079007901 1.6346718e-38
0.98874342 -0.026340351 0.076507904 1.5979376e-38
0.98874342 -0.026340351 0.079007901 1.570387e-38
0.98874342 -0.023840351 0.076507904 1.6346718e-38
0.98874342 -0.023840351 0.079007901 1.6346718e-38
0.98874342 -0.023840351 0.081507899 1.6071212e-38
0.98874342 -0.023840351 0.084007904 1.6254883e-38
0.99124342 -0.03884035 0.076507904 1.5428363e-38
0.99374342 -0.041340351 0.076507904 1.4969193e-38
0.99374342 -0.041340351 0.079007901 1.4969187e-38
0.99374342 -0.03884035 0.076507904 1.5336539e-38
0.99374342 -0.03884035 0.079007901 1.5336533e-38
0.99124342 -0.041340351 0.081507899 1.6438554e-38
0.99124342 -0.03884035 0.081507899 1.5244694e-38
0.99374342 -0.041340351 0.084007904 1.6346718e-38
0.99374342 -0.03884035 0.084007904 1.5244692e-38
0.99124342 -0.036340348 0.076507904 1.570387e-38
0.99124342 -0.033840351 0.076507904 1.570387e-38
0.99374342 -0.036340348 0.076507904 1.5336528e-38
0.99374342 -0.036340348 0.079007901 1.5336528e-38
0.99374342 -0.033840351 0.076507904 1.5520202e-38
0.99374342 -0.033840351 0.079007901 1.5152857e-38
0.99124342 -0.036340348 0.081507899 1.5244692e-38
0.99124342 -0.033840351 0.081507899 1.5152857e-38
0.99374342 -0.036340348 0.084007904 1.5152857e-38
0.99374342 -0.033840351 0.084007904 1.487735e-38
0.99624342 -0.041340351 0.076507904 1.4969187e-38
0.99624342 -0.03884035 0.076507904 1.5152878e-38
0.99874341 -0.041340351 0.079007901 1.6254883e-38
0.99874341 -0.03884035 0.079007901 1.4969186e-38
0.99624342 -0.041340351 0.081507899 1.6346718e-38
0.99624342 -0.041340351 0.084007904 1.6254883e-38
0.99624342 -0.03884035 0.081507899 1.5152857e-38
0.99624342 -0.03884035 0.084007904 1.4969186e-38
0.99874341 -0.041340351 0.081507899 1.6346718e-38
0.99874341 -0.03884035 0.081507899 1.487735e-38
0.99624342 -0.036340348 0.076507904 1.5336528e-38
0.99624342 -0.033840351 0.076507904 1.5152857e-38
0.99874341 -0.036340348 0.079007901 1.5152857e-38
0.99874341 -0.033840351 0.079007901 1.5152857e-38
0.99624342 -0.036340348 0.081507899 1.4969186e-38
0.99624342 -0.036340348 0.084007904 1.5152857e-38
0.99624342 -0.033840351 0.081507899 1.4969186e-38
0.99624342 -0.033840351 0.084007904 1.487735e-38
0.99874341 -0.036340348 0.081507899 1.487735e-38
0.99124342 -0.041340351 0.086507902 1.4785515e-38
0.99124342 -0.03884035 0.086507902 1.487735e-38
0.99374342 -0.041340351 0.086507902 1.5795705e-38
0.99374342 -0.03884035 0.086507902 1.4969186e-38
0.99374342 -0.03884035 0.089007899 1.487735e-38
0.99374342 -0.041340351 0.094007902 1.4785515e-38
0.99374342 -0.03884035 0.091507904 1.4785515e-38
0.99374342 -0.03884035 0.094007902 1.4785515e-38
0.99374342 -0.036340348 0.086507902 1.4969186e-38
0.99374342 -0.036340348 0.089007899 1.487735e-38
0.99374342 -0.033840351 0.086507902 1.487735e-38
0.99374342 -0.033840351 0.089007899 1.5428363e-38
0.99124342 -0.036340348 0.094007902 1.487735e-38
0.99124342 -0.033840351 0.094007902 1.487735e-38
0.99374342 -0.036340348 0.091507904 1.487735e-38
0.99374342 -0.036340348 0.094007902 1.487735e-38
0.99374342 -0.033840351 0.091507904 1.5428363e-38
0.99374342 -0.033840351 0.094007902 1.570387e-38
0.99624342 -0.041340351 0.089007899 1.5979376e-38
0.99624342 -0.03884035 0.089007899 1.4969186e-38
0.99874341 -0.041340351 0.086507902 1.5979376e-38
0.99874341 -0.03884035 0.086507902 1.5152857e-38
0.99624342 -0.041340351 0.094007902 1.4969186e-38
0.99624342 -0.03884035 0.094007902 1.4969186e-38
0.99874341 -0.041340351 0.091507904 1.5795705e-38
0.99874341 -0.041340351 0.094007902 1.4785515e-38
0.99874341 -0.03884035 0.091507904 1.487735e-38
0.99874341 -0.03884035 0.094007902 1.4969186e-38
0.99624342 -0.036340348 0.089007899 1.5152857e-38
0.99624342 -0.033840351 0.089007899 1.5152857e-38
0.99874341 -0.036340348 0.086507902 1.5152857e-38
0.99874341 -0.033840351 0.086507902 1.4969186e-38
0.99624342 -0.036340348 0.094007902 1.5152857e-38
0.99624342 -0.033840351 0.094007902 1.5244692e-38
0.99874341 -0.036340348 0.091507904 1.5152857e-38
0.99874341 -0.036340348 0.094007902 1.5152857e-38
0.99874341 -0.033840351 0.091507904 1.5152857e-38
0.99874341 -0.033840351 0.094007902 1.5244692e-38
0.99124342 -0.031340349 0.076507904 1.5520199e-38
0.99124342 -0.02884035 0.076507904 1.5612034e-38
0.99374342 -0.031340349 0.076507904 1.5612034e-38
0.99374342 -0.031340349 0.079007901 1.5520199e-38
0.99374342 -0.02884035 0.076507904 1.5795705e-38
0.99374342 -0.02884035 0.079007901 1.570387e-38
0.99124342 -0.031340349 0.081507899 1.5336528e-38
0.99124342 -0.02884035 0.081507899 1.5520199e-38
0.99374342 -0.031340349 0.084007904 1.4969186e-38
0.99374342 -0.02884035 0.084007904 1.570387e-38
0.99124342 -0.026340351 0.076507904 1.570387e-38
0.99124342 -0.023840351 0.076507904 1.6254883e-38
0.99374342 -0.026340351 0.076507904 1.5795705e-38
0.99374342 -0.026340351 0.079007901 1.5795705e-38
0.99374342 -0.023840351 0.076507904 1.6254883e-38
0.99374342 -0.023840351 0.079007901 1.6346718e-38
0.99124342 -0.026340351 0.081507899 1.570387e-38
0.99124342 -0.023840351 0.081507899 1.6254883e-38
0.99374342 -0.026340351 0.084007904 1.5795705e-38
0.99374342 -0.023840351 0.084007904 1.6438554e-38
0.99624342 -0.031340349 0.076507904 1.5612034e-38
0.99624342 -0.02884035 0.076507904 1.6071212e-38
0.99874341 -0.031340349 0.079007901 1.5152857e-38
0.99874341 -0.02884035 0.079007901 1.5887541e-38
0.99624342 -0.031340349 0.081507899 1.5152857e-38
0.99624342 -0.031340349 0.084007904 1.5061021e-38
0.99624342 -0.02884035 0.081507899 1.5979376e-38
0.99624342 -0.02884035 0.084007904 1.5979376e-38
0.99874341 -0.031340349 0.081507899 1.5244692e-38
0.99874341 -0.02884035 0.081507899 1.5979376e-38
0.99624342 -0.026340351 0.076507904 1.6071212e-38
0.99624342 -0.023840351 0.076507904 1.6071212e-38
0.99874341 -0.026340351 0.079007901 1.5979376e-38
0.99874341 -0.023840351 0.079007901 1.6346718e-38
0.99624342 -0.026340351 0.081507899 1.5979376e-38
0.99624342 -0.026340351 0.084007904 1.5979376e-38
0.99624342 -0.023840351 0.081507899 1.6438554e-38
0.99624342 -0.023840351 0.084007904 1.6254883e-38
0.99874341 -0.026340351 0.081507899 1.5979376e-38
0.99874341 -0.023840351 0.081507899 1.5979376e-38
0.99124342 -0.02884035 0.086507902 1.5887541e-38
0.99124342 -0.02884035 0.089007899 1.5887541e-38
0.99374342 -0.031340349 0.086507902 1.5061021e-38
0.99374342 -0.031340349 0.089007899 1.5520199e-38
0.99374342 -0.02884035 0.086507902 1.5887541e-38
0.99374342 -0.02884035 0.089007899 1.5979376e-38
0.99124342 -0.02884035 0.094007902 1.6254883e-38
0.99374342 -0.031340349 0.091507904 1.5520199e-38
0.99374342 -0.031340349 0.094007902 1.5795705e-38
0.99374342 -0.02884035 0.091507904 1.5795705e-38
0.99374342 -0.02884035 0.094007902 1.6071212e-38
0.99124342 -0.026340351 0.086507902 1.5979376e-38
0.99124342 -0.026340351 0.089007899 1.5979376e-38
0.99124342 -0.023840351 0.086507902 1.6438554e-38
0.99124342 -0.023840351 0.089007899 1.6254883e-38
0.99374342 -0.026340351 0.086507902 1.5979376e-38
0.99374342 -0.026340351 0.089007899 1.5979376e-38
0.99374342 -0.023840351 0.086507902 1.6346718e-38
0.99374342 -0.023840351 0.089007899 1.6254883e-38
0.99124342 -0.026340351 0.094007902 1.6254883e-38
0.99124342 -0.023840351 0.094007902 1.6254883e-38
0.99374342 -0.026340351 0.091507904 1.5887541e-38
0.99374342 -0.026340351 0.094007902 1.6163047e-38
0.99374342 -0.023840351 0.091507904 1.6254883e-38
0.99374342 -0.023840351 0.094007902 1.6254883e-38
0.99624342 -0.031340349 0.089007899 1.5428363e-38
0.99624342 -0.02884035 0.089007899 1.5979376e-38
0.99874341 -0.031340349 0.086507902 1.5428363e-38
0.99624342 -0.031340349 0.094007902 1.5795705e-38
0.99624342 -0.02884035 0.094007902 1.6254883e-38
0.99874341 -0.031340349 0.091507904 1.570387e-38
0.99874341 -0.031340349 0.094007902 1.5520199e-38
0.99874341 -0.02884035 0.091507904 1.5979376e-38
0.99624342 -0.026340351 0.089007899 1.5979376e-38
0.99624342 -0.023840351 0.089007899 1.6254883e-38
0.99874341 -0.023840351 0.086507902 1.6071212e-38
0.99624342 -0.026340351 0.094007902 1.6254883e-38
0.99624342 -0.023840351 0.094007902 1.6254883e-38
0.99874341 -0.026340351 0.091507904 1.6071212e-38
0.99874341 -0.023840351 0.091507904 1.6071212e-38
0.99124342 -0.02134035 0.074007899 1.8367099e-38
0.99124342 -0.01884035 0.074007899 1.8091603e-38
0.99374342 -0.02134035 0.071507901 1.8275275e-38
0.99374342 -0.01884035 0.071507901 1.7999757e-38
0.99124342 -0.016340351 0.074007899 1.8183428e-38
0.99374342 -0.016340351 0.071507901 1.8091593e-38
0.99374342 -0.01384035 0.071507901 1.7724251e-38
0.99624342 -0.02134035 0.069007903 1.8275264e-38
0.99624342 -0.01884035 0.069007903 1.8458938e-38
0.99624342 -0.02134035 0.074007899 1.6530389e-38
0.99874341 -0.02134035 0.071507901 1.8091593e-38
0.99874341 -0.01884035 0.071507901 1.7816086e-38
0.99624342 -0.016340351 0.069007903 1.8183428e-38
0.99624342 -0.01384035 0.074007899 1.6438554e-38
0.99874341 -0.01384035 0.071507901 1.7999757e-38
0.99374342 -0.01134035 0.071507901 1.7724251e-38
0.99124342 -0.00634035 0.074007899 1.7907922e-38
0.99124342 -0.0038403503 0.074007899 1.7724251e-38
0.99374342 -0.00634035 0.071507901 1.7999757e-38
0.99374342 -0.0038403503 0.071507901 1.7724251e-38
0.99624342 -0.01134035 0.069007903 1.8275264e-38
0.99624342 -0.01134035 0.074007899 1.6622225e-38
0.99624342 -0.0088403504 0.074007899 1.6622225e-38
0.99874341 -0.01134035 0.071507901 1.7907922e-38
0.99874341 -0.0088403504 0.071507901 1.7907922e-38
0.99624342 -0.00634035 0.069007903 1.8275264e-38
0.99624342 -0.0038403503 0.069007903 1.8091593e-38
0.99624342 -0.00634035 0.074007899 1.6622225e-38
0.99624342 -0.0038403503 0.074007899 1.6622225e-38
0.99874341 -0.00634035 0.071507901 1.7907922e-38
0.99874341 -0.00634035 0.074007899 1.6438554e-38
0.99874341 -0.0038403503 0.071507901 1.7724277e-38
0.99874341 -0.0038403503 0.074007899 1.6622225e-38
0.98624343 -0.02134035 0.079007901 1.6438554e-38
0.98874342 -0.02134035 0.076507904 1.6438554e-38
0.98874342 -0.02134035 0.079007901 1.6438554e-38
0.98874342 -0.01884035 0.076507904 1.6438554e-38
0.98874342 -0.01884035 0.079007901 1.6438554e-38
0.98874342 -0.02134035 0.081507899 1.6346718e-38
0.98874342 -0.02134035 0.084007904 1.6346718e-38
0.98624343 -0.01384035 0.079007901 1.6346718e-38
0.98874342 -0.016340351 0.076507904 1.6622225e-38
0.98874342 -0.016340351 0.079007901 1.6438554e-38
0.98874342 -0.01384035 0.079007901 1.6438554e-38
0.98874342 -0.01384035 0.084007904 1.6346718e-38
0.98624343 -0.01134035 0.079007901 1.6346718e-38
0.98874342 -0.01134035 0.079007901 1.6438554e-38
0.98874342 -0.0088403504 0.076507904 1.6346718e-38
0.98874342 -0.0088403504 0.079007901 1.6346718e-38
0.98874342 -0.01134035 0.084007904 1.6438554e-38
0.98874342 -0.0088403504 0.084007904 1.6071212e-38
0.98874342 -0.00634035 0.076507904 1.6530389e-38
0.98874342 -0.00634035 0.079007901 1.6530389e-38
0.98874342 -0.0038403503 0.076507904 1.6989567e-38
0.98874342 -0.0038403503 0.079007901 1.6622225e-38
0.99124342 -0.02134035 0.076507904 1.6438554e-38
0.99124342 -0.01884035 0.076507904 1.6438554e-38
0.99374342 -0.02134035 0.076507904 1.6438554e-38
0.99374342 -0.02134035 0.079007901 1.6438554e-38
0.99374342 -0.01884035 0.076507904 1.6438554e-38
0.99374342 -0.01884035 0.079007901 1.6438554e-38
0.99124342 -0.02134035 0.081507899 1.6438554e-38
0.99124342 -0.01884035 0.081507899 1.6438554e-38
0.99374342 -0.02134035 0.084007904 1.671406e-38
0.99374342 -0.01884035 0.084007904 1.671406e-38
0.99124342 -0.016340351 0.076507904 1.6438554e-38
0.99124342 -0.01384035 0.076507904 1.6897731e-38
0.99374342 -0.016340351 0.076507904 1.6438554e-38
0.99374342 -0.01384035 0.076507904 1.6438554e-38
0.99374342 -0.01384035 0.079007901 1.6438554e-38
0.99124342 -0.016340351 0.081507899 1.6438554e-38
0.99124342 -0.01384035 0.081507899 1.6438554e-38
0.99374342 -0.016340351 0.084007904 1.6438554e-38
0.99374342 -0.01384035 0.084007904 1.6346718e-38
0.99874341 -0.02134035 0.079007901 1.6438554e-38
0.99624342 -0.02134035 0.081507899 1.6622225e-38
0.99624342 -0.01884035 0.081507899 1.6622225e-38
0.99624342 -0.01384035 0.076507904 1.6438554e-38
0.99874341 -0.016340351 0.079007901 1.6438554e-38
0.99874341 -0.01384035 0.079007901 1.6254883e-38
0.99624342 -0.016340351 0.081507899 1.6622225e-38
0.99874341 -0.01384035 0.081507899 1.6254883e-38
0.99124342 -0.02134035 0.086507902 1.6530389e-38
0.99124342 -0.02134035 0.089007899 1.6438554e-38
0.99124342 -0.01884035 0.086507902 1.6254883e-38
0.99124342 -0.01884035 0.089007899 1.6254883e-38
0.99374342 -0.02134035 0.086507902 1.6346718e-38
0.99374342 -0.02134035 0.089007899 1.6254883e-38
0.99374342 -0.01884035 0.086507902 1.6530389e-38
0.99374342 -0.01884035 0.089007899 1.6254883e-38
0.99124342 -0.02134035 0.094007902 1.6254883e-38
0.99374342 -0.02134035 0.091507904 1.6254883e-38
0.99374342 -0.02134035 0.094007902 1.6346718e-38
0.99374342 -0.01884035 0.091507904 1.6254883e-38
0.99374342 -0.01884035 0.094007902 1.6254883e-38
0.99124342 -0.016340351 0.086507902 1.6346718e-38
0.99124342 -0.016340351 0.089007899 1.6438554e-38
0.99124342 -0.01384035 0.086507902 1.6346718e-38
0.99124342 -0.01384035 0.089007899 1.6254883e-38
0.99374342 -0.016340351 0.086507902 1.6438554e-38
0.99374342 -0.016340351 0.089007899 1.6254883e-38
0.99374342 -0.01384035 0.086507902 1.6346718e-38
0.99374342 -0.01384035 0.089007899 1.6254883e-38
0.99374342 -0.016340351 0.091507904 1.6254883e-38
0.99374342 -0.016340351 0.094007902 1.6254883e-38
0.99374342 -0.01384035 0.091507904 1.6254883e-38
0.99374342 -0.01384035 0.094007902 1.6071212e-38
0.99624342 -0.02134035 0.089007899 1.6254883e-38
0.99624342 -0.01884035 0.089007899 1.6254883e-38
0.99874341 -0.02134035 0.086507902 1.6254883e-38
0.99624342 -0.02134035 0.094007902 1.6254883e-38
0.99624342 -0.01884035 0.094007902 1.6254883e-38
0.99874341 -0.01884035 0.091507904 1.6254883e-38
0.99624342 -0.016340351 0.089007899 1.6254883e-38
0.99624342 -0.01384035 0.089007899 1.6254883e-38
0.99874341 -0.016340351 0.086507902 1.6254883e-38
0.99874341 -0.01384035 0.086507902 1.6254883e-38
0.99624342 -0.016340351 0.094007902 1.5979376e-38
0.99624342 -0.01384035 0.094007902 1.5979376e-38
0.99874341 -0.016340351 0.091507904 1.6254883e-38
0.99874341 -0.016340351 0.094007902 1.6254883e-38
0.99874341 -0.01384035 0.091507904 1.6254883e-38
0.99124342 -0.01134035 0.076507904 1.6438554e-38
0.99124342 -0.0088403504 0.076507904 1.6346718e-38
0.99374342 -0.01134035 0.076507904 1.6438554e-38
0.99374342 -0.01134035 0.079007901 1.6346718e-38
0.99374342 -0.0088403504 0.076507904 1.6346718e-38
0.99374342 -0.0088403504 0.079007901 1.6438554e-38
0.99124342 -0.01134035 0.081507899 1.6438554e-38
0.99124342 -0.0088403504 0.081507899 1.6438554e-38
0.99374342 -0.01134035 0.084007904 1.6438554e-38
0.99374342 -0.0088403504 0.084007904 1.6254883e-38
0.99124342 -0.00634035 0.076507904 1.6989567e-38
0.99124342 -0.0038403503 0.076507904 1.6622225e-38
0.99374342 -0.00634035 0.076507904 1.671406e-38
0.99374342 -0.00634035 0.079007901 1.6622225e-38
0.99374342 -0.0038403503 0.076507904 1.6622225e-38
0.99374342 -0.0038403503 0.079007901 1.6622225e-38
0.99124342 -0.00634035 0.081507899 1.6622225e-38
0.99374342 -0.00634035 0.084007904 1.6346718e-38
0.99374342 -0.0038403503 0.084007904 1.6438554e-38
0.99624342 -0.01134035 0.076507904 1.6438554e-38
0.99624342 -0.0088403504 0.076507904 1.6438554e-38
0.99874341 -0.01134035 0.079007901 1.6438554e-38
0.99874341 -0.0088403504 0.079007901 1.6346718e-38
0.99624342 -0.01134035 0.081507899 1.6071212e-38
0.99624342 -0.01134035 0.084007904 1.6071212e-38
0.99624342 -0.0088403504 0.081507899 1.6438554e-38
0.99624342 -0.0088403504 0.084007904 1.6254883e-38
0.99874341 -0.01134035 0.081507899 1.6254883e-38
0.99874341 -0.0088403504 0.081507899 1.6254883e-38
0.99624342 -0.00634035 0.076507904 1.6438554e-38
0.99624342 -0.0038403503 0.076507904 1.6622225e-38
0.99874341 -0.00634035 0.079007901 1.6346718e-38
0.99874341 -0.0038403503 0.079007901 1.6346718e-38
0.99624342 -0.00634035 0.081507899 1.6438554e-38
0.99624342 -0.00634035 0.084007904 1.6346718e-38
0.99624342 -0.0038403503 0.081507899 1.6346718e-38
0.99624342 -0.0038403503 0.084007904 1.6438554e-38
0.99874341 -0.00634035 0.081507899 1.6254883e-38
0.99874341 -0.0038403503 0.081507899 1.6071212e-38
0.99124342 -0.01134035 0.086507902 1.6346718e-38
0.99124342 -0.01134035 0.089007899 1.6254883e-38
0.99124342 -0.0088403504 0.086507902 1.6254883e-38
0.99124342 -0.0088403504 0.089007899 1.6254883e-38
0.99374342 -0.01134035 0.086507902 1.6438554e-38
0.99374342 -0.01134035 0.089007899 1.6254883e-38
0.99374342 -0.0088403504 0.086507902 1.6254883e-38
0.99374342 -0.0088403504 0.089007899 1.6254883e-38
0.99124342 -0.01134035 0.094007902 1.6071212e-38
0.99124342 -0.0088403504 0.094007902 1.6071212e-38
0.99374342 -0.01134035 0.091507904 1.6254883e-38
0.99374342 -0.01134035 0.094007902 1.6254883e-38
0.99374342 -0.0088403504 0.091507904 1.6254883e-38
0.99374342 -0.0088403504 0.094007902 1.6254883e-38
0.99374342 -0.00634035 0.086507902 1.6254883e-38
0.99374342 -0.0038403503 0.086507902 1.6254883e-38
0.99374342 -0.00634035 0.091507904 1.6254883e-38
0.99374342 -0.00634035 0.094007902 1.6346718e-38
0.99374342 -0.0038403503 0.091507904 1.6254883e-38
0.99374342 -0.0038403503 0.094007902 1.6346718e-38
0.99624342 -0.01134035 0.089007899 1.6254883e-38
0.99624342 -0.0088403504 0.089007899 1.6254883e-38
0.99874341 -0.01134035 0.086507902 1.6254883e-38
0.99874341 -0.0088403504 0.086507902 1.6254883e-38
0.99624342 -0.01134035 0.094007902 1.6254883e-38
0.99624342 -0.0088403504 0.094007902 1.6254883e-38
0.99874341 -0.0088403504 0.091507904 1.6254883e-38
0.99624342 -0.00634035 0.089007899 1.6254883e-38
0.99624342 -0.0038403503 0.089007899 1.6254883e-38
0.99874341 -0.00634035 0.086507902 1.6254883e-38
0.99874341 -0.0038403503 0.086507902 1.6254883e-38
0.99624342 -0.00634035 0.094007902 1.6346718e-38
0.99624342 -0.0038403503 0.094007902 1.6346718e-38
0.99874341 -0.00634035 0.091507904 1.6071212e-38
0.99874341 -0.00634035 0.094007902 1.6346718e-38
0.99874341 -0.0038403503 0.091507904 1.6254883e-38
0.99874341 -0.0038403503 0.094007902 1.6254883e-38
1.0012435 -0.036340348 0.071507901 1.570387e-38
1.0012435 -0.033840351 0.071507901 1.5520199e-38
1.0037434 -0.033840351 0.071507901 1.5336528e-38
1.0012435 -0.031340349 0.069007903 1.6989926e-38
1.0012435 -0.031340349 0.071507901 1.570387e-38
1.0037434 -0.031340349 0.071507901 1.5244692e-38
1.0012435 -0.03884035 0.076507904 1.5244694e-38
1.0037434 -0.041340351 0.079007901 1.6254883e-38
1.0037434 -0.041340351 0.081507899 1.6071212e-38
1.0012435 -0.036340348 0.076507904 1.5152857e-38
1.0012435 -0.033840351 0.076507904 1.5244692e-38
1.0062435 -0.041340351 0.076507904 1.6254883e-38
1.0012435 -0.041340351 0.089007899 1.5795705e-38
1.0012435 -0.03884035 0.089007899 1.4693679e-38
1.0037434 -0.041340351 0.089007899 1.5795705e-38
1.0012435 -0.041340351 0.091507904 1.4785515e-38
1.0037434 -0.041340351 0.094007902 1.4693679e-38
1.0012435 -0.036340348 0.089007899 1.4785515e-38
1.0012435 -0.033840351 0.089007899 1.487735e-38
1.0062435 -0.041340351 0.091507904 1.5979376e-38
1.0062435 -0.041340351 0.094007902 1.4693679e-38
1.0012435 -0.031340349 0.076507904 1.5520199e-38
1.0012435 -0.023840351 0.081507899 1.5979376e-38
1.0012435 -0.023840351 0.084007904 1.6071212e-38
1.0012435 -0.031340349 0.089007899 1.5428363e-38
1.0137434 -0.041340351 0.089007899 1.4693679e-38
1.0112435 -0.041340351 0.091507904 1.4785515e-38
1.0112435 -0.041340351 0.094007902 1.4785515e-38
1.0012435 -0.01134035 0.069007903 1.7907922e-38
1.0012435 -0.0088403504 0.069007903 1.7999757e-38
1.0012435 -0.00634035 0.069007903 1.8091605e-38
1.0012435 -0.00634035 0.071507901 1.6622225e-38
1.0012435 -0.0038403503 0.071507901 1.6989567e-38
1.0012435 -0.01384035 0.076507904 1.6438554e-38
1.0012435 -0.01134035 0.076507904 1.6438554e-38
1.0012435 -0.0038403503 0.076507904 1.6622225e-38
1.0012435 -0.00634035 0.089007899 1.5979376e-38
1.0012435 -0.0038403503 0.089007899 1.5979376e-38
0.98374343 -0.03884035 0.1015079 1.487735e-38
0.98124343 -0.036340348 0.1040079 1.5152857e-38
0.98124343 -0.033840351 0.1040079 1.5152857e-38
0.98624343 -0.03884035 0.1040079 1.487735e-38
0.98874342 -0.03884035 0.1015079 1.4693679e-38
0.98874342 -0.03884035 0.1040079 1.487735e-38
0.98624343 -0.036340348 0.099007905 1.5061021e-38
0.98624343 -0.033840351 0.099007905 1.5152857e-38
0.98874342 -0.036340348 0.096507899 1.5061021e-38
0.98874342 -0.033840351 0.096507899 1.570387e-38
0.98874342 -0.036340348 0.1015079 1.5061021e-38
0.98874342 -0.036340348 0.1040079 1.5061021e-38
0.98874342 -0.033840351 0.1015079 1.5887541e-38
0.98874342 -0.033840351 0.1040079 1.5152857e-38
0.98374343 -0.041340351 0.1115079 1.4510008e-38
0.98374343 -0.041340351 0.11400791 1.5520199e-38
0.98374343 -0.03884035 0.1115079 1.487735e-38
0.98374343 -0.03884035 0.11400791 1.487735e-38
0.98374343 -0.036340348 0.11400791 1.5152857e-38
0.98624343 -0.041340351 0.1065079 1.4785515e-38
0.98624343 -0.03884035 0.1065079 1.4969186e-38
0.98874342 -0.041340351 0.1090079 1.4693679e-38
0.98874342 -0.03884035 0.1090079 1.487735e-38
0.98624343 -0.041340351 0.1115079 1.4785515e-38
0.98624343 -0.041340351 0.11400791 1.5520199e-38
0.98624343 -0.03884035 0.1115079 1.4969186e-38
0.98624343 -0.03884035 0.11400791 1.4969186e-38
0.98874342 -0.041340351 0.1115079 1.5520199e-38
0.98874342 -0.041340351 0.11400791 1.4785515e-38
0.98874342 -0.03884035 0.1115079 1.4969186e-38
0.98874342 -0.03884035 0.11400791 1.4969186e-38
0.98874342 -0.036340348 0.1090079 1.5244692e-38
0.98624343 -0.036340348 0.11400791 1.5428363e-38
0.98624343 -0.033840351 0.11400791 1.5428363e-38
0.98874342 -0.036340348 0.1115079 1.5152857e-38
0.98874342 -0.036340348 0.11400791 1.5428363e-38
0.98874342 -0.033840351 0.1115079 1.5428363e-38
0.98874342 -0.033840351 0.11400791 1.5428363e-38
0.98874342 -0.02884035 0.1015079 1.6254883e-38
0.98874342 -0.02884035 0.1040079 1.6254883e-38
0.98874342 -0.026340351 0.096507899 1.6071212e-38
0.98874342 -0.023840351 0.096507899 1.6071212e-38
0.98874342 -0.026340351 0.1015079 1.6254883e-38
0.98874342 -0.026340351 0.1040079 1.6254883e-38
0.98874342 -0.023840351 0.1040079 1.6254883e-38
0.98624343 -0.02884035 0.1065079 1.6254883e-38
0.98874342 -0.02884035 0.1090079 1.5979376e-38
0.98624343 -0.031340349 0.11400791 1.5795705e-38
0.98624343 -0.02884035 0.11400791 1.5795705e-38
0.98874342 -0.031340349 0.1115079 1.5795705e-38
0.98874342 -0.031340349 0.11400791 1.570387e-38
0.98874342 -0.02884035 0.1115079 1.5795705e-38
0.98874342 -0.02884035 0.11400791 1.5795705e-38
0.98624343 -0.026340351 0.1065079 1.6254883e-38
0.98624343 -0.023840351 0.1065079 1.6254883e-38
0.98874342 -0.026340351 0.1090079 1.5979376e-38
0.98874342 -0.023840351 0.1090079 1.6071212e-38
0.98624343 -0.026340351 0.11400791 1.5795705e-38
0.98624343 -0.023840351 0.11400791 1.5795705e-38
0.98874342 -0.026340351 0.1115079 1.5795705e-38
0.98874342 -0.026340351 0.11400791 1.5795705e-38
0.98874342 -0.023840351 0.1115079 1.5979376e-38
0.98874342 -0.023840351 0.11400791 1.5795705e-38
0.99124342 -0.03884035 0.099007905 1.487735e-38
0.99374342 -0.03884035 0.096507899 1.5152857e-38
0.99124342 -0.03884035 0.1015079 1.4785515e-38
0.99374342 -0.041340351 0.1040079 1.4785515e-38
0.99374342 -0.03884035 0.1040079 1.4969186e-38
0.99124342 -0.036340348 0.099007905 1.487735e-38
