# .PCD v0.7 - Point Cloud Data file format
VERSION 0.7
FIELDS x y z rgb
SIZE 4 4 4 4
TYPE F F F F
COUNT 1 1 1 1
WIDTH 988
HEIGHT 1
VIEWPOINT 0 0 0 1 0 0 0
POINTS 988
DATA ascii
0.87348491 0.0054106209 0.067161404 1.7081402e-38
0.87598491 0.0029106208 0.067161404 1.7081402e-38
0.87598491 0.0054106209 0.067161404 1.7081402e-38
0.87348491 0.0079106204 0.067161404 1.6897731e-38
0.87348491 0.010410621 0.067161404 1.6897731e-38
0.87598491 0.0079106204 0.067161404 1.7081402e-38
0.87598491 0.010410621 0.067161404 1.7081402e-38
0.87098491 0.0054106209 0.072161406 1.754058e-38
0.86848491 0.0054106209 0.074661404 1.754058e-38
0.87098491 0.0029106208 0.077161402 1.754058e-38
0.87098491 0.0054106209 0.074661404 1.754058e-38
0.87098491 0.0054106209 0.077161402 1.754058e-38
0.87098491 0.0079106204 0.072161406 1.754058e-38
0.87098491 0.010410621 0.072161406 1.754058e-38
0.86848491 0.0079106204 0.074661404 1.7356909e-38
0.86848491 0.0079106204 0.077161402 1.7448744e-38
0.86848491 0.010410621 0.074661404 1.7356909e-38
0.86848491 0.010410621 0.077161402 1.7448744e-38
0.87098491 0.0079106204 0.074661404 1.7356909e-38
0.87098491 0.0079106204 0.077161402 1.7265073e-38
0.87098491 0.010410621 0.074661404 1.7356909e-38
0.87098491 0.010410621 0.077161402 1.7265073e-38
0.87348491 0.0029106208 0.072161406 1.7173238e-38
0.87348491 0.0054106209 0.069661409 1.7448744e-38
0.87348491 0.0054106209 0.072161406 1.754058e-38
0.87598491 0.0029106208 0.069661409 1.754058e-38
0.87598491 0.0054106209 0.069661409 1.7356909e-38
0.87348491 0.0029106208 0.074661404 1.754058e-38
0.87348491 0.0029106208 0.077161402 1.754058e-38
0.87348491 0.0054106209 0.074661404 1.7816086e-38
0.87348491 0.0054106209 0.077161402 1.754058e-38
0.87598491 0.0029106208 0.074661404 1.7448744e-38
0.87598491 0.0029106208 0.077161402 1.754058e-38
0.87598491 0.0054106209 0.074661404 1.754058e-38
0.87598491 0.0054106209 0.077161402 1.7632415e-38
0.87348491 0.0079106204 0.069661409 1.7356909e-38
0.87348491 0.0079106204 0.072161406 1.7448744e-38
0.87348491 0.010410621 0.069661409 1.7356909e-38
0.87348491 0.010410621 0.072161406 1.7356909e-38
0.87598491 0.0079106204 0.069661409 1.754058e-38
0.87598491 0.010410621 0.069661409 1.754058e-38
0.87348491 0.0079106204 0.074661404 1.754058e-38
0.87348491 0.0079106204 0.077161402 1.7448744e-38
0.87348491 0.010410621 0.074661404 1.754058e-38
0.87348491 0.010410621 0.077161402 1.754058e-38
0.87598491 0.0079106204 0.074661404 1.754058e-38
0.87598491 0.0079106204 0.077161402 1.754058e-38
0.87598491 0.010410621 0.074661404 1.7356909e-38
0.87598491 0.010410621 0.077161402 1.754058e-38
0.87348491 0.01291062 0.067161404 1.7081402e-38
0.87348491 0.015410621 0.067161404 1.7081402e-38
0.87598491 0.01291062 0.067161404 1.7081402e-38
0.87598491 0.015410621 0.067161404 1.6989567e-38
0.87348491 0.01791062 0.067161404 1.6989567e-38
0.87598491 0.01791062 0.067161404 1.6989567e-38
0.87598491 0.020410622 0.067161404 1.7081402e-38
0.87098491 0.01291062 0.072161406 1.7081402e-38
0.87098491 0.015410621 0.072161406 1.7081402e-38
0.87098491 0.01291062 0.074661404 1.754058e-38
0.87098491 0.015410621 0.074661404 1.7356909e-38
0.87348491 0.01291062 0.069661409 1.7265073e-38
0.87348491 0.01291062 0.072161406 1.7265073e-38
0.87348491 0.015410621 0.069661409 1.7081402e-38
0.87348491 0.015410621 0.072161406 1.7265073e-38
0.87598491 0.01291062 0.069661409 1.7265073e-38
0.87598491 0.015410621 0.069661409 1.7081402e-38
0.87348491 0.01291062 0.074661404 1.754058e-38
0.87348491 0.015410621 0.074661404 1.7356909e-38
0.87598491 0.01291062 0.074661404 1.7265073e-38
0.87598491 0.01291062 0.077161402 1.7265073e-38
0.87598491 0.015410621 0.074661404 1.7081402e-38
0.87598491 0.015410621 0.077161402 1.754058e-38
0.87348491 0.01791062 0.069661409 1.6989567e-38
0.87348491 0.01791062 0.072161406 1.7081402e-38
0.87348491 0.020410622 0.072161406 1.7081402e-38
0.87598491 0.01791062 0.069661409 1.7081402e-38
0.87598491 0.020410622 0.069661409 1.7356909e-38
0.87348491 0.01791062 0.074661404 1.7356909e-38
0.87348491 0.01791062 0.077161402 1.7448744e-38
0.87598491 0.01791062 0.074661404 1.7448744e-38
0.87598491 0.01791062 0.077161402 1.7632415e-38
0.87598491 0.020410622 0.074661404 1.7265073e-38
0.87598491 0.020410622 0.077161402 1.7632415e-38
0.8784849 0.0029106208 0.067161404 1.7265073e-38
0.8784849 0.0054106209 0.067161404 1.7081402e-38
0.8784849 0.0079106204 0.067161404 1.7173238e-38
0.8784849 0.010410621 0.067161404 1.7265073e-38
0.8784849 0.0054106209 0.077161402 1.7448744e-38
0.8784849 0.010410621 0.069661409 1.7356909e-38
0.8784849 0.010410621 0.072161406 1.754058e-38
0.8784849 0.0079106204 0.074661404 1.7632415e-38
0.8784849 0.0079106204 0.077161402 1.7356909e-38
0.8784849 0.010410621 0.074661404 1.754058e-38
0.8784849 0.010410621 0.077161402 1.7356909e-38
0.88098496 0.0079106204 0.077161402 1.754058e-38
0.88098496 0.010410621 0.077161402 1.754058e-38
0.8784849 0.01291062 0.067161404 1.7265073e-38
0.8784849 0.015410621 0.067161404 1.7081402e-38
0.8784849 0.01791062 0.067161404 1.7081402e-38
0.8784849 0.020410622 0.067161404 1.7081402e-38
0.8784849 0.01291062 0.069661409 1.7081402e-38
0.8784849 0.01291062 0.072161406 1.7356909e-38
0.8784849 0.015410621 0.072161406 1.7356909e-38
0.88098496 0.01291062 0.072161406 1.7356909e-38
0.8784849 0.01291062 0.074661404 1.754058e-38
0.8784849 0.01291062 0.077161402 1.7448744e-38
0.8784849 0.015410621 0.074661404 1.7356909e-38
0.8784849 0.015410621 0.077161402 1.7448744e-38
0.88098496 0.01291062 0.077161402 1.7356909e-38
0.88098496 0.015410621 0.077161402 1.754058e-38
0.8784849 0.01791062 0.072161406 1.7356909e-38
0.8784849 0.020410622 0.069661409 1.7356909e-38
0.8784849 0.020410622 0.072161406 1.7356909e-38
0.8784849 0.01791062 0.074661404 1.7356909e-38
0.8784849 0.01791062 0.077161402 1.754058e-38
0.8784849 0.020410622 0.074661404 1.7356909e-38
0.8784849 0.020410622 0.077161402 1.7448744e-38
0.88098496 0.01791062 0.077161402 1.754058e-38
0.87098491 0.0029106208 0.079661407 1.754058e-38
0.87098491 0.0054106209 0.079661407 1.754058e-38
0.87098491 0.0079106204 0.079661407 1.754058e-38
0.87348491 0.0029106208 0.082161404 1.754058e-38
0.87348491 0.0054106209 0.082161404 1.754058e-38
0.87598491 0.0029106208 0.079661407 1.754058e-38
0.87598491 0.0029106208 0.082161404 1.754058e-38
0.87598491 0.0054106209 0.079661407 1.7356909e-38
0.87598491 0.0054106209 0.082161404 1.7356909e-38
0.87348491 0.0029106208 0.084661402 1.754058e-38
0.87348491 0.0054106209 0.084661402 1.754058e-38
0.87598491 0.0029106208 0.084661402 1.754058e-38
0.87598491 0.0029106208 0.087161407 1.7448744e-38
0.87598491 0.0054106209 0.084661402 1.7356909e-38
0.87598491 0.0054106209 0.087161407 1.7356909e-38
0.87348491 0.0079106204 0.082161404 1.754058e-38
0.87598491 0.0079106204 0.079661407 1.7632415e-38
0.87598491 0.0079106204 0.082161404 1.7356909e-38
0.87598491 0.010410621 0.079661407 1.754058e-38
0.87598491 0.010410621 0.082161404 1.7448744e-38
0.87348491 0.0079106204 0.084661402 1.754058e-38
0.87598491 0.0079106204 0.084661402 1.754058e-38
0.87598491 0.0079106204 0.087161407 1.754058e-38
0.87598491 0.0029106208 0.089661404 1.7448744e-38
0.87598491 0.0029106208 0.092161402 1.754058e-38
0.87598491 0.0054106209 0.089661404 1.7632415e-38
0.87598491 0.0054106209 0.092161402 1.7265073e-38
0.87598491 0.0029106208 0.097161405 1.7356909e-38
0.87598491 0.0054106209 0.097161405 1.7356909e-38
0.87598491 0.0079106204 0.089661404 1.7356909e-38
0.87598491 0.015410621 0.082161404 1.7356909e-38
0.87348491 0.020410622 0.082161404 1.754058e-38
0.87598491 0.01791062 0.082161404 1.7356909e-38
0.87598491 0.020410622 0.082161404 1.7356909e-38
0.87348491 0.01791062 0.084661402 1.754058e-38
0.87348491 0.020410622 0.084661402 1.7356909e-38
0.87348491 0.020410622 0.087161407 1.7356909e-38
0.87598491 0.01791062 0.084661402 1.754058e-38
0.87598491 0.01791062 0.087161407 1.7265073e-38
0.87598491 0.020410622 0.084661402 1.754058e-38
0.87598491 0.020410622 0.087161407 1.754058e-38
0.87098491 0.01791062 0.094661407 1.7356909e-38
0.87098491 0.01791062 0.097161405 1.7265073e-38
0.87098491 0.020410622 0.094661407 1.7356909e-38
0.87098491 0.020410622 0.097161405 1.7081402e-38
0.87598491 0.01291062 0.089661404 1.754058e-38
0.87598491 0.015410621 0.089661404 1.7356909e-38
0.87598491 0.015410621 0.092161402 1.7356909e-38
0.87348491 0.015410621 0.094661407 1.7265073e-38
0.87348491 0.015410621 0.097161405 1.7265073e-38
0.87598491 0.015410621 0.094661407 1.7265073e-38
0.87348491 0.01791062 0.092161402 1.7081402e-38
0.87348491 0.020410622 0.089661404 1.7265073e-38
0.87348491 0.020410622 0.092161402 1.7356909e-38
0.87598491 0.01791062 0.089661404 1.754058e-38
0.87598491 0.01791062 0.092161402 1.7265073e-38
0.87598491 0.020410622 0.089661404 1.754058e-38
0.87348491 0.01791062 0.094661407 1.7448744e-38
0.87348491 0.01791062 0.097161405 1.754058e-38
0.87348491 0.020410622 0.094661407 1.7356909e-38
0.87348491 0.020410622 0.097161405 1.7448744e-38
0.87598491 0.01791062 0.094661407 1.754058e-38
0.8784849 0.0054106209 0.079661407 1.7356909e-38
0.8784849 0.0054106209 0.082161404 1.7356909e-38
0.88098496 0.0054106209 0.082161404 1.7356909e-38
0.8784849 0.0029106208 0.084661402 1.7356909e-38
0.8784849 0.0054106209 0.084661402 1.7356909e-38
0.88098496 0.0029106208 0.087161407 1.754058e-38
0.88098496 0.0054106209 0.084661402 1.7356909e-38
0.88098496 0.0054106209 0.087161407 1.7081402e-38
0.8784849 0.0079106204 0.079661407 1.754058e-38
0.8784849 0.0079106204 0.082161404 1.754058e-38
0.8784849 0.010410621 0.079661407 1.754058e-38
0.8784849 0.010410621 0.082161404 1.754058e-38
0.88098496 0.0079106204 0.082161404 1.754058e-38
0.88098496 0.010410621 0.082161404 1.7356909e-38
0.8784849 0.0079106204 0.084661402 1.7081402e-38
0.8784849 0.010410621 0.084661402 1.754058e-38
0.88098496 0.0079106204 0.084661402 1.754058e-38
0.88098496 0.0079106204 0.087161407 1.7448744e-38
0.88098496 0.010410621 0.084661402 1.754058e-38
0.88098496 0.010410621 0.087161407 1.7632415e-38
0.88348496 0.0029106208 0.084661402 1.7265073e-38
0.88348496 0.0029106208 0.087161407 1.754058e-38
0.88348496 0.0054106209 0.084661402 1.754058e-38
0.88348496 0.0054106209 0.087161407 1.7265073e-38
0.88598496 0.0054106209 0.084661402 1.754058e-38
0.88598496 0.0054106209 0.087161407 1.754058e-38
0.88348496 0.0079106204 0.079661407 1.754058e-38
0.88348496 0.0079106204 0.082161404 1.754058e-38
0.88348496 0.010410621 0.079661407 1.754058e-38
0.88348496 0.010410621 0.082161404 1.754058e-38
0.88348496 0.0079106204 0.084661402 1.754058e-38
0.88348496 0.0079106204 0.087161407 1.754058e-38
0.88348496 0.010410621 0.084661402 1.754058e-38
0.88348496 0.010410621 0.087161407 1.754058e-38
0.88598496 0.0079106204 0.084661402 1.754058e-38
0.88598496 0.0079106204 0.087161407 1.7356909e-38
0.88598496 0.010410621 0.084661402 1.7448744e-38
0.88598496 0.010410621 0.087161407 1.7356909e-38
0.8784849 0.0029106208 0.089661404 1.754058e-38
0.8784849 0.0029106208 0.092161402 1.754058e-38
0.8784849 0.0054106209 0.089661404 1.754058e-38
0.8784849 0.0054106209 0.092161402 1.754058e-38
0.88098496 0.0029106208 0.092161402 1.7356909e-38
0.88098496 0.0054106209 0.092161402 1.754058e-38
0.8784849 0.0029106208 0.094661407 1.754058e-38
0.8784849 0.0054106209 0.094661407 1.754058e-38
0.88098496 0.0029106208 0.094661407 1.754058e-38
0.88098496 0.0029106208 0.097161405 1.7356909e-38
0.88098496 0.0054106209 0.094661407 1.7356909e-38
0.88098496 0.0054106209 0.097161405 1.7265073e-38
0.8784849 0.0079106204 0.089661404 1.754058e-38
0.8784849 0.0079106204 0.092161402 1.754058e-38
0.8784849 0.010410621 0.092161402 1.754058e-38
0.88098496 0.0079106204 0.089661404 1.754058e-38
0.88098496 0.0079106204 0.092161402 1.7265073e-38
0.88098496 0.010410621 0.089661404 1.754058e-38
0.88098496 0.010410621 0.092161402 1.7356909e-38
0.8784849 0.0079106204 0.094661407 1.7081402e-38
0.88098496 0.0079106204 0.094661407 1.7081402e-38
0.88098496 0.010410621 0.094661407 1.7265073e-38
0.88348496 0.0054106209 0.089661404 1.7265073e-38
0.88348496 0.0054106209 0.092161402 1.7356909e-38
0.88348496 0.0079106204 0.089661404 1.7081402e-38
0.88348496 0.0079106204 0.092161402 1.754058e-38
0.88348496 0.010410621 0.089661404 1.7265073e-38
0.88348496 0.010410621 0.092161402 1.7265073e-38
0.8784849 0.01291062 0.079661407 1.754058e-38
0.8784849 0.01291062 0.082161404 1.7356909e-38
0.8784849 0.015410621 0.079661407 1.754058e-38
0.8784849 0.015410621 0.082161404 1.7356909e-38
0.88098496 0.01291062 0.082161404 1.754058e-38
0.88098496 0.015410621 0.082161404 1.754058e-38
0.8784849 0.01291062 0.084661402 1.754058e-38
0.8784849 0.015410621 0.084661402 1.7356909e-38
0.88098496 0.01291062 0.084661402 1.754058e-38
0.88098496 0.01291062 0.087161407 1.754058e-38
0.88098496 0.015410621 0.084661402 1.7356909e-38
0.88098496 0.015410621 0.087161407 1.7356909e-38
0.8784849 0.01791062 0.079661407 1.754058e-38
0.8784849 0.01791062 0.082161404 1.7356909e-38
0.8784849 0.020410622 0.079661407 1.7265073e-38
0.88098496 0.01791062 0.082161404 1.754058e-38
0.8784849 0.01791062 0.084661402 1.754058e-38
0.88098496 0.01791062 0.084661402 1.754058e-38
0.88098496 0.01791062 0.087161407 1.7356909e-38
0.88348496 0.01291062 0.079661407 1.7265073e-38
0.88348496 0.01291062 0.082161404 1.7448744e-38
0.88348496 0.01291062 0.084661402 1.7632415e-38
0.88348496 0.01291062 0.087161407 1.7356909e-38
0.8784849 0.01291062 0.089661404 1.754058e-38
0.8784849 0.01291062 0.092161402 1.7356909e-38
0.8784849 0.015410621 0.089661404 1.7356909e-38
0.8784849 0.015410621 0.092161402 1.754058e-38
0.88098496 0.01291062 0.089661404 1.7356909e-38
0.88098496 0.01291062 0.092161402 1.754058e-38
0.88098496 0.015410621 0.089661404 1.7081402e-38
0.88098496 0.015410621 0.092161402 1.754058e-38
0.8784849 0.015410621 0.094661407 1.7356909e-38
0.88098496 0.015410621 0.094661407 1.7356909e-38
0.8784849 0.01791062 0.094661407 1.754058e-38
0.88348496 0.01291062 0.089661404 1.7265073e-38
0.88348496 0.01291062 0.092161402 1.7356909e-38
0.88348496 0.015410621 0.092161402 1.7265073e-38
0.88598496 0.01291062 0.089661404 1.7356909e-38
0.86348492 -0.01458938 0.1071614 1.7448744e-38
0.86598492 -0.01458938 0.1071614 1.754058e-38
0.86348492 -0.012089379 0.1071614 1.7448744e-38
0.86598492 -0.012089379 0.1071614 1.7632415e-38
0.86598492 -0.0095893797 0.1071614 1.7632415e-38
0.86348492 -0.01458938 0.10966141 1.7081416e-38
0.86348492 -0.012089379 0.10966141 1.7356928e-38
0.86598492 -0.012089379 0.11216141 1.7173238e-38
0.86598492 -0.0095893797 0.11216141 1.7081402e-38
0.86598492 -0.0070893792 0.1071614 1.7356909e-38
0.86598492 -0.0045893793 0.1071614 1.7265073e-38
0.86598492 -0.0020893794 0.1071614 1.754058e-38
0.86598492 -0.0070893792 0.11216141 1.7265073e-38
0.86598492 -0.01708938 0.11966141 1.7081402e-38
0.86348492 0.00041062071 0.12466141 1.5979376e-38
0.86598492 -0.0020893794 0.1271614 1.6438554e-38
0.86598492 0.00041062071 0.1271614 1.6346718e-38
0.86348492 -0.0045893793 0.13216141 1.8275264e-38
0.86598492 -0.0045893793 0.12966141 1.7356909e-38
0.86598492 -0.0045893793 0.13216141 1.8183428e-38
0.86348492 -0.0070893792 0.13466141 1.7999757e-38
0.86348492 -0.0045893793 0.13466141 1.7907922e-38
0.86598492 -0.0045893793 0.13466141 1.6897731e-38
0.86348492 -0.0020893794 0.13216141 1.8183428e-38
0.86598492 -0.0020893794 0.12966141 1.7265073e-38
0.86598492 -0.0020893794 0.13216141 1.7907922e-38
0.86598492 0.00041062071 0.12966141 1.7265073e-38
0.86348492 -0.0020893794 0.13466141 1.7816086e-38
0.86598492 -0.0020893794 0.13466141 1.6989567e-38
0.86098492 0.0079106204 0.1071614 1.7265073e-38
0.86098492 0.010410621 0.10466141 1.754058e-38
0.86098492 0.010410621 0.1071614 1.7356909e-38
0.86348492 0.0054106209 0.10466141 1.7356909e-38
0.86348492 0.0079106204 0.10216141 1.7356909e-38
0.86348492 0.010410621 0.10216141 1.7356909e-38
0.86598492 0.0079106204 0.10216141 1.754058e-38
0.86598492 0.010410621 0.10216141 1.7356909e-38
0.86348492 0.0079106204 0.10466141 1.7356909e-38
0.86348492 0.0079106204 0.1071614 1.7356909e-38
0.86348492 0.010410621 0.10466141 1.7356909e-38
0.86348492 0.010410621 0.1071614 1.7356909e-38
0.86598492 0.0079106204 0.1071614 1.754058e-38
0.86598492 0.010410621 0.1071614 1.7081402e-38
0.86098492 0.01291062 0.10466141 1.754058e-38
0.86098492 0.01291062 0.1071614 1.7356909e-38
0.86348492 0.01291062 0.10216141 1.7356909e-38
0.86598492 0.01291062 0.10216141 1.7356909e-38
0.86348492 0.01291062 0.10466141 1.7356909e-38
0.86348492 0.01291062 0.1071614 1.7356909e-38
0.86348492 0.015410621 0.10466141 1.7448744e-38
0.86598492 0.01291062 0.1071614 1.7081402e-38
0.86098492 0.0054106209 0.1271614 1.6163047e-38
0.86098492 0.0079106204 0.1271614 1.6071212e-38
0.86098492 0.010410621 0.1271614 1.570387e-38
0.86598492 0.0054106209 0.1221614 1.6530389e-38
0.86348492 0.0029106208 0.12466141 1.6163047e-38
0.86348492 0.0054106209 0.12466141 1.6438554e-38
0.86348492 0.0054106209 0.1271614 1.6438554e-38
0.86598492 0.0029106208 0.1271614 1.6438554e-38
0.86598492 0.0054106209 0.1271614 1.6346718e-38
0.86598492 0.0079106204 0.1221614 1.6438554e-38
0.86598492 0.010410621 0.1221614 1.6438554e-38
0.86348492 0.0079106204 0.12466141 1.6438554e-38
0.86348492 0.0079106204 0.1271614 1.6438554e-38
0.86348492 0.010410621 0.12466141 1.6438554e-38
0.86348492 0.010410621 0.1271614 1.6346718e-38
0.86598492 0.0079106204 0.1271614 1.6438554e-38
0.86598492 0.010410621 0.1271614 1.6438554e-38
0.86348492 0.0054106209 0.12966141 1.6438554e-38
0.86348492 0.0054106209 0.13216141 1.7265073e-38
0.86598492 0.0029106208 0.12966141 1.7173238e-38
0.86598492 0.0054106209 0.12966141 1.7448744e-38
0.86598492 0.0054106209 0.13216141 1.818343e-38
0.86598492 0.0054106209 0.13466141 1.7816086e-38
0.86348492 0.0079106204 0.12966141 1.6438554e-38
0.86348492 0.0079106204 0.13216141 1.7265073e-38
0.86348492 0.010410621 0.12966141 1.6805896e-38
0.86348492 0.010410621 0.13216141 1.7173238e-38
0.86598492 0.0079106204 0.12966141 1.754058e-38
0.86598492 0.0079106204 0.13216141 1.8091593e-38
0.86598492 0.010410621 0.12966141 1.7173238e-38
0.86598492 0.010410621 0.13216141 1.7907922e-38
0.86598492 0.0079106204 0.13466141 1.7632415e-38
0.86598492 0.010410621 0.13466141 1.7724255e-38
0.86848491 -0.01708938 0.10466141 1.7448744e-38
0.86848491 -0.01708938 0.1071614 1.7632415e-38
0.86848491 -0.01458938 0.10466141 1.7356909e-38
0.86848491 -0.01458938 0.1071614 1.7173238e-38
0.87098491 -0.01708938 0.10466141 1.7265073e-38
0.87098491 -0.01708938 0.1071614 1.7265073e-38
0.87098491 -0.01458938 0.10466141 1.7632415e-38
0.87098491 -0.01458938 0.1071614 1.7173238e-38
0.86848491 -0.012089379 0.099661402 1.7356909e-38
0.86848491 -0.012089379 0.10216141 1.7356909e-38
0.86848491 -0.0095893797 0.099661402 1.7356909e-38
0.86848491 -0.0095893797 0.10216141 1.7356909e-38
0.87098491 -0.012089379 0.099661402 1.7448744e-38
0.87098491 -0.0095893797 0.099661402 1.7632415e-38
0.86848491 -0.012089379 0.10466141 1.7173238e-38
0.86848491 -0.012089379 0.1071614 1.7173238e-38
0.86848491 -0.0095893797 0.10466141 1.7356909e-38
0.86848491 -0.0095893797 0.1071614 1.7356909e-38
0.87098491 -0.012089379 0.10466141 1.7173238e-38
0.87098491 -0.012089379 0.1071614 1.7173238e-38
0.87098491 -0.0095893797 0.10466141 1.7265073e-38
0.87098491 -0.0095893797 0.1071614 1.7356909e-38
0.87348491 -0.01708938 0.10216141 1.7632415e-38
0.87348491 -0.01458938 0.099661402 1.7632415e-38
0.87348491 -0.01458938 0.10216141 1.754058e-38
0.87348491 -0.01708938 0.1071614 1.7265075e-38
0.87348491 -0.012089379 0.099661402 1.7632415e-38
0.86848491 -0.01708938 0.10966141 1.7356909e-38
0.86848491 -0.01708938 0.11216141 1.7356909e-38
0.86848491 -0.01458938 0.10966141 1.7356909e-38
0.86848491 -0.01458938 0.11216141 1.7448744e-38
0.87098491 -0.01708938 0.10966141 1.7448744e-38
0.87098491 -0.01708938 0.11216141 1.7173238e-38
0.87098491 -0.01458938 0.10966141 1.7265073e-38
0.87098491 -0.01458938 0.11216141 1.7081402e-38
0.86848491 -0.01708938 0.11716141 1.7081402e-38
0.86848491 -0.01458938 0.1146614 1.7081402e-38
0.86848491 -0.01458938 0.11716141 1.7081402e-38
0.87098491 -0.01708938 0.1146614 1.7081402e-38
0.87098491 -0.01708938 0.11716141 1.7081402e-38
0.87098491 -0.01458938 0.1146614 1.7081402e-38
0.87098491 -0.01458938 0.11716141 1.7081402e-38
0.86848491 -0.012089379 0.10966141 1.7265073e-38
0.86848491 -0.012089379 0.11216141 1.7173238e-38
0.86848491 -0.0095893797 0.10966141 1.7356909e-38
0.86848491 -0.0095893797 0.11216141 1.7356909e-38
0.87098491 -0.012089379 0.10966141 1.7265073e-38
0.87098491 -0.012089379 0.11216141 1.7173239e-38
0.87098491 -0.0095893797 0.10966141 1.7265073e-38
0.87098491 -0.0095893797 0.11216141 1.7356909e-38
0.86848491 -0.012089379 0.1146614 1.7173238e-38
0.86848491 -0.012089379 0.11716141 1.7081402e-38
0.86848491 -0.0095893797 0.1146614 1.7265073e-38
0.86848491 -0.0095893797 0.11716141 1.7081402e-38
0.87098491 -0.012089379 0.1146614 1.7081402e-38
0.87098491 -0.012089379 0.11716141 1.6989567e-38
0.87098491 -0.0095893797 0.1146614 1.7081402e-38
0.87098491 -0.0095893797 0.11716141 1.7081402e-38
0.87348491 -0.01708938 0.11216141 1.7173238e-38
0.87348491 -0.01458938 0.11216141 1.7265073e-38
0.87348491 -0.01708938 0.1146614 1.7173238e-38
0.87348491 -0.01458938 0.1146614 1.7081402e-38
0.87348491 -0.012089379 0.11216141 1.7265073e-38
0.87348491 -0.0095893797 0.11716141 1.6897731e-38
0.87098491 -0.0070893792 0.099661402 1.7356909e-38
0.87098491 -0.0070893792 0.10216141 1.7356909e-38
0.86848491 -0.0070893792 0.1071614 1.7356909e-38
0.86848491 -0.0045893793 0.1071614 1.7356909e-38
0.87098491 -0.0070893792 0.10466141 1.7265073e-38
0.87098491 -0.0070893792 0.1071614 1.7356909e-38
0.87098491 -0.0045893793 0.10466141 1.7265073e-38
0.87098491 -0.0045893793 0.1071614 1.7173238e-38
0.86848491 -0.0020893794 0.1071614 1.754058e-38
0.86848491 0.00041062071 0.1071614 1.7265073e-38
0.87098491 -0.0020893794 0.10466141 1.754058e-38
0.87098491 -0.0020893794 0.1071614 1.754058e-38
0.87098491 0.00041062071 0.10466141 1.7356909e-38
0.87098491 0.00041062071 0.1071614 1.7081402e-38
0.87348491 -0.0070893792 0.099661402 1.754058e-38
0.87348491 -0.0070893792 0.10216141 1.754058e-38
0.87348491 -0.0045893793 0.099661402 1.754058e-38
0.87348491 -0.0045893793 0.10216141 1.754058e-38
0.87598491 -0.0045893793 0.10216141 1.7173238e-38
0.87348491 -0.0020893794 0.099661402 1.7448744e-38
0.87348491 -0.0020893794 0.10216141 1.7356909e-38
0.87348491 0.00041062071 0.10216141 1.7356909e-38
0.87598491 -0.0020893794 0.10216141 1.7265073e-38
0.87598491 0.00041062071 0.10216141 1.754058e-38
0.87348491 -0.0020893794 0.1071614 1.7265073e-38
0.87348491 0.00041062071 0.10466141 1.7265073e-38
0.87348491 0.00041062071 0.1071614 1.7265073e-38
0.86848491 -0.0070893792 0.10966141 1.754058e-38
0.86848491 -0.0070893792 0.11216141 1.7265073e-38
0.86848491 -0.0045893793 0.10966141 1.754058e-38
0.86848491 -0.0045893793 0.11216141 1.7265073e-38
0.87098491 -0.0070893792 0.10966141 1.7265073e-38
0.87098491 -0.0070893792 0.11216141 1.7265073e-38
0.87098491 -0.0045893793 0.10966141 1.754058e-38
0.87098491 -0.0045893793 0.11216141 1.7265073e-38
0.86848491 -0.0070893792 0.1146614 1.7265073e-38
0.86848491 -0.0070893792 0.11716141 1.7265073e-38
0.87098491 -0.0070893792 0.1146614 1.7081402e-38
0.87098491 -0.0070893792 0.11716141 1.6897731e-38
0.87098491 -0.0045893793 0.1146614 1.7081402e-38
0.87098491 -0.0045893793 0.11716141 1.6897731e-38
0.86848491 -0.0020893794 0.10966141 1.7632415e-38
0.86848491 -0.0020893794 0.11216141 1.754058e-38
0.86848491 0.00041062071 0.10966141 1.754058e-38
0.86848491 0.00041062071 0.11216141 1.754058e-38
0.87098491 -0.0020893794 0.10966141 1.754058e-38
0.87098491 -0.0020893794 0.11216141 1.7081402e-38
0.87098491 0.00041062071 0.10966141 1.7081402e-38
0.87098491 0.00041062071 0.11216141 1.7265073e-38
0.86848491 0.00041062071 0.11716141 1.6805896e-38
0.87098491 0.00041062071 0.1146614 1.7081402e-38
0.87098491 0.00041062071 0.11716141 1.6805896e-38
0.87348491 -0.0045893793 0.11216141 1.7448744e-38
0.87348491 -0.0070893792 0.1146614 1.7081402e-38
0.87348491 -0.0070893792 0.11716141 1.671406e-38
0.87348491 -0.0045893793 0.1146614 1.7081402e-38
0.87348491 -0.0045893793 0.11716141 1.6897731e-38
0.87598491 -0.0070893792 0.11716141 1.6805896e-38
0.87598491 -0.0045893793 0.11716141 1.671406e-38
0.87348491 -0.0020893794 0.10966141 1.7265073e-38
0.87348491 -0.0020893794 0.11216141 1.7265073e-38
0.87348491 0.00041062071 0.10966141 1.7356909e-38
0.87348491 0.00041062071 0.11216141 1.7356909e-38
0.87598491 -0.0020893794 0.11216141 1.7081402e-38
0.87598491 0.00041062071 0.11216141 1.6989567e-38
0.87348491 -0.0020893794 0.1146614 1.7081402e-38
0.87348491 0.00041062071 0.1146614 1.6805896e-38
0.87598491 -0.0020893794 0.1146614 1.6897731e-38
0.87598491 -0.0020893794 0.11716141 1.6530389e-38
0.87598491 0.00041062071 0.1146614 1.6989567e-38
0.87598491 0.00041062071 0.11716141 1.671406e-38
0.8784849 0.00041062071 0.099661402 1.754058e-38
0.88348496 0.00041062071 0.10216141 1.7081402e-38
0.8784849 -0.0020893794 0.11716141 1.6071212e-38
0.8784849 0.00041062071 0.11716141 1.6346718e-38
0.86848491 -0.01708938 0.11966141 1.7081402e-38
0.86848491 -0.01708938 0.1221614 1.6805896e-38
0.86848491 -0.01458938 0.11966141 1.6897731e-38
0.86848491 -0.01458938 0.1221614 1.6805896e-38
0.87098491 -0.01708938 0.11966141 1.7081402e-38
0.87098491 -0.01458938 0.11966141 1.7081402e-38
0.86848491 -0.01708938 0.12466141 1.7081402e-38
0.86848491 -0.01708938 0.1271614 1.7816086e-38
0.86848491 -0.01458938 0.12466141 1.6989567e-38
0.86848491 -0.01458938 0.1271614 1.7816086e-38
0.87098491 -0.01708938 0.12466141 1.7173238e-38
0.87098491 -0.01458938 0.12466141 1.6989567e-38
0.87098491 -0.01458938 0.1271614 1.7907922e-38
0.86848491 -0.012089379 0.11966141 1.6897731e-38
0.86848491 -0.012089379 0.1221614 1.6438554e-38
0.86848491 -0.0095893797 0.11966141 1.6805896e-38
0.86848491 -0.0095893797 0.1221614 1.6530389e-38
0.87098491 -0.012089379 0.11966141 1.6897731e-38
0.87098491 -0.012089379 0.1221614 1.6438554e-38
0.87098491 -0.0095893797 0.11966141 1.6897731e-38
0.87098491 -0.0095893797 0.1221614 1.6530389e-38
0.86848491 -0.012089379 0.12466141 1.6989567e-38
0.86848491 -0.012089379 0.1271614 1.754058e-38
0.86848491 -0.0095893797 0.12466141 1.6805896e-38
0.86848491 -0.0095893797 0.1271614 1.7081402e-38
0.87098491 -0.012089379 0.12466141 1.6989567e-38
0.87098491 -0.012089379 0.1271614 1.754058e-38
0.87098491 -0.0095893797 0.12466141 1.6805896e-38
0.87098491 -0.0095893797 0.1271614 1.7265073e-38
0.87348491 -0.0095893797 0.11966141 1.6530389e-38
0.87348491 -0.0095893797 0.1221614 1.671406e-38
0.87348491 -0.0095893797 0.12466141 1.7081402e-38
0.87348491 -0.0095893797 0.1271614 1.754058e-38
0.87598491 -0.0095893797 0.1271614 1.7907922e-38
0.87098491 -0.01708938 0.12966141 1.7907922e-38
0.87098491 -0.01708938 0.13216141 1.7999757e-38
0.87098491 -0.01458938 0.12966141 1.7907922e-38
0.87098491 -0.01458938 0.13216141 1.7999757e-38
0.87098491 -0.012089379 0.12966141 1.7999757e-38
0.87098491 -0.0095893797 0.12966141 1.754058e-38
0.87348491 -0.01708938 0.13216141 1.6622225e-38
0.87348491 -0.01458938 0.12966141 1.7999757e-38
0.87348491 -0.01458938 0.13216141 1.6622225e-38
0.87348491 -0.012089379 0.12966141 1.8458942e-38
0.87348491 -0.0095893797 0.12966141 1.8458935e-38
0.87348491 -0.0095893797 0.13216141 1.6989567e-38
0.86848491 -0.0070893792 0.1221614 1.671406e-38
0.87098491 -0.0070893792 0.11966141 1.671406e-38
0.87098491 -0.0070893792 0.1221614 1.6163047e-38
0.86848491 -0.0045893793 0.12466141 1.5795705e-38
0.86848491 -0.0045893793 0.1271614 1.6622225e-38
0.87098491 -0.0045893793 0.1271614 1.7081402e-38
0.86848491 -0.0020893794 0.1221614 1.5979376e-38
0.86848491 0.00041062071 0.11966141 1.671406e-38
0.86848491 0.00041062071 0.1221614 1.6438554e-38
0.86848491 -0.0020893794 0.12466141 1.6438554e-38
0.86848491 -0.0020893794 0.1271614 1.671406e-38
0.86848491 0.00041062071 0.12466141 1.6346718e-38
0.86848491 0.00041062071 0.1271614 1.6897731e-38
0.87098491 -0.0020893794 0.12466141 1.6346718e-38
0.87098491 -0.0020893794 0.1271614 1.6897731e-38
0.87098491 0.00041062071 0.1271614 1.671406e-38
0.87348491 -0.0070893792 0.11966141 1.6530389e-38
0.87348491 -0.0070893792 0.1221614 1.6530389e-38
0.87348491 -0.0045893793 0.11966141 1.6071212e-38
0.87348491 -0.0045893793 0.1221614 1.6438554e-38
0.87598491 -0.0070893792 0.11966141 1.6071212e-38
0.87598491 -0.0070893792 0.1221614 1.6530389e-38
0.87598491 -0.0045893793 0.11966141 1.6071212e-38
0.87598491 -0.0045893793 0.1221614 1.6438554e-38
0.87348491 -0.0070893792 0.12466141 1.6805896e-38
0.87348491 -0.0070893792 0.1271614 1.7356909e-38
0.87348491 -0.0045893793 0.12466141 1.6622225e-38
0.87348491 -0.0045893793 0.1271614 1.7265073e-38
0.87598491 -0.0070893792 0.12466141 1.6989567e-38
0.87598491 -0.0070893792 0.1271614 1.8183428e-38
0.87598491 -0.0045893793 0.12466141 1.671406e-38
0.87598491 -0.0045893793 0.1271614 1.7907922e-38
0.87348491 -0.0020893794 0.1221614 1.6438554e-38
0.87348491 0.00041062071 0.1221614 1.6622225e-38
0.87598491 -0.0020893794 0.11966141 1.5979376e-38
0.87598491 -0.0020893794 0.1221614 1.6530389e-38
0.87598491 0.00041062071 0.11966141 1.6438554e-38
0.87598491 0.00041062071 0.1221614 1.6346718e-38
0.87348491 -0.0020893794 0.12466141 1.671406e-38
0.87348491 -0.0020893794 0.1271614 1.7448744e-38
0.87348491 0.00041062071 0.12466141 1.6805896e-38
0.87348491 0.00041062071 0.1271614 1.7448744e-38
0.87598491 -0.0020893794 0.12466141 1.6897731e-38
0.87598491 -0.0020893794 0.1271614 1.8367099e-38
0.87598491 0.00041062071 0.12466141 1.671406e-38
0.87098491 -0.0045893793 0.13216141 1.7632415e-38
0.86848491 0.00041062071 0.13216141 1.7724251e-38
0.87098491 -0.0020893794 0.12966141 1.7999757e-38
0.87098491 -0.0020893794 0.13216141 1.7724251e-38
0.87098491 0.00041062071 0.12966141 1.7356909e-38
0.87098491 0.00041062071 0.13216141 1.7907922e-38
0.87348491 -0.0070893792 0.12966141 1.7999757e-38
0.87348491 -0.0070893792 0.13216141 1.7265073e-38
0.87348491 -0.0045893793 0.12966141 1.7724251e-38
0.87348491 -0.0045893793 0.13216141 1.6989567e-38
0.87598491 -0.0045893793 0.13216141 1.6622225e-38
0.87348491 -0.0020893794 0.12966141 1.7632415e-38
0.87348491 -0.0020893794 0.13216141 1.6989567e-38
0.87348491 0.00041062071 0.12966141 1.8091593e-38
0.87348491 0.00041062071 0.13216141 1.6989567e-38
0.8784849 -0.0045893793 0.11966141 1.6438554e-38
0.8784849 -0.0045893793 0.1221614 1.671406e-38
0.8784849 -0.0070893792 0.1271614 1.8183428e-38
0.8784849 -0.0045893793 0.1271614 1.7724251e-38
0.88098496 -0.0045893793 0.12466141 1.7265073e-38
0.8784849 -0.0020893794 0.11966141 1.6438554e-38
0.8784849 -0.0020893794 0.1221614 1.6897731e-38
0.88098496 -0.0020893794 0.11966141 1.6438554e-38
0.88098496 -0.0020893794 0.1221614 1.671406e-38
0.8784849 -0.0020893794 0.1271614 1.7724251e-38
0.8784849 0.00041062071 0.1271614 1.7907922e-38
0.88098496 -0.0020893794 0.12466141 1.7265073e-38
0.86848491 0.0054106209 0.10216141 1.7356909e-38
0.87098491 0.0054106209 0.10216141 1.7265073e-38
0.86848491 0.0029106208 0.1071614 1.7265073e-38
0.87098491 0.0029106208 0.10466141 1.7448744e-38
0.87098491 0.0029106208 0.1071614 1.7173238e-38
0.87098491 0.0054106209 0.10466141 1.7081402e-38
0.87098491 0.0054106209 0.1071614 1.6989567e-38
0.86848491 0.0079106204 0.10216141 1.7081402e-38
0.86848491 0.0079106204 0.10466141 1.7081402e-38
0.86848491 0.0079106204 0.1071614 1.7356909e-38
0.86848491 0.010410621 0.1071614 1.6989567e-38
0.87098491 0.0079106204 0.10466141 1.7081402e-38
0.87098491 0.0079106204 0.1071614 1.7081402e-38
0.87098491 0.010410621 0.1071614 1.754058e-38
0.87348491 0.0029106208 0.099661402 1.7356909e-38
0.87348491 0.0029106208 0.10216141 1.7356909e-38
0.87348491 0.0054106209 0.099661402 1.7265073e-38
0.87348491 0.0054106209 0.10216141 1.7356909e-38
0.87598491 0.0029106208 0.10216141 1.754058e-38
0.87598491 0.0054106209 0.10216141 1.7081402e-38
0.87348491 0.0029106208 0.10466141 1.7265073e-38
0.87348491 0.0029106208 0.1071614 1.7265073e-38
0.87348491 0.0054106209 0.10466141 1.7356909e-38
0.87348491 0.0054106209 0.1071614 1.7356909e-38
0.87598491 0.0029106208 0.10466141 1.7265073e-38
0.87598491 0.0029106208 0.1071614 1.7356909e-38
0.87598491 0.0054106209 0.10466141 1.7081402e-38
0.87598491 0.0054106209 0.1071614 1.7265073e-38
0.87348491 0.0079106204 0.10216141 1.754058e-38
0.87348491 0.0079106204 0.10466141 1.7265073e-38
0.87348491 0.0079106204 0.1071614 1.7081402e-38
0.87348491 0.010410621 0.1071614 1.7265073e-38
0.87598491 0.0079106204 0.1071614 1.7356909e-38
0.87598491 0.010410621 0.10466141 1.7265073e-38
0.86848491 0.0029106208 0.10966141 1.754058e-38
0.86848491 0.0029106208 0.11216141 1.754058e-38
0.87098491 0.0029106208 0.10966141 1.7265073e-38
0.87098491 0.0029106208 0.11216141 1.7356909e-38
0.87098491 0.0054106209 0.10966141 1.6989567e-38
0.86848491 0.0029106208 0.11716141 1.6805896e-38
0.86848491 0.0054106209 0.11716141 1.671406e-38
0.87098491 0.0029106208 0.1146614 1.6989567e-38
0.87098491 0.0029106208 0.11716141 1.6989567e-38
0.87098491 0.0054106209 0.1146614 1.6989567e-38
0.87098491 0.0054106209 0.11716141 1.6989567e-38
0.86848491 0.010410621 0.10966141 1.7081402e-38
0.87098491 0.0079106204 0.10966141 1.7081402e-38
0.87098491 0.010410621 0.10966141 1.7356909e-38
0.86848491 0.0079106204 0.11716141 1.671406e-38
0.87098491 0.0079106204 0.11716141 1.6805896e-38
0.87098491 0.010410621 0.11716141 1.6989567e-38
0.87348491 0.0029106208 0.10966141 1.7265073e-38
0.87348491 0.0029106208 0.11216141 1.6989567e-38
0.87348491 0.0054106209 0.10966141 1.7265073e-38
0.87348491 0.0054106209 0.11216141 1.7081402e-38
0.87598491 0.0029106208 0.11216141 1.7265073e-38
0.87598491 0.0054106209 0.11216141 1.6897731e-38
0.87348491 0.0029106208 0.1146614 1.7081402e-38
0.87348491 0.0054106209 0.1146614 1.7081402e-38
0.87598491 0.0029106208 0.1146614 1.6989567e-38
0.87598491 0.0029106208 0.11716141 1.671406e-38
0.87598491 0.0054106209 0.1146614 1.6530389e-38
0.87598491 0.0054106209 0.11716141 1.671406e-38
0.87348491 0.0079106204 0.10966141 1.7081402e-38
0.87348491 0.0079106204 0.11216141 1.7081402e-38
0.87348491 0.010410621 0.10966141 1.7356909e-38
0.87348491 0.010410621 0.11216141 1.7081402e-38
0.87598491 0.0079106204 0.11216141 1.7081402e-38
0.87598491 0.010410621 0.11216141 1.6989567e-38
0.87348491 0.0079106204 0.1146614 1.6989567e-38
0.87348491 0.0079106204 0.11716141 1.6530389e-38
0.87348491 0.010410621 0.1146614 1.6989567e-38
0.87348491 0.010410621 0.11716141 1.671406e-38
0.87598491 0.0079106204 0.1146614 1.6989567e-38
0.87598491 0.0079106204 0.11716141 1.6438554e-38
0.87598491 0.010410621 0.1146614 1.671406e-38
0.87598491 0.010410621 0.11716141 1.671406e-38
0.86848491 0.01291062 0.10216141 1.7448744e-38
0.86848491 0.015410621 0.099661402 1.7081402e-38
0.86848491 0.015410621 0.10216141 1.754058e-38
0.87098491 0.015410621 0.099661402 1.7632415e-38
0.87098491 0.015410621 0.10216141 1.7356909e-38
0.86848491 0.01291062 0.10466141 1.7265073e-38
0.86848491 0.01291062 0.1071614 1.7081402e-38
0.86848491 0.015410621 0.10466141 1.7448744e-38
0.86848491 0.015410621 0.1071614 1.7356914e-38
0.87098491 0.01291062 0.1071614 1.7448744e-38
0.87098491 0.015410621 0.10466141 1.7356909e-38
0.87098491 0.015410621 0.1071614 1.7081402e-38
0.86848491 0.01791062 0.099661402 1.754058e-38
0.86848491 0.01791062 0.10216141 1.7356909e-38
0.87098491 0.01791062 0.099661402 1.6989567e-38
0.87098491 0.01791062 0.10216141 1.754058e-38
0.87098491 0.020410622 0.099661402 1.7081402e-38
0.87098491 0.020410622 0.10216141 1.754058e-38
0.86848491 0.01791062 0.10466141 1.7356909e-38
0.86848491 0.01791062 0.1071614 1.7356909e-38
0.87098491 0.01791062 0.10466141 1.7356909e-38
0.87098491 0.01791062 0.1071614 1.7081402e-38
0.87098491 0.020410622 0.10466141 1.7356909e-38
0.87098491 0.020410622 0.1071614 1.7356909e-38
0.87348491 0.01291062 0.1071614 1.7081402e-38
0.87348491 0.015410621 0.1071614 1.7356909e-38
0.87598491 0.015410621 0.1071614 1.7081402e-38
0.87348491 0.01791062 0.099661402 1.7356909e-38
0.87348491 0.020410622 0.099661402 1.7265073e-38
0.87348491 0.020410622 0.10216141 1.7356909e-38
0.87348491 0.01791062 0.1071614 1.7265073e-38
0.87348491 0.020410622 0.10466141 1.7265073e-38
0.87348491 0.020410622 0.1071614 1.6989567e-38
0.87598491 0.01791062 0.1071614 1.7081402e-38
0.87598491 0.020410622 0.1071614 1.7081402e-38
0.86848491 0.01291062 0.10966141 1.7081402e-38
0.87098491 0.01291062 0.10966141 1.7265073e-38
0.87098491 0.01291062 0.11716141 1.6989567e-38
0.87348491 0.01291062 0.10966141 1.7265073e-38
0.87348491 0.01291062 0.11216141 1.7081402e-38
0.87348491 0.015410621 0.10966141 1.7081402e-38
0.87348491 0.015410621 0.11216141 1.6989567e-38
0.87598491 0.01291062 0.11216141 1.6989567e-38
0.87598491 0.015410621 0.11216141 1.6989567e-38
0.87348491 0.01291062 0.1146614 1.6897731e-38
0.87348491 0.01291062 0.11716141 1.671406e-38
0.87598491 0.01291062 0.1146614 1.6897735e-38
0.87598491 0.01291062 0.11716141 1.671406e-38
0.87598491 0.015410621 0.1146614 1.671406e-38
0.87598491 0.015410621 0.11716141 1.6438554e-38
0.87348491 0.01791062 0.10966141 1.6989567e-38
0.87348491 0.01791062 0.11216141 1.6989567e-38
0.87348491 0.020410622 0.10966141 1.7081402e-38
0.87598491 0.01791062 0.11216141 1.7265073e-38
0.87598491 0.01791062 0.1146614 1.671406e-38
0.8784849 0.0029106208 0.099661402 1.7081402e-38
0.8784849 0.0029106208 0.10216141 1.754058e-38
0.8784849 0.0054106209 0.099661402 1.7356909e-38
0.8784849 0.0054106209 0.10216141 1.7265073e-38
0.88098496 0.0029106208 0.099661402 1.7081402e-38
0.88098496 0.0054106209 0.099661402 1.7265073e-38
0.88098496 0.0054106209 0.10216141 1.7081402e-38
0.8784849 0.0029106208 0.10466141 1.7356909e-38
0.8784849 0.0029106208 0.1071614 1.7081402e-38
0.8784849 0.0054106209 0.10466141 1.7081402e-38
0.8784849 0.0054106209 0.1071614 1.7081402e-38
0.88098496 0.0029106208 0.10466141 1.7356909e-38
0.88098496 0.0029106208 0.1071614 1.7081402e-38
0.88098496 0.0054106209 0.10466141 1.7081402e-38
0.88098496 0.0054106209 0.1071614 1.6989567e-38
0.88098496 0.0079106204 0.10216141 1.7265073e-38
0.8784849 0.010410621 0.1071614 1.7265073e-38
0.88098496 0.0079106204 0.10466141 1.7356909e-38
0.88098496 0.010410621 0.10466141 1.7081402e-38
0.88098496 0.010410621 0.1071614 1.7081402e-38
0.88348496 0.0029106208 0.10216141 1.6989567e-38
0.88348496 0.0054106209 0.10216141 1.7265073e-38
0.88348496 0.0029106208 0.1071614 1.7356909e-38
0.88348496 0.0054106209 0.1071614 1.7265073e-38
0.88348496 0.0079106204 0.1071614 1.7265073e-38
0.8784849 0.0029106208 0.10966141 1.6897731e-38
0.8784849 0.0029106208 0.11216141 1.7081402e-38
0.8784849 0.0054106209 0.10966141 1.6989567e-38
0.8784849 0.0054106209 0.11216141 1.6989567e-38
0.88098496 0.0029106208 0.10966141 1.6989567e-38
0.88098496 0.0029106208 0.11216141 1.6714063e-38
0.88098496 0.0054106209 0.10966141 1.7081402e-38
0.88098496 0.0054106209 0.11216141 1.68059e-38
0.8784849 0.0029106208 0.11716141 1.6438554e-38
0.8784849 0.0054106209 0.11716141 1.6438554e-38
0.8784849 0.0079106204 0.10966141 1.7081402e-38
0.8784849 0.0079106204 0.11216141 1.7081402e-38
0.8784849 0.010410621 0.10966141 1.6897731e-38
0.8784849 0.010410621 0.11216141 1.6897731e-38
0.88098496 0.0079106204 0.10966141 1.6989567e-38
0.88098496 0.0079106204 0.11216141 1.6805896e-38
0.88098496 0.010410621 0.11216141 1.6805896e-38
0.8784849 0.0079106204 0.11716141 1.6438554e-38
0.8784849 0.010410621 0.11716141 1.6530389e-38
0.88098496 0.010410621 0.1146614 1.6438554e-38
0.88348496 0.0029106208 0.11216141 1.671406e-38
0.88348496 0.0054106209 0.11216141 1.6805896e-38
0.88348496 0.0029106208 0.1146614 1.6438554e-38
0.88348496 0.0054106209 0.1146614 1.6530389e-38
0.88348496 0.0079106204 0.10966141 1.7265073e-38
0.88348496 0.0079106204 0.11216141 1.6530389e-38
0.88348496 0.010410621 0.10966141 1.6989567e-38
0.88348496 0.010410621 0.11216141 1.671406e-38
0.88348496 0.0079106204 0.1146614 1.6438554e-38
0.88098496 0.020410622 0.1071614 1.7081402e-38
0.8784849 0.01291062 0.10966141 1.7081402e-38
0.8784849 0.01291062 0.11216141 1.6897731e-38
0.8784849 0.015410621 0.10966141 1.7081402e-38
0.8784849 0.015410621 0.11216141 1.7081402e-38
0.8784849 0.01291062 0.11716141 1.6163047e-38
0.8784849 0.015410621 0.11716141 1.6438554e-38
0.88098496 0.01291062 0.1146614 1.6530389e-38
0.88098496 0.01291062 0.11716141 1.6346718e-38
0.88098496 0.015410621 0.1146614 1.671406e-38
0.88098496 0.015410621 0.11716141 1.6254883e-38
0.8784849 0.01791062 0.10966141 1.6989567e-38
0.8784849 0.01791062 0.11216141 1.7081402e-38
0.8784849 0.020410622 0.10966141 1.7081402e-38
0.8784849 0.020410622 0.11216141 1.7081402e-38
0.88098496 0.020410622 0.10966141 1.6989567e-38
0.88098496 0.020410622 0.11216141 1.671406e-38
0.8784849 0.01791062 0.11716141 1.6438554e-38
0.8784849 0.020410622 0.11716141 1.6163047e-38
0.88098496 0.01791062 0.1146614 1.6897731e-38
0.88098496 0.01791062 0.11716141 1.5979376e-38
0.88098496 0.020410622 0.1146614 1.671406e-38
0.88098496 0.020410622 0.11716141 1.6071212e-38
0.88348496 0.015410621 0.1146614 1.5979376e-38
0.88598496 0.015410621 0.11716141 1.6346718e-38
0.88348496 0.020410622 0.11216141 1.671406e-38
0.88348496 0.01791062 0.1146614 1.6071212e-38
0.88348496 0.020410622 0.1146614 1.6438554e-38
0.88598496 0.01791062 0.11716141 1.6438554e-38
0.88598496 0.020410622 0.1146614 1.6438554e-38
0.88598496 0.020410622 0.11716141 1.6438554e-38
0.86848491 0.0029106208 0.11966141 1.6530389e-38
0.86848491 0.0029106208 0.1221614 1.6622225e-38
0.86848491 0.0054106209 0.11966141 1.6530389e-38
0.86848491 0.0054106209 0.1221614 1.6622225e-38
0.87098491 0.0054106209 0.11966141 1.6530389e-38
0.87098491 0.0054106209 0.1221614 1.6071212e-38
0.86848491 0.0029106208 0.12466141 1.6254883e-38
0.86848491 0.0029106208 0.1271614 1.671406e-38
0.86848491 0.0054106209 0.12466141 1.6254883e-38
0.86848491 0.0054106209 0.1271614 1.6622225e-38
0.87098491 0.0029106208 0.12466141 1.6438554e-38
0.87098491 0.0029106208 0.1271614 1.7173238e-38
0.87098491 0.0054106209 0.12466141 1.6438554e-38
0.87098491 0.0054106209 0.1271614 1.671406e-38
0.86848491 0.0079106204 0.11966141 1.6530389e-38
0.86848491 0.0079106204 0.1221614 1.6438554e-38
0.86848491 0.010410621 0.11966141 1.671406e-38
0.86848491 0.010410621 0.1221614 1.6438554e-38
0.87098491 0.0079106204 0.11966141 1.671406e-38
0.87098491 0.010410621 0.11966141 1.6622225e-38
0.86848491 0.0079106204 0.12466141 1.6254883e-38
0.86848491 0.0079106204 0.1271614 1.671406e-38
0.86848491 0.010410621 0.12466141 1.6071212e-38
0.86848491 0.010410621 0.1271614 1.671406e-38
0.87098491 0.0079106204 0.12466141 1.6438554e-38
0.87098491 0.0079106204 0.1271614 1.6530389e-38
0.87098491 0.010410621 0.12466141 1.6438554e-38
0.87098491 0.010410621 0.1271614 1.6438554e-38
0.87348491 0.0029106208 0.11966141 1.6438554e-38
0.87348491 0.0054106209 0.11966141 1.6438554e-38
0.87348491 0.0054106209 0.1221614 1.6438554e-38
0.87598491 0.0054106209 0.11966141 1.6071212e-38
0.87348491 0.0029106208 0.12466141 1.6805896e-38
0.87348491 0.0029106208 0.1271614 1.7173238e-38
0.87348491 0.0054106209 0.12466141 1.6622225e-38
0.87598491 0.0029106208 0.1271614 1.7816086e-38
0.87348491 0.0079106204 0.1221614 1.6438554e-38
0.87598491 0.0079106204 0.11966141 1.6163047e-38
0.87348491 0.0079106204 0.12466141 1.6530389e-38
0.87348491 0.0079106204 0.1271614 1.7265073e-38
0.87348491 0.010410621 0.1271614 1.7081402e-38
0.86848491 0.0029106208 0.13216141 1.7816086e-38
0.86848491 0.0054106209 0.13216141 1.855077e-38
0.87098491 0.0029106208 0.12966141 1.7173238e-38
0.87098491 0.0029106208 0.13216141 1.7999757e-38
0.87098491 0.0054106209 0.12966141 1.7265073e-38
0.86848491 0.0079106204 0.13216141 1.8458935e-38
0.86848491 0.010410621 0.13216141 1.7907922e-38
0.87098491 0.0079106204 0.12966141 1.7265073e-38
0.87098491 0.010410621 0.12966141 1.7265073e-38
0.87098491 0.010410621 0.13216141 1.7724251e-38
0.87348491 0.0029106208 0.12966141 1.7632415e-38
0.87348491 0.0079106204 0.12966141 1.7999757e-38
0.87348491 0.010410621 0.12966141 1.8275264e-38
0.87098491 0.01291062 0.11966141 1.6438554e-38
0.87098491 0.01291062 0.1221614 1.6254883e-38
0.87098491 0.01291062 0.12466141 1.6438554e-38
0.87098491 0.01291062 0.1271614 1.7265073e-38
0.87098491 0.01791062 0.11966141 1.6530389e-38
0.87098491 0.01791062 0.1221614 1.6254883e-38
0.87348491 0.01291062 0.11966141 1.6438554e-38
0.87348491 0.01291062 0.1221614 1.6438554e-38
0.87348491 0.015410621 0.1221614 1.6254883e-38
0.87598491 0.01291062 0.11966141 1.6346718e-38
0.87598491 0.01291062 0.1221614 1.6346718e-38
0.87598491 0.015410621 0.11966141 1.6254883e-38
0.87348491 0.01291062 0.12466141 1.6622225e-38
0.87348491 0.015410621 0.12466141 1.6622225e-38
0.87348491 0.015410621 0.1271614 1.7265073e-38
0.87348491 0.01791062 0.1271614 1.6897731e-38
0.87348491 0.01291062 0.12966141 1.7999757e-38
0.87348491 0.01791062 0.12966141 1.7632415e-38
0.8784849 0.0079106204 0.11966141 1.6438554e-38
0.8784849 0.015410621 0.11966141 1.6438554e-38
0.88098496 0.01291062 0.11966141 1.6438554e-38
0.88098496 0.015410621 0.11966141 1.6438554e-38
0.88098496 0.015410621 0.1221614 1.6438554e-38
0.88098496 0.01791062 0.11966141 1.6438554e-38
0.88098496 0.01791062 0.1221614 1.671406e-38
0.88098496 0.020410622 0.11966141 1.6346718e-38
0.88098496 0.020410622 0.1221614 1.6897731e-38
0.88348496 0.01291062 0.11966141 1.6254883e-38
0.88348496 0.01291062 0.1221614 1.7081402e-38
0.88348496 0.015410621 0.11966141 1.6254883e-38
0.88598496 0.015410621 0.11966141 1.6622225e-38
0.88598496 0.015410621 0.1221614 1.7724251e-38
0.88348496 0.01791062 0.11966141 1.6438554e-38
0.88348496 0.01791062 0.1221614 1.7265073e-38
0.88348496 0.020410622 0.11966141 1.6346718e-38
0.88348496 0.020410622 0.1221614 1.7265073e-38
0.88598496 0.01791062 0.11966141 1.6346718e-38
0.88598496 0.01791062 0.1221614 1.7999757e-38
0.88598496 0.020410622 0.11966141 1.6622225e-38
0.88348496 0.01791062 0.12466141 1.7999757e-38
0.87348491 0.02541062 0.067161404 1.6989567e-38
0.87598491 0.022910621 0.067161404 1.7265073e-38
0.87598491 0.02541062 0.067161404 1.7081402e-38
0.87348491 0.02791062 0.067161404 1.6989567e-38
0.87348491 0.030410621 0.067161404 1.6989567e-38
0.87598491 0.02791062 0.067161404 1.7081402e-38
0.87598491 0.030410621 0.067161404 1.7081402e-38
0.87098491 0.02541062 0.077161402 1.7265073e-38
0.87098491 0.02791062 0.077161402 1.7265073e-38
0.87098491 0.030410621 0.074661404 1.754058e-38
0.87098491 0.030410621 0.077161402 1.7265073e-38
0.87348491 0.022910621 0.072161406 1.7265073e-38
0.87348491 0.02541062 0.072161406 1.7448744e-38
0.87598491 0.022910621 0.069661409 1.7356909e-38
0.87598491 0.02541062 0.069661409 1.7356909e-38
0.87348491 0.022910621 0.074661404 1.7081402e-38
0.87348491 0.022910621 0.077161402 1.754058e-38
0.87348491 0.02541062 0.074661404 1.7448744e-38
0.87348491 0.02541062 0.077161402 1.7265073e-38
0.87598491 0.022910621 0.074661404 1.7356909e-38
0.87598491 0.022910621 0.077161402 1.7356909e-38
0.87598491 0.02541062 0.074661404 1.7356909e-38
0.87598491 0.02541062 0.077161402 1.7356909e-38
0.87348491 0.02791062 0.072161406 1.7448744e-38
0.87348491 0.030410621 0.072161406 1.754058e-38
0.87598491 0.02791062 0.069661409 1.7356909e-38
0.87598491 0.030410621 0.069661409 1.754058e-38
0.87348491 0.02791062 0.074661404 1.7356909e-38
0.87348491 0.02791062 0.077161402 1.7265073e-38
0.87348491 0.030410621 0.074661404 1.7356909e-38
0.87348491 0.030410621 0.077161402 1.7356909e-38
0.87598491 0.02791062 0.074661404 1.7265073e-38
0.87598491 0.02791062 0.077161402 1.7356909e-38
0.87598491 0.030410621 0.074661404 1.754058e-38
0.87598491 0.030410621 0.077161402 1.7265073e-38
0.87348491 0.032910619 0.067161404 1.7081402e-38
0.87348491 0.03541062 0.067161404 1.7081402e-38
0.87598491 0.032910619 0.067161404 1.7356909e-38
0.87598491 0.03541062 0.067161404 1.7265073e-38
0.87598491 0.037910622 0.067161404 1.7081402e-38
0.87098491 0.032910619 0.074661404 1.754058e-38
0.87098491 0.040410619 0.074661404 1.7448744e-38
0.87348491 0.032910619 0.069661409 1.754058e-38
0.87348491 0.032910619 0.072161406 1.7448744e-38
0.87348491 0.03541062 0.069661409 1.754058e-38
0.87348491 0.03541062 0.072161406 1.754058e-38
0.87598491 0.032910619 0.069661409 1.7632415e-38
0.87598491 0.03541062 0.069661409 1.7265073e-38
0.87348491 0.032910619 0.074661404 1.7265073e-38
0.87348491 0.032910619 0.077161402 1.7265073e-38
0.87598491 0.032910619 0.074661404 1.7265073e-38
0.87598491 0.032910619 0.077161402 1.7265073e-38
