# .PCD v0.7 - Point Cloud Data file format
VERSION 0.7
FIELDS x y z rgb
SIZE 4 4 4 4
TYPE F F F F
COUNT 1 1 1 1
WIDTH 966
HEIGHT 1
VIEWPOINT 0 0 0 1 0 0 0
POINTS 966
DATA ascii
0.99219525 -0.026504306 0.084219731 1.6071212e-38
0.98969525 -0.024004307 0.079219736 1.6346718e-38
0.98969525 -0.024004307 0.081719734 1.6346718e-38
0.98969525 -0.021504305 0.079219736 1.6438554e-38
0.98969525 -0.021504305 0.081719734 1.6622225e-38
0.99219525 -0.024004307 0.081719734 1.6346718e-38
0.99219525 -0.021504305 0.081719734 1.6622225e-38
0.99219525 -0.024004307 0.084219731 1.6346718e-38
0.99219525 -0.021504305 0.084219731 1.6438554e-38
0.99469525 -0.039004307 0.079219736 1.5152857e-38
0.99719524 -0.039004307 0.081719734 1.5061021e-38
0.99469525 -0.039004307 0.084219731 1.5152857e-38
0.99469525 -0.039004307 0.086719736 1.4969186e-38
0.99469525 -0.036504306 0.084219731 1.5152857e-38
0.99469525 -0.036504306 0.086719736 1.5061021e-38
0.99719524 -0.039004307 0.084219731 1.5061021e-38
0.99719524 -0.036504306 0.084219731 1.5152857e-38
0.99469525 -0.034004305 0.079219736 1.5428363e-38
0.99469525 -0.031504307 0.079219736 1.5520199e-38
0.99719524 -0.034004305 0.081719734 1.5152857e-38
0.99719524 -0.031504307 0.079219736 1.5428363e-38
0.99719524 -0.031504307 0.081719734 1.5520199e-38
0.99469525 -0.034004305 0.084219731 1.5152857e-38
0.99469525 -0.034004305 0.086719736 1.5152857e-38
0.99469525 -0.031504307 0.084219731 1.5520199e-38
0.99469525 -0.031504307 0.086719736 1.570387e-38
0.99719524 -0.034004305 0.084219731 1.5244692e-38
0.99719524 -0.031504307 0.084219731 1.5520199e-38
0.99969524 -0.031504307 0.081719734 1.5795705e-38
0.99969524 -0.034004305 0.086719736 1.5152857e-38
0.99969524 -0.031504307 0.086719736 1.570387e-38
1.0021952 -0.031504307 0.084219731 1.5520199e-38
1.0021952 -0.031504307 0.086719736 1.5795705e-38
0.99469525 -0.029004306 0.079219736 1.5979376e-38
0.99469525 -0.026504306 0.079219736 1.5795705e-38
0.99719524 -0.029004306 0.081719734 1.5979376e-38
0.99719524 -0.026504306 0.081719734 1.6071212e-38
0.99469525 -0.029004306 0.084219731 1.6071212e-38
0.99469525 -0.029004306 0.086719736 1.6071212e-38
0.99469525 -0.026504306 0.084219731 1.6254883e-38
0.99469525 -0.026504306 0.086719736 1.6071212e-38
0.99719524 -0.029004306 0.084219731 1.5979376e-38
0.99719524 -0.026504306 0.084219731 1.6254883e-38
0.99469525 -0.024004307 0.079219736 1.6346718e-38
0.99469525 -0.021504305 0.079219736 1.6438554e-38
0.99719524 -0.024004307 0.079219736 1.6346718e-38
0.99719524 -0.024004307 0.081719734 1.6346718e-38
0.99719524 -0.021504305 0.081719734 1.6438554e-38
0.99469525 -0.024004307 0.084219731 1.6346718e-38
0.99469525 -0.024004307 0.086719736 1.6622225e-38
0.99469525 -0.021504305 0.084219731 1.6622225e-38
0.99469525 -0.021504305 0.086719736 1.6622225e-38
0.99719524 -0.024004307 0.084219731 1.6346718e-38
0.99719524 -0.021504305 0.084219731 1.6346718e-38
0.99969524 -0.029004306 0.081719734 1.5979376e-38
0.99969524 -0.026504306 0.081719734 1.5979376e-38
0.99969524 -0.029004306 0.086719736 1.6254883e-38
0.99969524 -0.026504306 0.086719736 1.6254883e-38
1.0021952 -0.026504306 0.086719736 1.6071212e-38
0.99969524 -0.024004307 0.081719734 1.6346718e-38
1.0021952 -0.024004307 0.079219736 1.6530389e-38
0.99969524 -0.024004307 0.086719736 1.6254883e-38
0.98969525 -0.039004307 0.089219734 1.5061021e-38
0.98969525 -0.039004307 0.091719732 1.4693679e-38
0.99219525 -0.039004307 0.089219734 1.4785515e-38
0.99219525 -0.039004307 0.091719732 1.5061021e-38
0.99219525 -0.036504306 0.089219734 1.5244692e-38
0.99219525 -0.036504306 0.091719732 1.5152857e-38
0.98969525 -0.036504306 0.096719734 1.5061021e-38
0.99219525 -0.039004307 0.094219737 1.487735e-38
0.99219525 -0.036504306 0.094219737 1.5152857e-38
0.99219525 -0.036504306 0.096719734 1.5152857e-38
0.99219525 -0.034004305 0.091719732 1.5152857e-38
0.98969525 -0.034004305 0.096719734 1.5152857e-38
0.98969525 -0.031504307 0.096719734 1.5887541e-38
0.99219525 -0.034004305 0.094219737 1.5152857e-38
0.99219525 -0.034004305 0.096719734 1.5336528e-38
0.99219525 -0.031504307 0.094219737 1.5887541e-38
0.99219525 -0.031504307 0.096719734 1.5979376e-38
0.98719525 -0.039004307 0.10421973 1.4969186e-38
0.98719525 -0.039004307 0.10671973 1.4969186e-38
0.98719525 -0.036504306 0.10421973 1.5428363e-38
0.98719525 -0.036504306 0.10671973 1.5520199e-38
0.98719525 -0.034004305 0.10171974 1.5520199e-38
0.98719525 -0.031504307 0.10171974 1.5979376e-38
0.98719525 -0.031504307 0.10671973 1.5979376e-38
0.98969525 -0.036504306 0.099219732 1.5061021e-38
0.98969525 -0.036504306 0.10171974 1.5428363e-38
0.99219525 -0.039004307 0.10171974 1.5152857e-38
0.99219525 -0.036504306 0.10171974 1.5336528e-38
0.98969525 -0.039004307 0.10421973 1.5152857e-38
0.98969525 -0.036504306 0.10421973 1.5520199e-38
0.99219525 -0.039004307 0.10671973 1.4969186e-38
0.99219525 -0.036504306 0.10671973 1.5336532e-38
0.98969525 -0.034004305 0.099219732 1.5152857e-38
0.98969525 -0.034004305 0.10171974 1.5428363e-38
0.98969525 -0.031504307 0.099219732 1.5979376e-38
0.98969525 -0.031504307 0.10171974 1.5979376e-38
0.99219525 -0.034004305 0.10171974 1.5428363e-38
0.99219525 -0.031504307 0.10171974 1.5979376e-38
0.98969525 -0.034004305 0.10421973 1.5520199e-38
0.98969525 -0.031504307 0.10421973 1.5979376e-38
0.99219525 -0.034004305 0.10671973 1.5520204e-38
0.99219525 -0.031504307 0.10671973 1.5887541e-38
0.99219525 -0.029004306 0.096719734 1.6346718e-38
0.99219525 -0.026504306 0.096719734 1.6438554e-38
0.99219525 -0.024004307 0.089219734 1.6438554e-38
0.99219525 -0.021504305 0.089219734 1.6438554e-38
0.99219525 -0.024004307 0.096719734 1.6530389e-38
0.99219525 -0.021504305 0.094219737 1.6438554e-38
0.99219525 -0.021504305 0.096719734 1.6346718e-38
0.98719525 -0.029004306 0.10171974 1.6254883e-38
0.98719525 -0.026504306 0.10171974 1.6254883e-38
0.98719525 -0.029004306 0.10421973 1.6254883e-38
0.98719525 -0.029004306 0.10671973 1.6254883e-38
0.98719525 -0.026504306 0.10421973 1.6254883e-38
0.98719525 -0.026504306 0.10671973 1.6254883e-38
0.98719525 -0.024004307 0.10671973 1.6346718e-38
0.98969525 -0.029004306 0.099219732 1.6438554e-38
0.98969525 -0.029004306 0.10171974 1.6346718e-38
0.98969525 -0.026504306 0.099219732 1.6438554e-38
0.98969525 -0.026504306 0.10171974 1.6346718e-38
0.99219525 -0.029004306 0.10171974 1.6254883e-38
0.99219525 -0.026504306 0.10171974 1.6254883e-38
0.98969525 -0.029004306 0.10421973 1.6254883e-38
0.98969525 -0.026504306 0.10421973 1.6254883e-38
0.99219525 -0.029004306 0.10671973 1.6254883e-38
0.99219525 -0.026504306 0.10671973 1.6254883e-38
0.98969525 -0.024004307 0.099219732 1.6438554e-38
0.98969525 -0.024004307 0.10171974 1.6438554e-38
0.98969525 -0.021504305 0.099219732 1.6346718e-38
0.99219525 -0.024004307 0.10171974 1.6438554e-38
0.99219525 -0.021504305 0.10171974 1.6346718e-38
0.98969525 -0.024004307 0.10421973 1.6346718e-38
0.98969525 -0.021504305 0.10421973 1.6346718e-38
0.99219525 -0.024004307 0.10671973 1.6254883e-38
0.99219525 -0.021504305 0.10671973 1.6254883e-38
0.99469525 -0.039004307 0.089219734 1.4969186e-38
0.99469525 -0.039004307 0.091719732 1.487735e-38
0.99469525 -0.036504306 0.089219734 1.5152857e-38
0.99469525 -0.036504306 0.091719732 1.5152857e-38
0.99719524 -0.039004307 0.089219734 1.4785515e-38
0.99719524 -0.039004307 0.091719732 1.4785515e-38
0.99719524 -0.036504306 0.089219734 1.5336528e-38
0.99719524 -0.036504306 0.091719732 1.5152857e-38
0.99469525 -0.039004307 0.094219737 1.4969186e-38
0.99469525 -0.036504306 0.094219737 1.5336528e-38
0.99469525 -0.036504306 0.096719734 1.5428363e-38
0.99719524 -0.039004307 0.096719734 1.4969186e-38
0.99719524 -0.036504306 0.096719734 1.5336528e-38
0.99469525 -0.034004305 0.089219734 1.5152857e-38
0.99469525 -0.034004305 0.091719732 1.5152857e-38
0.99469525 -0.031504307 0.089219734 1.5795705e-38
0.99719524 -0.034004305 0.089219734 1.5336528e-38
0.99719524 -0.034004305 0.091719732 1.5152857e-38
0.99719524 -0.031504307 0.089219734 1.5979376e-38
0.99719524 -0.031504307 0.091719732 1.5887541e-38
0.99469525 -0.034004305 0.094219737 1.5428363e-38
0.99469525 -0.034004305 0.096719734 1.5428363e-38
0.99469525 -0.031504307 0.094219737 1.5979376e-38
0.99469525 -0.031504307 0.096719734 1.5979376e-38
0.99719524 -0.034004305 0.096719734 1.5428363e-38
0.99719524 -0.031504307 0.096719734 1.5979376e-38
1.0021952 -0.039004307 0.091719732 1.4785515e-38
0.99969524 -0.039004307 0.094219737 1.4785515e-38
0.99969524 -0.039004307 0.096719734 1.5061021e-38
1.0021952 -0.039004307 0.094219737 1.4785515e-38
0.99969524 -0.034004305 0.089219734 1.5152857e-38
0.99969524 -0.031504307 0.089219734 1.5979376e-38
1.0021952 -0.031504307 0.089219734 1.5887541e-38
0.99969524 -0.031504307 0.094219737 1.5887541e-38
0.99969524 -0.031504307 0.096719734 1.5979376e-38
0.99469525 -0.036504306 0.099219732 1.5061021e-38
0.99719524 -0.036504306 0.099219732 1.5152857e-38
0.99469525 -0.039004307 0.10421973 1.5152857e-38
0.99469525 -0.039004307 0.10671973 1.5061023e-38
0.99469525 -0.036504306 0.10421973 1.5336528e-38
0.99469525 -0.036504306 0.10671973 1.5336529e-38
0.99469525 -0.034004305 0.099219732 1.5336528e-38
0.99469525 -0.031504307 0.099219732 1.5979376e-38
0.99719524 -0.031504307 0.099219732 1.6071212e-38
0.99469525 -0.034004305 0.10421973 1.5428363e-38
0.99469525 -0.031504307 0.10421973 1.5979376e-38
0.99469525 -0.031504307 0.10671973 1.5979376e-38
1.0021952 -0.039004307 0.099219732 1.4969186e-38
0.99469525 -0.029004306 0.089219734 1.6254883e-38
0.99469525 -0.026504306 0.089219734 1.6071212e-38
0.99719524 -0.029004306 0.089219734 1.6254883e-38
0.99719524 -0.029004306 0.091719732 1.6438554e-38
0.99719524 -0.026504306 0.089219734 1.6254883e-38
0.99719524 -0.026504306 0.091719732 1.6438554e-38
0.99469525 -0.029004306 0.094219737 1.6346718e-38
0.99469525 -0.029004306 0.096719734 1.6346718e-38
0.99469525 -0.026504306 0.094219737 1.6438554e-38
0.99469525 -0.026504306 0.096719734 1.6438554e-38
0.99719524 -0.029004306 0.096719734 1.6346718e-38
0.99469525 -0.024004307 0.089219734 1.6438554e-38
0.99469525 -0.024004307 0.091719732 1.6438554e-38
0.99469525 -0.021504305 0.089219734 1.6622225e-38
0.99469525 -0.021504305 0.091719732 1.6438554e-38
0.99719524 -0.024004307 0.089219734 1.6438554e-38
0.99719524 -0.024004307 0.091719732 1.6346718e-38
0.99719524 -0.021504305 0.089219734 1.6254883e-38
0.99719524 -0.021504305 0.091719732 1.6438554e-38
0.99469525 -0.024004307 0.094219737 1.6438554e-38
0.99469525 -0.024004307 0.096719734 1.6438554e-38
0.99469525 -0.021504305 0.094219737 1.6346718e-38
0.99469525 -0.021504305 0.096719734 1.6346718e-38
0.99719524 -0.024004307 0.096719734 1.6438554e-38
0.99719524 -0.021504305 0.096719734 1.6346718e-38
0.99969524 -0.029004306 0.089219734 1.6346718e-38
0.99969524 -0.026504306 0.089219734 1.6346718e-38
1.0021952 -0.026504306 0.089219734 1.6346718e-38
0.99969524 -0.029004306 0.094219737 1.6071212e-38
0.99969524 -0.026504306 0.094219737 1.6622225e-38
0.99969524 -0.024004307 0.089219734 1.6438554e-38
0.99969524 -0.024004307 0.094219737 1.6438554e-38
0.99969524 -0.021504305 0.094219737 1.6346718e-38
0.99469525 -0.029004306 0.099219732 1.6254883e-38
0.99469525 -0.021504305 0.099219732 1.6438554e-38
0.99719524 -0.021504305 0.10171974 1.6346718e-38
0.99469525 -0.021504305 0.10421973 1.6254883e-38
0.98219526 -0.049004305 0.11671974 1.9667948e-38
0.98219526 -0.046504308 0.11671974 1.8469405e-38
0.98219526 -0.044004306 0.11671974 1.9293737e-38
0.98219526 -0.041504305 0.11671974 1.5520199e-38
0.97469527 -0.049004305 0.12171973 1.8841414e-38
0.97469527 -0.046504308 0.12171973 1.8103847e-38
0.97719526 -0.049004305 0.12171973 1.5079754e-38
0.97719526 -0.046504308 0.12171973 1.8286799e-38
0.97469527 -0.049004305 0.12421974 1.5819795e-38
0.97469527 -0.046504308 0.12421974 1.8102415e-38
0.97719526 -0.049004305 0.12421974 1.6004915e-38
0.97719526 -0.049004305 0.12671973 1.7383839e-38
0.97719526 -0.046504308 0.12421974 1.8103498e-38
0.97719526 -0.046504308 0.12671973 1.810098e-38
0.97969526 -0.049004305 0.11921974 1.9208046e-38
0.97969526 -0.049004305 0.12171973 1.9577185e-38
0.97969526 -0.046504308 0.11921974 1.8193895e-38
0.97969526 -0.046504308 0.12171973 1.8101696e-38
0.98219526 -0.049004305 0.11921974 1.9299876e-38
0.98219526 -0.046504308 0.11921974 1.8102768e-38
0.97969526 -0.049004305 0.12421974 1.7108697e-38
0.97969526 -0.049004305 0.12671973 1.8027448e-38
0.97969526 -0.046504308 0.12421974 1.8286799e-38
0.97969526 -0.046504308 0.12671973 1.7913362e-38
0.98219526 -0.049004305 0.12421974 1.9944893e-38
0.98219526 -0.049004305 0.12671973 1.6830725e-38
0.98219526 -0.046504308 0.12421974 1.810098e-38
0.98219526 -0.046504308 0.12671973 1.7917658e-38
0.97969526 -0.044004306 0.11921974 1.9293737e-38
0.97969526 -0.044004306 0.12171973 1.8463612e-38
0.98219526 -0.044004306 0.11921974 1.9201542e-38
0.98219526 -0.041504305 0.11921974 1.5520199e-38
0.98219526 -0.044004306 0.12421974 1.8279584e-38
0.98719525 -0.051504306 0.12671973 1.4805273e-38
0.98469526 -0.046504308 0.11171973 1.80095e-38
0.98469526 -0.049004305 0.11421973 1.8932163e-38
0.98469526 -0.049004305 0.11671974 1.9392438e-38
0.98469526 -0.046504308 0.11421973 1.8194598e-38
0.98719525 -0.049004305 0.11421973 1.8655223e-38
0.98719525 -0.046504308 0.11421973 1.8103498e-38
0.98469526 -0.041504305 0.11171973 1.5428363e-38
0.98719525 -0.044004306 0.10921974 1.9109345e-38
0.98719525 -0.041504305 0.10921974 1.4969186e-38
0.98719525 -0.041504305 0.11171973 1.5520199e-38
0.98469526 -0.044004306 0.11421973 1.8463975e-38
0.98469526 -0.041504305 0.11421973 1.5520199e-38
0.98469526 -0.041504305 0.11671974 1.4969186e-38
0.98719525 -0.044004306 0.11421973 1.8278862e-38
0.98719525 -0.041504305 0.11421973 1.4785515e-38
0.98719525 -0.041504305 0.11671974 1.4785515e-38
0.98969525 -0.046504308 0.10921974 1.8194613e-38
0.99219525 -0.046504308 0.10921974 1.8010948e-38
0.98969525 -0.041504305 0.10921974 1.5520199e-38
0.98969525 -0.041504305 0.11171973 1.5520199e-38
0.99219525 -0.041504305 0.10921974 1.5520199e-38
0.98469526 -0.049004305 0.12171973 1.9208397e-38
0.98469526 -0.046504308 0.12171973 1.8102049e-38
0.98469526 -0.049004305 0.12671973 1.9572163e-38
0.98469526 -0.046504308 0.12671973 1.8004478e-38
0.98719525 -0.049004305 0.12671973 1.7291684e-38
0.98719525 -0.046504308 0.12671973 1.7541691e-38
0.98469526 -0.044004306 0.12171973 1.8924953e-38
0.98469526 -0.041504305 0.12171973 1.5520199e-38
0.98719525 -0.041504305 0.11921974 1.4785515e-38
0.98719525 -0.041504305 0.12171973 1.4510008e-38
0.98469526 -0.044004306 0.12421974 1.8371061e-38
0.98469526 -0.041504305 0.12421974 1.5520199e-38
0.98719525 -0.044004306 0.12671973 1.8371064e-38
0.98719525 -0.041504305 0.12671973 1.5795705e-38
0.99219525 -0.049004305 0.12671973 1.9388106e-38
0.99219525 -0.046504308 0.12421974 1.7360894e-38
0.99219525 -0.046504308 0.12671973 1.7450562e-38
0.98969525 -0.041504305 0.12171973 1.4693679e-38
0.99219525 -0.041504305 0.11921974 1.4785515e-38
0.99219525 -0.041504305 0.12171973 1.4693679e-38
0.98969525 -0.041504305 0.12421974 1.5795705e-38
0.99219525 -0.044004306 0.12421974 1.8278865e-38
0.99219525 -0.044004306 0.12671973 1.8643704e-38
0.99219525 -0.041504305 0.12421974 1.5795705e-38
0.99219525 -0.041504305 0.12671973 1.6897731e-38
0.99469525 -0.049004305 0.12671973 1.9388825e-38
0.99469525 -0.046504308 0.12671973 1.7452717e-38
0.99719524 -0.049004305 0.12671973 1.5367445e-38
0.99719524 -0.046504308 0.12671973 1.708284e-38
0.99469525 -0.044004306 0.12671973 1.9104001e-38
0.99469525 -0.041504305 0.12421974 1.4510008e-38
0.99469525 -0.041504305 0.12671973 1.69896e-38
0.99719524 -0.044004306 0.12671973 1.800517e-38
0.99719524 -0.041504305 0.12671973 1.8834933e-38
0.99969524 -0.049004305 0.12671973 2.0902261e-38
0.99969524 -0.046504308 0.12671973 1.6346718e-38
0.99969524 -0.044004306 0.12671973 1.8372525e-38
0.99969524 -0.041504305 0.12671973 1.8925699e-38
0.98469526 -0.051504306 0.12921974 1.4620529e-38
0.98469526 -0.049004305 0.12921974 1.5633607e-38
0.98469526 -0.046504308 0.12921974 1.7452011e-38
0.98969525 -0.049004305 0.12921974 1.4990385e-38
0.99219525 -0.049004305 0.12921974 1.5549678e-38
0.99219525 -0.046504308 0.12921974 1.708249e-38
0.99719524 -0.049004305 0.12921974 2.1229845e-38
0.99719524 -0.049004305 0.13171974 2.0866105e-38
0.99719524 -0.046504308 0.12921974 1.6346718e-38
0.99719524 -0.046504308 0.13171974 1.4234502e-38
0.99469525 -0.041504305 0.13171974 1.4785515e-38
0.99719524 -0.044004306 0.12921974 1.6533647e-38
0.99719524 -0.044004306 0.13171974 1.4326337e-38
0.99719524 -0.041504305 0.12921974 1.7639995e-38
0.99719524 -0.041504305 0.13171974 1.4601844e-38
0.99719524 -0.041504305 0.13421974 1.4234502e-38
0.99969524 -0.049004305 0.12921974 2.1419277e-38
0.99969524 -0.046504308 0.12921974 1.4234502e-38
0.99969524 -0.046504308 0.13171974 1.3407982e-38
1.0021952 -0.049004305 0.13171974 2.2713256e-38
1.0021952 -0.046504308 0.13171974 1.3407982e-38
0.99969524 -0.044004306 0.12921974 1.4418173e-38
0.99969524 -0.044004306 0.13171974 1.3775324e-38
0.99969524 -0.041504305 0.12921974 1.4510008e-38
0.99969524 -0.041504305 0.13171974 1.4234502e-38
1.0021952 -0.044004306 0.13171974 1.3775324e-38
1.0021952 -0.041504305 0.13171974 1.4142666e-38
0.98719525 -0.039004307 0.10921974 1.5152857e-38
0.98719525 -0.039004307 0.11171973 1.4969186e-38
0.98469526 -0.039004307 0.11421973 1.4969186e-38
0.98469526 -0.039004307 0.11671974 1.5244692e-38
0.98719525 -0.039004307 0.11421973 1.5061023e-38
0.98719525 -0.039004307 0.11671974 1.5152857e-38
0.98719525 -0.036504306 0.11421973 1.5520199e-38
0.98719525 -0.031504307 0.10921974 1.5887541e-38
0.98719525 -0.034004305 0.11421973 1.570387e-38
0.98719525 -0.031504307 0.11421973 1.570387e-38
0.98969525 -0.039004307 0.10921974 1.5152857e-38
0.98969525 -0.039004307 0.11171973 1.5152857e-38
0.98969525 -0.036504306 0.10921974 1.5520199e-38
0.98969525 -0.036504306 0.11171973 1.5428363e-38
0.99219525 -0.039004307 0.10921974 1.5061023e-38
0.99219525 -0.036504306 0.10921974 1.5336529e-38
0.98969525 -0.039004307 0.11671974 1.5152857e-38
0.98969525 -0.036504306 0.11671974 1.5428363e-38
0.99219525 -0.036504306 0.11671974 1.5244692e-38
0.98969525 -0.034004305 0.10921974 1.5795705e-38
0.98969525 -0.034004305 0.11171973 1.5428363e-38
0.98969525 -0.031504307 0.10921974 1.5795705e-38
0.98969525 -0.031504307 0.11171973 1.5795705e-38
0.99219525 -0.034004305 0.10921974 1.5520202e-38
0.99219525 -0.031504307 0.10921974 1.5795705e-38
0.98969525 -0.034004305 0.11671974 1.5520199e-38
0.98969525 -0.031504307 0.11671974 1.570387e-38
0.99219525 -0.034004305 0.11421973 1.5520199e-38
0.99219525 -0.034004305 0.11671974 1.5244692e-38
0.99219525 -0.031504307 0.11421973 1.570387e-38
0.99219525 -0.031504307 0.11671974 1.5336528e-38
0.98719525 -0.039004307 0.11921974 1.5152857e-38
0.98719525 -0.039004307 0.12171973 1.4969187e-38
0.98719525 -0.031504307 0.12171973 1.5244692e-38
0.98969525 -0.039004307 0.12171973 1.4969186e-38
0.99219525 -0.039004307 0.11921974 1.4969186e-38
0.99219525 -0.039004307 0.12171973 1.496919e-38
0.99219525 -0.036504306 0.11921974 1.5152857e-38
0.99219525 -0.036504306 0.12171973 1.5152857e-38
0.98969525 -0.039004307 0.12421974 1.4969187e-38
0.99219525 -0.039004307 0.12421974 1.4693679e-38
0.99219525 -0.039004307 0.12671973 1.6346721e-38
0.98969525 -0.034004305 0.12171973 1.5152857e-38
0.98969525 -0.031504307 0.12171973 1.5061023e-38
0.99219525 -0.034004305 0.11921974 1.5152857e-38
0.99219525 -0.034004305 0.12171973 1.4969186e-38
0.99219525 -0.031504307 0.11921974 1.5244694e-38
0.99219525 -0.031504307 0.12171973 1.5061023e-38
0.98969525 -0.034004305 0.12421974 1.5152857e-38
0.98969525 -0.031504307 0.12421974 1.5152857e-38
0.98719525 -0.029004306 0.10921974 1.6254883e-38
0.98719525 -0.026504306 0.10921974 1.6254883e-38
0.98719525 -0.029004306 0.11421973 1.5795705e-38
0.98719525 -0.024004307 0.10921974 1.6254883e-38
0.98969525 -0.029004306 0.10921974 1.5979376e-38
0.98969525 -0.029004306 0.11171973 1.6071212e-38
0.98969525 -0.026504306 0.10921974 1.5979376e-38
0.98969525 -0.026504306 0.11171973 1.5979376e-38
0.99219525 -0.026504306 0.10921974 1.6071212e-38
0.98969525 -0.029004306 0.11671974 1.570387e-38
0.98969525 -0.026504306 0.11671974 1.5795705e-38
0.99219525 -0.029004306 0.11421973 1.5795705e-38
0.99219525 -0.029004306 0.11671974 1.5520199e-38
0.99219525 -0.026504306 0.11421973 1.5795705e-38
0.99219525 -0.026504306 0.11671974 1.5428363e-38
0.98969525 -0.024004307 0.10921974 1.6071212e-38
0.98969525 -0.024004307 0.11171973 1.6071212e-38
0.99219525 -0.024004307 0.10921974 1.6071212e-38
0.99219525 -0.021504305 0.10921974 1.6071212e-38
0.98969525 -0.021504305 0.11671974 1.5795705e-38
0.99219525 -0.024004307 0.11421973 1.5979376e-38
0.99219525 -0.024004307 0.11671974 1.570387e-38
0.99219525 -0.021504305 0.11421973 1.6071212e-38
0.99219525 -0.021504305 0.11671974 1.5795705e-38
0.98719525 -0.029004306 0.12171973 1.5244692e-38
0.98969525 -0.029004306 0.12171973 1.5152857e-38
0.99219525 -0.029004306 0.11921974 1.5244692e-38
0.99219525 -0.029004306 0.12171973 1.5244692e-38
0.99219525 -0.026504306 0.11921974 1.5244692e-38
0.99219525 -0.026504306 0.12171973 1.5152857e-38
0.98969525 -0.029004306 0.12421974 1.4969186e-38
0.99219525 -0.021504305 0.11921974 1.570387e-38
0.99219525 -0.021504305 0.12171973 1.5428363e-38
0.99219525 -0.021504305 0.12421974 1.487735e-38
0.99219525 -0.021504305 0.12671973 1.6438554e-38
0.99469525 -0.036504306 0.10921974 1.5428363e-38
0.99469525 -0.034004305 0.10921974 1.5428363e-38
0.99469525 -0.031504307 0.10921974 1.5795705e-38
0.99469525 -0.036504306 0.11921974 1.5244692e-38
0.99469525 -0.036504306 0.12171973 1.5152857e-38
0.99469525 -0.039004307 0.12421974 1.4785518e-38
0.99469525 -0.039004307 0.12671973 1.653041e-38
0.99719524 -0.039004307 0.12671973 1.8830261e-38
0.99719524 -0.036504306 0.12421974 1.487735e-38
0.99469525 -0.034004305 0.11921974 1.4969186e-38
0.99469525 -0.034004305 0.12171973 1.4969186e-38
0.99469525 -0.034004305 0.12421974 1.487735e-38
0.99469525 -0.034004305 0.12671973 1.6438554e-38
0.99469525 -0.031504307 0.12421974 1.487735e-38
0.99469525 -0.031504307 0.12671973 1.6438554e-38
0.99719524 -0.034004305 0.12421974 1.487735e-38
0.99719524 -0.031504307 0.12671973 1.8923884e-38
0.99969524 -0.039004307 0.12671973 1.8554049e-38
0.99969524 -0.036504306 0.12671973 1.7085004e-38
1.0021952 -0.036504306 0.12421974 1.8371456e-38
0.99969524 -0.034004305 0.12171973 1.4785515e-38
0.99969524 -0.034004305 0.12671973 1.901608e-38
0.99969524 -0.031504307 0.12671973 1.8924603e-38
1.0021952 -0.034004305 0.12421974 1.6254883e-38
1.0021952 -0.031504307 0.12421974 1.8279611e-38
0.99469525 -0.024004307 0.10921974 1.5795705e-38
0.99469525 -0.024004307 0.11171973 1.5979376e-38
0.99469525 -0.021504305 0.10921974 1.6071212e-38
0.99469525 -0.021504305 0.11171973 1.5795705e-38
0.99469525 -0.021504305 0.11421973 1.5979376e-38
0.99719524 -0.021504305 0.11421973 1.5795705e-38
0.99469525 -0.026504306 0.11921974 1.5152857e-38
0.99469525 -0.026504306 0.12171973 1.5244692e-38
0.99469525 -0.029004306 0.12421974 1.4969186e-38
0.99469525 -0.029004306 0.12671973 1.6346718e-38
0.99469525 -0.026504306 0.12421974 1.4969186e-38
0.99469525 -0.026504306 0.12671973 1.6346718e-38
0.99719524 -0.029004306 0.12671973 1.8923165e-38
0.99719524 -0.026504306 0.12421974 1.4969186e-38
0.99719524 -0.026504306 0.12671973 1.9013562e-38
0.99469525 -0.024004307 0.11921974 1.5520199e-38
0.99469525 -0.024004307 0.12171973 1.5152857e-38
0.99469525 -0.021504305 0.11921974 1.5520199e-38
0.99469525 -0.021504305 0.12171973 1.5336528e-38
0.99469525 -0.024004307 0.12671973 1.6530389e-38
0.99469525 -0.021504305 0.12421974 1.4969186e-38
0.99469525 -0.021504305 0.12671973 1.625489e-38
0.99719524 -0.024004307 0.12421974 1.4969186e-38
0.99719524 -0.024004307 0.12671973 1.9104702e-38
0.99719524 -0.021504305 0.12421974 1.487735e-38
0.99719524 -0.021504305 0.12671973 1.8553343e-38
0.99969524 -0.029004306 0.12671973 1.8648386e-38
0.99969524 -0.026504306 0.12671973 1.8923165e-38
0.99969524 -0.024004307 0.11921974 1.5152857e-38
0.99969524 -0.024004307 0.12171973 1.487735e-38
0.99969524 -0.024004307 0.12671973 1.8920309e-38
0.99969524 -0.021504305 0.12671973 1.9196169e-38
1.0021952 -0.024004307 0.12421974 1.8920309e-38
0.99469525 -0.039004307 0.13171974 1.4785515e-38
0.99719524 -0.039004307 0.12921974 1.7453055e-38
0.99719524 -0.039004307 0.13171974 1.4510008e-38
0.99719524 -0.036504306 0.12921974 1.7453408e-38
0.99719524 -0.036504306 0.13171974 1.4785515e-38
0.99719524 -0.039004307 0.13421974 1.4234502e-38
0.99469525 -0.031504307 0.12921974 1.7548113e-38
0.99469525 -0.031504307 0.13171974 1.4234502e-38
0.99719524 -0.034004305 0.12921974 1.7544526e-38
0.99719524 -0.034004305 0.13171974 1.4510008e-38
0.99719524 -0.031504307 0.12921974 1.7453767e-38
0.99719524 -0.031504307 0.13171974 1.4510008e-38
0.99719524 -0.031504307 0.13421974 1.4142666e-38
0.99969524 -0.039004307 0.12921974 1.4785515e-38
0.99969524 -0.039004307 0.13171974 1.4234502e-38
0.99969524 -0.036504306 0.12921974 1.4510008e-38
0.99969524 -0.034004305 0.12921974 1.4510008e-38
0.99969524 -0.031504307 0.13171974 1.4142666e-38
1.0021952 -0.034004305 0.13171974 1.4142666e-38
1.0021952 -0.031504307 0.13171974 1.4142666e-38
0.99469525 -0.029004306 0.12921974 1.8005138e-38
0.99469525 -0.029004306 0.13171974 1.4418173e-38
0.99719524 -0.029004306 0.12921974 1.7637461e-38
0.99719524 -0.029004306 0.13171974 1.4693679e-38
0.99719524 -0.026504306 0.12921974 1.7544167e-38
0.99719524 -0.026504306 0.13171974 1.4510008e-38
0.99719524 -0.029004306 0.13421974 1.4234502e-38
0.99719524 -0.021504305 0.13171974 1.570387e-38
0.99969524 -0.029004306 0.13171974 1.4234502e-38
0.99969524 -0.026504306 0.12921974 1.4785515e-38
0.99969524 -0.026504306 0.13171974 1.4234502e-38
1.0021952 -0.029004306 0.13171974 1.4234502e-38
1.0021952 -0.026504306 0.13171974 1.9508014e-38
0.99969524 -0.029004306 0.13421974 1.9691323e-38
0.99969524 -0.026504306 0.13421974 1.950873e-38
0.99969524 -0.024004307 0.12921974 1.5152857e-38
0.99969524 -0.024004307 0.13171974 1.4510008e-38
0.99969524 -0.021504305 0.12921974 1.5428363e-38
0.99969524 -0.021504305 0.13171974 1.4693679e-38
1.0021952 -0.024004307 0.13171974 1.4510008e-38
1.0021952 -0.021504305 0.13171974 1.4510008e-38
0.99969524 -0.024004307 0.13421974 1.9417618e-38
0.99969524 -0.021504305 0.13421974 1.923035e-38
0.98469526 -0.019004306 0.076719731 1.8091593e-38
0.98719525 -0.019004306 0.076719731 1.8275275e-38
0.98719525 -0.016504306 0.076719731 1.8367099e-38
0.98969525 -0.019004306 0.076719731 1.6346718e-38
0.98969525 -0.016504306 0.076719731 1.6622225e-38
0.99219525 -0.016504306 0.076719731 1.6622225e-38
0.98969525 -0.014004306 0.076719731 1.7081402e-38
0.98969525 -0.011504306 0.076719731 1.6989567e-38
0.99219525 -0.014004306 0.076719731 1.6438554e-38
0.99219525 -0.011504306 0.076719731 1.6346718e-38
0.98719525 -0.019004306 0.079219736 1.6989567e-38
0.98719525 -0.016504306 0.079219736 1.6805896e-38
0.98719525 -0.016504306 0.081719734 1.6622225e-38
0.98969525 -0.019004306 0.079219736 1.6438554e-38
0.98969525 -0.019004306 0.081719734 1.6622225e-38
0.98969525 -0.016504306 0.079219736 1.6622225e-38
0.98969525 -0.016504306 0.081719734 1.6622225e-38
0.99219525 -0.019004306 0.081719734 1.6622225e-38
0.99219525 -0.016504306 0.081719734 1.6622225e-38
0.98969525 -0.016504306 0.084219731 1.671406e-38
0.99219525 -0.019004306 0.084219731 1.6438554e-38
0.99219525 -0.016504306 0.084219731 1.6622225e-38
0.99219525 -0.016504306 0.086719736 1.6346718e-38
0.98969525 -0.014004306 0.079219736 1.6530389e-38
0.98969525 -0.014004306 0.081719734 1.6622225e-38
0.98969525 -0.011504306 0.079219736 1.6438554e-38
0.98969525 -0.011504306 0.081719734 1.6622225e-38
0.99219525 -0.014004306 0.081719734 1.6622225e-38
0.99219525 -0.011504306 0.081719734 1.6622225e-38
0.98969525 -0.014004306 0.084219731 1.6622225e-38
0.98969525 -0.011504306 0.084219731 1.6622225e-38
0.99219525 -0.014004306 0.084219731 1.6438554e-38
0.99219525 -0.014004306 0.086719736 1.6346718e-38
0.99219525 -0.011504306 0.084219731 1.6438554e-38
0.99219525 -0.011504306 0.086719736 1.6438554e-38
0.98969525 -0.009004306 0.076719731 1.671406e-38
0.98969525 -0.0065043061 0.076719731 1.6989567e-38
0.99219525 -0.009004306 0.074219733 1.7907922e-38
0.99219525 -0.009004306 0.076719731 1.6622225e-38
0.99219525 -0.0065043061 0.076719731 1.6622225e-38
0.99219525 -0.0040043057 0.076719731 1.6989567e-38
0.99219525 -0.0015043059 0.076719731 1.7265073e-38
0.98969525 -0.009004306 0.079219736 1.6622225e-38
0.98969525 -0.009004306 0.081719734 1.6622225e-38
0.98969525 -0.0065043061 0.079219736 1.6897731e-38
0.98969525 -0.0065043061 0.081719734 1.6622225e-38
0.99219525 -0.009004306 0.081719734 1.6530389e-38
0.99219525 -0.0065043061 0.081719734 1.6622225e-38
0.98969525 -0.009004306 0.084219731 1.6346718e-38
0.99219525 -0.009004306 0.084219731 1.6438554e-38
0.99219525 -0.009004306 0.086719736 1.6438554e-38
0.99219525 -0.0065043061 0.084219731 1.6346718e-38
0.99219525 -0.0065043061 0.086719736 1.6438554e-38
0.99219525 -0.0040043057 0.081719734 1.6622225e-38
0.99219525 -0.0015043059 0.081719734 1.6805896e-38
0.99219525 -0.0040043057 0.084219731 1.6346718e-38
0.99219525 -0.0040043057 0.086719736 1.6346718e-38
0.99219525 -0.0015043059 0.084219731 1.6346718e-38
0.99219525 -0.0015043059 0.086719736 1.6622225e-38
0.99469525 -0.019004306 0.084219731 1.6622225e-38
0.99469525 -0.019004306 0.086719736 1.6346718e-38
0.99469525 -0.016504306 0.084219731 1.6622225e-38
0.99469525 -0.016504306 0.086719736 1.6622225e-38
0.99469525 -0.014004306 0.084219731 1.6622225e-38
0.99469525 -0.011504306 0.084219731 1.6622225e-38
0.99469525 -0.009004306 0.071719736 1.8367099e-38
0.99719524 -0.009004306 0.071719736 1.7907922e-38
0.99719524 -0.0065043061 0.069219738 1.8091593e-38
0.99719524 -0.0065043061 0.071719736 1.7907922e-38
0.99469525 -0.009004306 0.074219733 1.6897731e-38
0.99469525 -0.0065043061 0.074219733 1.6805896e-38
0.99719524 -0.0065043061 0.076719731 1.671406e-38
0.99719524 -0.0040043057 0.069219738 1.8091593e-38
0.99719524 -0.0040043057 0.071719736 1.7907922e-38
0.99719524 -0.0015043059 0.069219738 1.8091593e-38
0.99719524 -0.0015043059 0.071719736 1.7999757e-38
0.99469525 -0.0040043057 0.074219733 1.6989567e-38
0.99469525 -0.0015043059 0.074219733 1.7173238e-38
0.99719524 -0.0040043057 0.076719731 1.6897731e-38
0.99719524 -0.0015043059 0.076719731 1.671406e-38
0.99969524 -0.0065043061 0.071719736 1.7081402e-38
1.0021952 -0.0065043061 0.069219738 1.7907922e-38
1.0021952 -0.0065043061 0.076719731 1.6346718e-38
0.99969524 -0.0040043057 0.071719736 1.6989567e-38
0.99969524 -0.0015043059 0.071719736 1.6897731e-38
1.0021952 -0.0040043057 0.069219738 1.7907922e-38
1.0021952 -0.0015043059 0.069219738 1.7999757e-38
0.99969524 -0.0040043057 0.074219733 1.6897731e-38
0.99969524 -0.0040043057 0.076719731 1.6622225e-38
0.99969524 -0.0015043059 0.076719731 1.6897731e-38
1.0021952 -0.0040043057 0.076719731 1.6346718e-38
1.0021952 -0.0015043059 0.076719731 1.6622225e-38
0.99469525 -0.009004306 0.079219736 1.6622225e-38
0.99469525 -0.0065043061 0.079219736 1.6622225e-38
0.99719524 -0.0065043061 0.079219736 1.6622225e-38
0.99469525 -0.009004306 0.084219731 1.6346718e-38
0.99469525 -0.0065043061 0.084219731 1.6346718e-38
0.99469525 -0.0065043061 0.086719736 1.6346718e-38
0.99469525 -0.0040043057 0.079219736 1.6622225e-38
0.99469525 -0.0015043059 0.079219736 1.6622225e-38
0.99719524 -0.0040043057 0.079219736 1.6622225e-38
0.99719524 -0.0015043059 0.079219736 1.6530389e-38
0.99469525 -0.0040043057 0.084219731 1.6346718e-38
0.99469525 -0.0040043057 0.086719736 1.6346718e-38
0.99469525 -0.0015043059 0.084219731 1.6346718e-38
0.99469525 -0.0015043059 0.086719736 1.6438554e-38
0.98719525 -0.016504306 0.094219737 1.6254883e-38
0.98719525 -0.014004306 0.091719732 1.6438554e-38
0.98719525 -0.011504306 0.091719732 1.6438554e-38
0.98719525 -0.014004306 0.094219737 1.6346718e-38
0.98719525 -0.011504306 0.094219737 1.6346718e-38
0.98969525 -0.016504306 0.091719732 1.6622225e-38
0.99219525 -0.019004306 0.089219734 1.6622225e-38
0.99219525 -0.019004306 0.091719732 1.6346718e-38
0.99219525 -0.016504306 0.089219734 1.6622225e-38
0.99219525 -0.016504306 0.091719732 1.6438554e-38
0.98969525 -0.016504306 0.096719734 1.6254883e-38
0.99219525 -0.019004306 0.094219737 1.6438554e-38
0.99219525 -0.019004306 0.096719734 1.6346718e-38
0.99219525 -0.016504306 0.094219737 1.6438554e-38
0.99219525 -0.016504306 0.096719734 1.6346718e-38
0.98969525 -0.014004306 0.089219734 1.6438554e-38
0.98969525 -0.014004306 0.091719732 1.6346718e-38
0.98969525 -0.011504306 0.089219734 1.6438554e-38
0.98969525 -0.011504306 0.091719732 1.6346718e-38
0.99219525 -0.014004306 0.089219734 1.6622225e-38
0.99219525 -0.014004306 0.091719732 1.6346718e-38
0.99219525 -0.011504306 0.089219734 1.6622225e-38
0.99219525 -0.011504306 0.091719732 1.6254883e-38
0.98969525 -0.014004306 0.096719734 1.6254883e-38
0.98969525 -0.011504306 0.096719734 1.6254883e-38
0.99219525 -0.014004306 0.094219737 1.6346718e-38
0.99219525 -0.014004306 0.096719734 1.6254883e-38
0.99219525 -0.011504306 0.094219737 1.6346718e-38
0.98719525 -0.014004306 0.10171974 1.6346718e-38
0.98719525 -0.011504306 0.099219732 1.6346718e-38
0.98719525 -0.011504306 0.10171974 1.6346718e-38
0.98969525 -0.019004306 0.099219732 1.6346718e-38
0.98969525 -0.016504306 0.099219732 1.6346718e-38
0.99219525 -0.019004306 0.10171974 1.6438554e-38
0.99219525 -0.016504306 0.10171974 1.6071212e-38
0.98969525 -0.019004306 0.10421973 1.6346718e-38
0.98969525 -0.016504306 0.10421973 1.6346718e-38
0.99219525 -0.019004306 0.10671973 1.6254883e-38
0.99219525 -0.016504306 0.10671973 1.6254883e-38
0.98969525 -0.014004306 0.099219732 1.5979376e-38
0.98969525 -0.014004306 0.10171974 1.6254883e-38
0.98969525 -0.011504306 0.099219732 1.5979376e-38
0.98969525 -0.011504306 0.10171974 1.6254883e-38
0.99219525 -0.014004306 0.10171974 1.5979376e-38
0.99219525 -0.011504306 0.10171974 1.5979376e-38
0.98969525 -0.014004306 0.10421973 1.6254883e-38
0.98969525 -0.011504306 0.10421973 1.6254883e-38
0.99219525 -0.014004306 0.10671973 1.6254883e-38
0.99219525 -0.011504306 0.10671973 1.6254883e-38
0.98719525 -0.009004306 0.091719732 1.6438554e-38
0.98719525 -0.009004306 0.094219737 1.6346718e-38
0.98719525 -0.0065043061 0.094219737 1.6346718e-38
0.98719525 -0.0040043057 0.094219737 1.6346718e-38
0.98969525 -0.009004306 0.089219734 1.6346718e-38
0.98969525 -0.009004306 0.091719732 1.6346718e-38
0.98969525 -0.0065043061 0.091719732 1.6346718e-38
0.99219525 -0.009004306 0.089219734 1.6346718e-38
0.99219525 -0.009004306 0.091719732 1.6254883e-38
0.99219525 -0.0065043061 0.089219734 1.6346718e-38
0.99219525 -0.0065043061 0.091719732 1.6346718e-38
0.98969525 -0.009004306 0.096719734 1.6346718e-38
0.98969525 -0.0065043061 0.096719734 1.6346718e-38
0.99219525 -0.009004306 0.094219737 1.6254883e-38
0.99219525 -0.009004306 0.096719734 1.6346718e-38
0.99219525 -0.0065043061 0.094219737 1.6346718e-38
0.99219525 -0.0065043061 0.096719734 1.6346718e-38
0.98969525 -0.0040043057 0.091719732 1.6346718e-38
0.99219525 -0.0040043057 0.089219734 1.6346718e-38
0.99219525 -0.0040043057 0.091719732 1.6346718e-38
0.99219525 -0.0015043059 0.089219734 1.6530389e-38
0.99219525 -0.0015043059 0.091719732 1.6438554e-38
0.98969525 -0.0040043057 0.096719734 1.6346718e-38
0.98969525 -0.0015043059 0.096719734 1.6346718e-38
0.99219525 -0.0040043057 0.094219737 1.6346718e-38
0.99219525 -0.0040043057 0.096719734 1.6346718e-38
0.99219525 -0.0015043059 0.094219737 1.6254883e-38
0.99219525 -0.0015043059 0.096719734 1.6254883e-38
0.98719525 -0.009004306 0.099219732 1.6346718e-38
0.98719525 -0.009004306 0.10171974 1.6346718e-38
0.98969525 -0.009004306 0.099219732 1.6346718e-38
0.98969525 -0.009004306 0.10171974 1.6254883e-38
0.98969525 -0.0065043061 0.099219732 1.6254883e-38
0.98969525 -0.0065043061 0.10171974 1.6071212e-38
0.99219525 -0.009004306 0.10171974 1.6071212e-38
0.99219525 -0.0065043061 0.10171974 1.6346718e-38
0.98969525 -0.009004306 0.10421973 1.6254883e-38
0.98969525 -0.0065043061 0.10421973 1.6346718e-38
0.99219525 -0.009004306 0.10671973 1.6254883e-38
0.99219525 -0.0065043061 0.10671973 1.6254883e-38
0.98969525 -0.0040043057 0.099219732 1.6346718e-38
0.98969525 -0.0040043057 0.10171974 1.6254883e-38
0.98969525 -0.0015043059 0.099219732 1.6254883e-38
0.98969525 -0.0015043059 0.10171974 1.6346718e-38
0.99219525 -0.0040043057 0.10171974 1.6346718e-38
0.99219525 -0.0015043059 0.10171974 1.6254883e-38
0.98969525 -0.0040043057 0.10421973 1.6346718e-38
0.98969525 -0.0015043059 0.10421973 1.6254883e-38
0.99219525 -0.0040043057 0.10671973 1.6254883e-38
0.99219525 -0.0015043059 0.10671973 1.5887544e-38
0.99469525 -0.019004306 0.091719732 1.6346718e-38
0.99469525 -0.016504306 0.091719732 1.6438554e-38
0.99469525 -0.019004306 0.094219737 1.6346718e-38
0.99469525 -0.019004306 0.096719734 1.6346718e-38
0.99469525 -0.016504306 0.094219737 1.6438554e-38
0.99469525 -0.016504306 0.096719734 1.6254883e-38
0.99469525 -0.019004306 0.099219732 1.6346718e-38
0.99469525 -0.016504306 0.099219732 1.6438554e-38
0.99469525 -0.019004306 0.10421973 1.6254883e-38
0.99469525 -0.019004306 0.10671973 1.6254883e-38
0.99469525 -0.016504306 0.10421973 1.6254883e-38
0.99469525 -0.016504306 0.10671973 1.6254883e-38
0.99469525 -0.014004306 0.10421973 1.6254883e-38
0.99469525 -0.014004306 0.10671973 1.6254883e-38
0.99469525 -0.011504306 0.10421973 1.6254883e-38
0.99469525 -0.011504306 0.10671973 1.6254883e-38
0.99469525 -0.0065043061 0.089219734 1.6346718e-38
0.99469525 -0.0065043061 0.091719732 1.6346718e-38
0.99469525 -0.0065043061 0.096719734 1.6346718e-38
0.99469525 -0.0040043057 0.089219734 1.6346718e-38
0.99469525 -0.0040043057 0.091719732 1.6346718e-38
0.99469525 -0.0015043059 0.089219734 1.6438554e-38
0.99469525 -0.0015043059 0.091719732 1.6438554e-38
0.99469525 -0.0040043057 0.096719734 1.6346718e-38
0.99469525 -0.0015043059 0.094219737 1.6346718e-38
0.99469525 -0.009004306 0.10421973 1.6254883e-38
0.99469525 -0.009004306 0.10671973 1.6254883e-38
0.99469525 -0.0040043057 0.10671973 1.6254883e-38
0.99219525 0.00099569408 0.076719731 1.6805896e-38
0.99219525 0.0034956941 0.076719731 1.6805896e-38
0.99219525 0.0059956941 0.076719731 1.6622225e-38
0.99219525 0.008495694 0.076719731 1.6989567e-38
0.98969525 0.00099569408 0.081719734 1.6622225e-38
0.98969525 0.0034956941 0.081719734 1.6622225e-38
0.99219525 0.00099569408 0.081719734 1.6622225e-38
0.99219525 0.0034956941 0.081719734 1.6622225e-38
0.98969525 0.00099569408 0.084219731 1.6805896e-38
0.98969525 0.0034956941 0.084219731 1.6622225e-38
0.99219525 0.00099569408 0.084219731 1.6346718e-38
0.99219525 0.00099569408 0.086719736 1.6622225e-38
0.99219525 0.0034956941 0.084219731 1.6622225e-38
0.99219525 0.0034956941 0.086719736 1.6622225e-38
0.98969525 0.008495694 0.081719734 1.6897731e-38
0.99219525 0.0059956941 0.081719734 1.6622225e-38
0.99219525 0.008495694 0.081719734 1.6622225e-38
0.98969525 0.008495694 0.084219731 1.6622225e-38
0.99219525 0.0059956941 0.084219731 1.6622225e-38
0.99219525 0.008495694 0.084219731 1.6622225e-38
0.99219525 0.008495694 0.086719736 1.6622225e-38
0.99219525 0.010995694 0.076719731 1.6622225e-38
0.99219525 0.013495694 0.076719731 1.6622225e-38
0.99219525 0.010995694 0.081719734 1.6622225e-38
0.99219525 0.013495694 0.081719734 1.6622225e-38
0.98969525 0.010995694 0.084219731 1.6622225e-38
0.98969525 0.013495694 0.084219731 1.6622225e-38
0.99219525 0.010995694 0.084219731 1.6622225e-38
0.99219525 0.010995694 0.086719736 1.6622225e-38
0.99219525 0.013495694 0.084219731 1.6622225e-38
0.99219525 0.013495694 0.086719736 1.6346718e-38
0.99219525 0.015995694 0.081719734 1.6622225e-38
0.99219525 0.018495694 0.081719734 1.6622225e-38
0.98969525 0.015995694 0.084219731 1.6622225e-38
0.99219525 0.015995694 0.084219731 1.6622225e-38
0.99219525 0.015995694 0.086719736 1.6346718e-38
0.99219525 0.018495694 0.084219731 1.6346718e-38
0.99469525 0.00099569408 0.071719736 1.7724251e-38
0.99469525 0.0034956941 0.071719736 1.7816086e-38
0.99719524 0.00099569408 0.069219738 1.8183428e-38
0.99719524 0.00099569408 0.071719736 1.7907922e-38
0.99719524 0.0034956941 0.069219738 1.8091593e-38
0.99719524 0.0034956941 0.071719736 1.8183428e-38
0.99469525 0.00099569408 0.074219733 1.6897731e-38
0.99469525 0.0034956941 0.074219733 1.6989567e-38
0.99719524 0.00099569408 0.076719731 1.6622225e-38
0.99719524 0.0034956941 0.076719731 1.6622225e-38
0.99469525 0.0059956941 0.071719736 1.7907922e-38
0.99469525 0.008495694 0.071719736 1.7816086e-38
0.99719524 0.0059956941 0.069219738 1.7999757e-38
0.99719524 0.0059956941 0.071719736 1.7999757e-38
0.99719524 0.008495694 0.069219738 1.7999757e-38
0.99719524 0.008495694 0.071719736 1.7816086e-38
0.99469525 0.0059956941 0.074219733 1.6989567e-38
0.99469525 0.008495694 0.074219733 1.6989567e-38
0.99719524 0.0059956941 0.076719731 1.6622225e-38
0.99719524 0.008495694 0.076719731 1.6622225e-38
0.99969524 0.00099569408 0.071719736 1.6897731e-38
0.99969524 0.0034956941 0.071719736 1.6805896e-38
1.0021952 0.00099569408 0.069219738 1.7999757e-38
1.0021952 0.0034956941 0.069219738 1.7907922e-38
0.99969524 0.00099569408 0.074219733 1.6622225e-38
0.99969524 0.0034956941 0.074219733 1.6622225e-38
1.0021952 0.00099569408 0.076719731 1.6346718e-38
0.99969524 0.0059956941 0.071719736 1.6989567e-38
0.99969524 0.008495694 0.071719736 1.6989567e-38
0.99469525 0.00099569408 0.079219736 1.6622225e-38
0.99469525 0.0034956941 0.079219736 1.6622225e-38
0.99719524 0.00099569408 0.079219736 1.6622225e-38
0.99469525 0.00099569408 0.084219731 1.6438554e-38
0.99469525 0.00099569408 0.086719736 1.6438554e-38
0.99469525 0.0034956941 0.084219731 1.6346718e-38
0.99469525 0.0034956941 0.086719736 1.6438554e-38
0.99469525 0.0059956941 0.079219736 1.6346718e-38
0.99469525 0.008495694 0.079219736 1.6438554e-38
0.99469525 0.0059956941 0.084219731 1.6346718e-38
0.99469525 0.0059956941 0.086719736 1.6346718e-38
0.99469525 0.008495694 0.084219731 1.6346718e-38
0.99469525 0.008495694 0.086719736 1.6346718e-38
0.99469525 0.010995694 0.071719736 1.8091593e-38
0.99469525 0.013495694 0.071719736 1.7999757e-38
0.99719524 0.010995694 0.069219738 1.8183428e-38
0.99719524 0.010995694 0.071719736 1.7816086e-38
0.99719524 0.013495694 0.071719736 1.8091593e-38
0.99469525 0.010995694 0.074219733 1.671406e-38
0.99469525 0.013495694 0.074219733 1.6346718e-38
0.99719524 0.010995694 0.076719731 1.6622225e-38
0.99719524 0.013495694 0.076719731 1.6622225e-38
0.99469525 0.015995694 0.074219733 1.6438554e-38
0.99469525 0.018495694 0.074219733 1.6438554e-38
0.99719524 0.015995694 0.076719731 1.6622225e-38
0.99719524 0.018495694 0.076719731 1.6622225e-38
0.99969524 0.010995694 0.071719736 1.6897731e-38
0.99969524 0.018495694 0.071719736 1.6438554e-38
0.99969524 0.018495694 0.074219733 1.6622225e-38
0.99469525 0.010995694 0.079219736 1.6622225e-38
0.99469525 0.013495694 0.079219736 1.6622225e-38
0.99469525 0.010995694 0.084219731 1.6346718e-38
0.99469525 0.010995694 0.086719736 1.6438554e-38
0.99469525 0.013495694 0.084219731 1.6530389e-38
0.99469525 0.013495694 0.086719736 1.6346718e-38
0.99469525 0.015995694 0.079219736 1.6622225e-38
0.99469525 0.018495694 0.079219736 1.6346718e-38
0.99719524 0.018495694 0.081719734 1.6346718e-38
0.99469525 0.015995694 0.084219731 1.6622225e-38
0.99469525 0.015995694 0.086719736 1.6346718e-38
0.99469525 0.018495694 0.084219731 1.6346718e-38
0.99469525 0.018495694 0.086719736 1.6346718e-38
0.99219525 0.00099569408 0.089219734 1.6622225e-38
0.99219525 0.0034956941 0.089219734 1.6622225e-38
0.99219525 0.00099569408 0.094219737 1.6346718e-38
0.99219525 0.00099569408 0.096719734 1.5979376e-38
0.99219525 0.0034956941 0.096719734 1.5979376e-38
0.99219525 0.008495694 0.089219734 1.6346718e-38
0.99219525 0.0059956941 0.096719734 1.6346718e-38
0.98969525 0.00099569408 0.099219732 1.6254883e-38
0.98969525 0.0034956941 0.099219732 1.6254883e-38
0.99219525 0.00099569408 0.10171974 1.6254883e-38
0.99219525 0.0034956941 0.10171974 1.6254883e-38
0.98969525 0.00099569408 0.10421973 1.6071212e-38
0.98969525 0.0034956941 0.10421973 1.5979376e-38
0.99219525 0.00099569408 0.10671973 1.6071212e-38
0.99219525 0.0034956941 0.10671973 1.6071212e-38
0.99219525 0.0059956941 0.10171974 1.6254883e-38
0.99219525 0.008495694 0.10171974 1.6346718e-38
0.98969525 0.0059956941 0.10421973 1.5979376e-38
0.99219525 0.0059956941 0.10671973 1.6254883e-38
0.99219525 0.008495694 0.10671973 1.6071212e-38
0.99219525 0.010995694 0.089219734 1.6346718e-38
0.99219525 0.013495694 0.089219734 1.6346718e-38
0.99219525 0.015995694 0.089219734 1.6346718e-38
0.99219525 0.010995694 0.10171974 1.6346718e-38
0.99219525 0.010995694 0.10671973 1.6071212e-38
0.99219525 0.013495694 0.10671973 1.6254883e-38
0.99219525 0.015995694 0.10671973 1.5979376e-38
0.99219525 0.018495694 0.10671973 1.6071212e-38
0.99469525 0.00099569408 0.089219734 1.6438554e-38
0.99469525 0.00099569408 0.091719732 1.6438554e-38
0.99469525 0.0034956941 0.089219734 1.6346718e-38
0.99469525 0.0034956941 0.091719732 1.6438554e-38
0.99719524 0.00099569408 0.089219734 1.6438554e-38
0.99719524 0.0034956941 0.089219734 1.6346718e-38
0.99469525 0.00099569408 0.094219737 1.6254883e-38
0.99469525 0.00099569408 0.096719734 1.6071212e-38
0.99469525 0.0034956941 0.094219737 1.6254883e-38
0.99469525 0.0034956941 0.096719734 1.6254883e-38
0.99469525 0.0059956941 0.089219734 1.6346718e-38
0.99469525 0.0059956941 0.091719732 1.6346718e-38
0.99469525 0.008495694 0.089219734 1.6346718e-38
0.99469525 0.008495694 0.091719732 1.6346718e-38
0.99719524 0.0059956941 0.089219734 1.6346718e-38
0.99719524 0.008495694 0.089219734 1.6346718e-38
0.99719524 0.008495694 0.091719732 1.6346718e-38
0.99469525 0.0059956941 0.094219737 1.6346718e-38
0.99469525 0.0059956941 0.096719734 1.6254883e-38
0.99469525 0.008495694 0.094219737 1.6346718e-38
0.99469525 0.008495694 0.096719734 1.6254883e-38
0.99719524 0.0059956941 0.096719734 1.6346718e-38
0.99719524 0.008495694 0.096719734 1.6254883e-38
0.99969524 0.008495694 0.094219737 1.6346718e-38
0.99469525 0.00099569408 0.099219732 1.6346718e-38
0.99469525 0.0034956941 0.099219732 1.6346718e-38
0.99719524 0.00099569408 0.10171974 1.6346718e-38
0.99719524 0.0034956941 0.10171974 1.6254883e-38
0.99469525 0.0034956941 0.10421973 1.6254883e-38
0.99469525 0.0034956941 0.10671973 1.6254883e-38
0.99469525 0.0059956941 0.099219732 1.6254883e-38
0.99469525 0.008495694 0.099219732 1.6254883e-38
0.99719524 0.0059956941 0.10171974 1.6254883e-38
0.99719524 0.008495694 0.099219732 1.6346718e-38
0.99719524 0.008495694 0.10171974 1.6254883e-38
0.99469525 0.0059956941 0.10421973 1.6071212e-38
0.99469525 0.0059956941 0.10671973 1.6254883e-38
0.99469525 0.008495694 0.10421973 1.6254883e-38
0.99469525 0.008495694 0.10671973 1.6254883e-38
0.99469525 0.010995694 0.089219734 1.6438554e-38
0.99469525 0.010995694 0.091719732 1.6346718e-38
0.99469525 0.013495694 0.089219734 1.6346718e-38
0.99469525 0.013495694 0.091719732 1.6346718e-38
0.99719524 0.010995694 0.089219734 1.6346718e-38
0.99719524 0.010995694 0.091719732 1.6254883e-38
0.99719524 0.013495694 0.089219734 1.6438554e-38
0.99719524 0.013495694 0.091719732 1.6346718e-38
0.99469525 0.010995694 0.094219737 1.6346718e-38
0.99469525 0.013495694 0.094219737 1.6346718e-38
0.99719524 0.010995694 0.096719734 1.6254883e-38
0.99719524 0.013495694 0.096719734 1.6346718e-38
0.99469525 0.015995694 0.089219734 1.6346718e-38
0.99469525 0.015995694 0.091719732 1.6346718e-38
0.99469525 0.018495694 0.089219734 1.6346718e-38
0.99469525 0.018495694 0.091719732 1.6346718e-38
0.99719524 0.015995694 0.089219734 1.6346718e-38
0.99719524 0.015995694 0.091719732 1.6346718e-38
0.99719524 0.018495694 0.089219734 1.6346718e-38
0.99719524 0.018495694 0.091719732 1.6346718e-38
0.99469525 0.015995694 0.094219737 1.6346718e-38
0.99469525 0.018495694 0.094219737 1.6254883e-38
0.99719524 0.015995694 0.096719734 1.6346718e-38
0.99719524 0.018495694 0.096719734 1.6254883e-38
0.99969524 0.010995694 0.094219737 1.6254883e-38
0.99969524 0.013495694 0.094219737 1.5979376e-38
0.99969524 0.015995694 0.094219737 1.6254883e-38
0.99969524 0.015995694 0.096719734 1.6254883e-38
0.99969524 0.018495694 0.094219737 1.6254883e-38
0.99969524 0.018495694 0.096719734 1.6254883e-38
