# .PCD v0.7 - Point Cloud Data file format
VERSION 0.7
FIELDS x y z rgb
SIZE 4 4 4 4
TYPE F F F F
COUNT 1 1 1 1
WIDTH 983
HEIGHT 1
VIEWPOINT 0 0 0 1 0 0 0
POINTS 983
DATA ascii
0.87317586 -0.010923042 0.12831913 1.8458935e-38
0.87317586 -0.0084230416 0.12831913 1.8458935e-38
0.87067586 -0.0059230421 0.12081914 1.6438554e-38
0.87067586 -0.0034230419 0.12081914 1.6438554e-38
0.87067586 -0.0059230421 0.12581913 1.6438554e-38
0.87067586 -0.0059230421 0.12831913 1.7356909e-38
0.87067586 -0.0034230419 0.12581913 1.6530389e-38
0.87067586 -0.0034230419 0.12831913 1.7265073e-38
0.87317586 -0.0059230421 0.12831913 1.855077e-38
0.87317586 -0.0034230419 0.12831913 1.7816086e-38
0.86817586 -0.010923042 0.13081914 1.754058e-38
0.86567587 -0.0034230419 0.13081914 1.754058e-38
0.86567587 -0.0034230419 0.13331914 1.7999757e-38
0.86817586 -0.0059230421 0.13081914 1.7265073e-38
0.86817586 -0.0034230419 0.13081914 1.7448744e-38
0.87067586 -0.010923042 0.13081914 1.8458935e-38
0.87067586 -0.0084230416 0.13081914 1.8183428e-38
0.87317586 -0.010923042 0.13081914 1.8091593e-38
0.87317586 -0.0084230416 0.13081914 1.7907922e-38
0.87067586 -0.0059230421 0.13081914 1.8275264e-38
0.87067586 -0.0034230419 0.13081914 1.8275264e-38
0.87317586 -0.0059230421 0.13081914 1.7999757e-38
0.87317586 -0.0034230419 0.13081914 1.7907922e-38
0.87567586 -0.0059230421 0.12831913 1.8091593e-38
0.86817586 -0.00092304201 0.10581914 1.7265077e-38
0.86817586 0.0040769582 0.10331914 1.7265073e-38
0.86817586 0.0065769581 0.10331914 1.7265073e-38
0.87067586 -0.00092304201 0.10081913 1.7265073e-38
0.87067586 -0.00092304201 0.10331914 1.7173238e-38
0.87067586 0.001576958 0.10081913 1.7265073e-38
0.87317586 -0.00092304201 0.10331914 1.754058e-38
0.87317586 0.001576958 0.10331914 1.7356909e-38
0.87067586 -0.00092304201 0.10581914 1.7173238e-38
0.87067586 -0.00092304201 0.10831913 1.7265073e-38
0.87067586 0.001576958 0.10581914 1.7081402e-38
0.87067586 0.001576958 0.10831913 1.7081402e-38
0.87317586 -0.00092304201 0.10831913 1.7173238e-38
0.87317586 0.001576958 0.10831913 1.7081402e-38
0.87067586 0.0040769582 0.10081913 1.7265073e-38
0.87067586 0.0040769582 0.10331914 1.7265073e-38
0.87067586 0.0065769581 0.10081913 1.7356909e-38
0.87067586 0.0065769581 0.10331914 1.7265073e-38
0.87317586 0.0040769582 0.10331914 1.7265073e-38
0.87317586 0.0065769581 0.10331914 1.7356909e-38
0.87067586 0.0040769582 0.10581914 1.7081402e-38
0.87067586 0.0040769582 0.10831913 1.7081402e-38
0.87067586 0.0065769581 0.10581914 1.7081402e-38
0.87067586 0.0065769581 0.10831913 1.7356909e-38
0.87317586 0.0040769582 0.10831913 1.7081402e-38
0.87317586 0.0065769581 0.10831913 1.7081402e-38
0.86817586 -0.00092304201 0.11081914 1.7081402e-38
0.86817586 -0.00092304201 0.11581913 1.7081402e-38
0.86817586 -0.00092304201 0.11831914 1.6805896e-38
0.86817586 0.001576958 0.11581913 1.7081402e-38
0.86817586 0.001576958 0.11831914 1.6805896e-38
0.86567587 0.0065769581 0.11831914 1.6897731e-38
0.86817586 0.0040769582 0.11831914 1.6805896e-38
0.86817586 0.0065769581 0.11831914 1.671406e-38
0.87067586 -0.00092304201 0.11081914 1.754058e-38
0.87067586 -0.00092304201 0.11331914 1.7265073e-38
0.87067586 0.001576958 0.11081914 1.7448744e-38
0.87317586 -0.00092304201 0.11081914 1.7265073e-38
0.87317586 -0.00092304201 0.11331914 1.7173238e-38
0.87317586 0.001576958 0.11081914 1.7081402e-38
0.87317586 0.001576958 0.11331914 1.6989567e-38
0.87067586 -0.00092304201 0.11581913 1.6897731e-38
0.87067586 -0.00092304201 0.11831914 1.6530389e-38
0.87067586 0.001576958 0.11581913 1.6805896e-38
0.87067586 0.001576958 0.11831914 1.6530389e-38
0.87317586 -0.00092304201 0.11831914 1.671406e-38
0.87317586 0.001576958 0.11831914 1.671406e-38
0.87067586 0.0040769582 0.11081914 1.7081402e-38
0.87067586 0.0040769582 0.11331914 1.7081404e-38
0.87067586 0.0065769581 0.11081914 1.7356909e-38
0.87317586 0.0040769582 0.11081914 1.7081402e-38
0.87317586 0.0040769582 0.11331914 1.7081402e-38
0.87317586 0.0065769581 0.11081914 1.7081402e-38
0.87317586 0.0065769581 0.11331914 1.7081402e-38
0.87067586 0.0040769582 0.11581913 1.6805896e-38
0.87067586 0.0040769582 0.11831914 1.6530389e-38
0.87067586 0.0065769581 0.11581913 1.671406e-38
0.87067586 0.0065769581 0.11831914 1.671406e-38
0.87317586 0.0040769582 0.11831914 1.6530389e-38
0.87317586 0.0065769581 0.11831914 1.671406e-38
0.86817586 0.0090769576 0.10331914 1.7081402e-38
0.86817586 0.011576958 0.10331914 1.7265073e-38
0.86817586 0.011576958 0.10581914 1.7448744e-38
0.86817586 0.014076958 0.10331914 1.7356909e-38
0.86817586 0.014076958 0.10581914 1.7356909e-38
0.87067586 0.0090769576 0.10081913 1.7448744e-38
0.87067586 0.0090769576 0.10331914 1.7081402e-38
0.87067586 0.011576958 0.10081913 1.7356909e-38
0.87067586 0.011576958 0.10331914 1.7081402e-38
0.87317586 0.0090769576 0.10331914 1.7081402e-38
0.87317586 0.011576958 0.10331914 1.7356909e-38
0.87067586 0.0090769576 0.10581914 1.7081402e-38
0.87067586 0.0090769576 0.10831913 1.7265073e-38
0.87067586 0.011576958 0.10581914 1.7081402e-38
0.87067586 0.011576958 0.10831913 1.7265073e-38
0.87317586 0.0090769576 0.10831913 1.7081402e-38
0.87317586 0.011576958 0.10831913 1.7265073e-38
0.87067586 0.014076958 0.10081913 1.7356909e-38
0.87067586 0.014076958 0.10331914 1.6989567e-38
0.87067586 0.016576959 0.10081913 1.7448744e-38
0.87067586 0.016576959 0.10331914 1.7356909e-38
0.87317586 0.014076958 0.10331914 1.754058e-38
0.87317586 0.016576959 0.10331914 1.7081402e-38
0.87067586 0.014076958 0.10581914 1.7265073e-38
0.87067586 0.016576959 0.10581914 1.7356909e-38
0.87317586 0.014076958 0.10831913 1.7356909e-38
0.87317586 0.016576959 0.10831913 1.7356909e-38
0.86567587 0.0090769576 0.11331914 1.6989567e-38
0.86567587 0.011576958 0.11331914 1.6989567e-38
0.86817586 0.0090769576 0.11081914 1.6989567e-38
0.86817586 0.011576958 0.11081914 1.6989567e-38
0.86567587 0.0090769576 0.11831914 1.671406e-38
0.86567587 0.011576958 0.11581913 1.6989567e-38
0.86567587 0.011576958 0.11831914 1.6989567e-38
0.86817586 0.0090769576 0.11581913 1.6989567e-38
0.86817586 0.0090769576 0.11831914 1.6897731e-38
0.86817586 0.011576958 0.11581913 1.6989567e-38
0.86817586 0.011576958 0.11831914 1.671406e-38
0.86567587 0.014076958 0.11331914 1.6989567e-38
0.86567587 0.014076958 0.11581913 1.6989567e-38
0.86567587 0.014076958 0.11831914 1.6897731e-38
0.86817586 0.014076958 0.11581913 1.7081402e-38
0.86817586 0.014076958 0.11831914 1.6805896e-38
0.86817586 0.016576959 0.11581913 1.6805896e-38
0.86817586 0.016576959 0.11831914 1.671406e-38
0.87067586 0.0090769576 0.11081914 1.7081402e-38
0.87067586 0.011576958 0.11081914 1.7081402e-38
0.87317586 0.0090769576 0.11081914 1.7081402e-38
0.87317586 0.0090769576 0.11331914 1.7081402e-38
0.87317586 0.011576958 0.11081914 1.7081402e-38
0.87317586 0.011576958 0.11331914 1.7448744e-38
0.87067586 0.0090769576 0.11581913 1.6989567e-38
0.87067586 0.0090769576 0.11831914 1.671406e-38
0.87067586 0.011576958 0.11581913 1.6989567e-38
0.87067586 0.011576958 0.11831914 1.671406e-38
0.87317586 0.0090769576 0.11831914 1.6530389e-38
0.87317586 0.011576958 0.11831914 1.6805896e-38
0.87067586 0.014076958 0.11081914 1.6989567e-38
0.87067586 0.014076958 0.11331914 1.7081402e-38
0.87067586 0.016576959 0.11081914 1.6989567e-38
0.87067586 0.016576959 0.11331914 1.6805896e-38
0.87317586 0.014076958 0.11081914 1.7081402e-38
0.87317586 0.016576959 0.11081914 1.7265073e-38
0.87317586 0.016576959 0.11331914 1.6989567e-38
0.87067586 0.014076958 0.11581913 1.6989567e-38
0.87067586 0.014076958 0.11831914 1.671406e-38
0.87067586 0.016576959 0.11581913 1.7356909e-38
0.87067586 0.016576959 0.11831914 1.671406e-38
0.87317586 0.014076958 0.11831914 1.671406e-38
0.87317586 0.016576959 0.11831914 1.6438554e-38
0.87567586 0.001576958 0.10081913 1.7265073e-38
0.87567586 0.001576958 0.10331914 1.7265073e-38
0.87567586 0.001576958 0.10581914 1.7081402e-38
0.87567586 0.001576958 0.10831913 1.7081402e-38
0.87567586 0.0040769582 0.10081913 1.7356909e-38
0.87567586 0.0040769582 0.10331914 1.7356909e-38
0.87567586 0.0040769582 0.10581914 1.7081402e-38
0.87567586 0.0040769582 0.10831913 1.7448744e-38
0.87567586 0.0065769581 0.10581914 1.7081402e-38
0.87567586 0.0065769581 0.10831913 1.7448744e-38
0.87567586 -0.00092304201 0.11081914 1.7081402e-38
0.87567586 -0.00092304201 0.11331914 1.6805896e-38
0.87567586 0.001576958 0.11081914 1.7081402e-38
0.87567586 0.001576958 0.11331914 1.6897731e-38
0.87567586 -0.00092304201 0.11581913 1.6805896e-38
0.87567586 0.001576958 0.11581913 1.671406e-38
0.87817591 -0.00092304201 0.11581913 1.6805896e-38
0.87567586 0.0040769582 0.11081914 1.7081402e-38
0.87567586 0.0040769582 0.11331914 1.6989567e-38
0.87567586 0.0065769581 0.11081914 1.7081402e-38
0.87567586 0.0065769581 0.11331914 1.7081402e-38
0.87817591 0.0065769581 0.11081914 1.7081402e-38
0.87567586 0.0040769582 0.11581913 1.6805896e-38
0.87567586 0.0040769582 0.11831914 1.6438554e-38
0.87567586 0.0065769581 0.11581913 1.6805896e-38
0.87567586 0.0090769576 0.10581914 1.6805896e-38
0.87567586 0.0090769576 0.10831913 1.7265073e-38
0.87567586 0.011576958 0.10581914 1.7448744e-38
0.87567586 0.016576959 0.10081913 1.7265073e-38
0.87567586 0.014076958 0.10581914 1.7356909e-38
0.87567586 0.014076958 0.10831913 1.7081402e-38
0.87567586 0.016576959 0.10581914 1.7356909e-38
0.87567586 0.016576959 0.10831913 1.7081402e-38
0.87567586 0.0090769576 0.11081914 1.7081402e-38
0.87567586 0.0090769576 0.11331914 1.6989567e-38
0.87567586 0.011576958 0.11081914 1.7081402e-38
0.87567586 0.011576958 0.11331914 1.7081402e-38
0.87817591 0.0090769576 0.11081914 1.7081402e-38
0.87817591 0.0090769576 0.11331914 1.6805896e-38
0.87817591 0.011576958 0.11081914 1.7081402e-38
0.87817591 0.011576958 0.11331914 1.6989567e-38
0.87567586 0.0090769576 0.11581913 1.6805896e-38
0.87567586 0.011576958 0.11581913 1.6530389e-38
0.87567586 0.014076958 0.11081914 1.7081402e-38
0.87567586 0.014076958 0.11331914 1.6989567e-38
0.87567586 0.016576959 0.11081914 1.7081402e-38
0.87567586 0.016576959 0.11331914 1.6989567e-38
0.87817591 0.014076958 0.11081914 1.7081402e-38
0.87817591 0.016576959 0.11081914 1.7081402e-38
0.87817591 0.016576959 0.11331914 1.6989567e-38
0.87567586 0.014076958 0.11581913 1.671406e-38
0.87567586 0.016576959 0.11581913 1.671406e-38
0.87567586 0.016576959 0.11831914 1.6438554e-38
0.87817591 0.016576959 0.11581913 1.671406e-38
0.87817591 0.016576959 0.11831914 1.5979376e-38
0.88067591 0.0090769576 0.11081914 1.7081402e-38
0.88067591 0.011576958 0.11081914 1.7081402e-38
0.86817586 -0.00092304201 0.12081914 1.6438554e-38
0.86817586 -0.00092304201 0.12331913 1.6163047e-38
0.86817586 0.001576958 0.12081914 1.6438554e-38
0.86817586 0.001576958 0.12331913 1.6163047e-38
0.86567587 -0.00092304201 0.12581913 1.6438554e-38
0.86567587 -0.00092304201 0.12831913 1.6530389e-38
0.86567587 0.001576958 0.12581913 1.6346718e-38
0.86567587 0.001576958 0.12831913 1.6438554e-38
0.86817586 -0.00092304201 0.12581913 1.6438554e-38
0.86817586 0.001576958 0.12581913 1.6438554e-38
0.86817586 0.0040769582 0.12081914 1.6346718e-38
0.86817586 0.0040769582 0.12331913 1.6438554e-38
0.86817586 0.0065769581 0.12081914 1.6438554e-38
0.86817586 0.0065769581 0.12331913 1.6254883e-38
0.86567587 0.0040769582 0.12581913 1.6438554e-38
0.86567587 0.0040769582 0.12831913 1.6438554e-38
0.86817586 0.0040769582 0.12581913 1.6438554e-38
0.86817586 0.0065769581 0.12581913 1.6438554e-38
0.87067586 -0.00092304201 0.12081914 1.6438554e-38
0.87067586 0.001576958 0.12081914 1.6254883e-38
0.87067586 -0.00092304201 0.12581913 1.6346718e-38
0.87067586 -0.00092304201 0.12831913 1.7265073e-38
0.87067586 0.001576958 0.12581913 1.6346718e-38
0.87067586 0.001576958 0.12831913 1.6989567e-38
0.87317586 -0.00092304201 0.12831913 1.8091593e-38
0.87317586 0.001576958 0.12831913 1.7724251e-38
0.87067586 0.0040769582 0.12081914 1.5887541e-38
0.87067586 0.0065769581 0.12081914 1.6438554e-38
0.87317586 0.0040769582 0.12331913 1.6438554e-38
0.87317586 0.0065769581 0.12331913 1.6346718e-38
0.87067586 0.0040769582 0.12581913 1.6438554e-38
0.87067586 0.0040769582 0.12831913 1.7265073e-38
0.87067586 0.0065769581 0.12581913 1.6438554e-38
0.87067586 0.0065769581 0.12831913 1.7448744e-38
0.87317586 0.0040769582 0.12831913 1.8183428e-38
0.87317586 0.0065769581 0.12831913 1.8458935e-38
0.86567587 -0.00092304201 0.13081914 1.7265073e-38
0.86567587 -0.00092304201 0.13331914 1.7907922e-38
0.86567587 0.001576958 0.13081914 1.7265073e-38
0.86567587 0.001576958 0.13331914 1.7907922e-38
0.86817586 -0.00092304201 0.13081914 1.7448744e-38
0.86817586 -0.00092304201 0.13331914 1.8091593e-38
0.86817586 0.001576958 0.13081914 1.7265073e-38
0.86817586 0.001576958 0.13331914 1.8091593e-38
0.86567587 0.0040769582 0.13081914 1.7265073e-38
0.86567587 0.0065769581 0.13081914 1.7265073e-38
0.86817586 0.0040769582 0.13081914 1.754058e-38
0.86817586 0.0040769582 0.13331914 1.8091593e-38
0.86817586 0.0065769581 0.13081914 1.8642606e-38
0.86817586 0.0065769581 0.13331914 1.8367099e-38
0.87067586 -0.00092304201 0.13081914 1.8183428e-38
0.87067586 0.001576958 0.13081914 1.8091593e-38
0.87317586 -0.00092304201 0.13081914 1.7907922e-38
0.87067586 0.0040769582 0.13081914 1.8367099e-38
0.87067586 0.0065769581 0.13081914 1.8458935e-38
0.87317586 0.0065769581 0.13081914 1.7999757e-38
0.86567587 0.0090769576 0.12081914 1.671406e-38
0.86567587 0.0090769576 0.12331913 1.6438554e-38
0.86817586 0.0090769576 0.12081914 1.6530389e-38
0.86817586 0.0090769576 0.12331913 1.6163047e-38
0.86817586 0.011576958 0.12081914 1.671406e-38
0.86817586 0.011576958 0.12331913 1.6071212e-38
0.86567587 0.0090769576 0.12581913 1.6071212e-38
0.86817586 0.0090769576 0.12581913 1.6622225e-38
0.86817586 0.014076958 0.12331913 1.6071212e-38
0.87067586 0.0090769576 0.12081914 1.6530389e-38
0.87067586 0.011576958 0.12081914 1.6530389e-38
0.87317586 0.0090769576 0.12331913 1.6346718e-38
0.87317586 0.011576958 0.12331913 1.6254883e-38
0.87067586 0.0090769576 0.12581913 1.6438554e-38
0.87067586 0.0090769576 0.12831913 1.7448744e-38
0.87067586 0.011576958 0.12581913 1.6438554e-38
0.87067586 0.011576958 0.12831913 1.7265073e-38
0.87317586 0.0090769576 0.12831913 1.8367099e-38
0.87317586 0.011576958 0.12581913 1.6438554e-38
0.87317586 0.011576958 0.12831913 1.8367099e-38
0.87067586 0.014076958 0.12081914 1.6438554e-38
0.87067586 0.016576959 0.12081914 1.6438554e-38
0.87317586 0.014076958 0.12331913 1.6163047e-38
0.87317586 0.016576959 0.12331913 1.6163047e-38
0.87067586 0.014076958 0.12581913 1.6254883e-38
0.87067586 0.014076958 0.12831913 1.7265073e-38
0.87317586 0.014076958 0.12581913 1.6530389e-38
0.87317586 0.014076958 0.12831913 1.8183428e-38
0.86817586 0.0090769576 0.13081914 1.855077e-38
0.86817586 0.0090769576 0.13331914 1.8091593e-38
0.87067586 0.0090769576 0.13081914 1.8458935e-38
0.87067586 0.011576958 0.13081914 1.790793e-38
0.87317586 0.0090769576 0.13081914 1.7999757e-38
0.87317586 0.0090769576 0.13331914 1.6989567e-38
0.87317586 0.011576958 0.13081914 1.7907922e-38
0.87317586 0.011576958 0.13331914 1.6989567e-38
0.87067586 0.014076958 0.13081914 1.8183428e-38
0.87317586 0.014076958 0.13081914 1.7907922e-38
0.87567586 0.011576958 0.12081914 1.6163047e-38
0.87567586 0.011576958 0.12331913 1.6622225e-38
0.87567586 0.011576958 0.12581913 1.7448744e-38
0.87567586 0.011576958 0.12831913 1.8458935e-38
0.87817591 0.011576958 0.12581913 1.7265073e-38
0.87567586 0.014076958 0.12081914 1.6163047e-38
0.87567586 0.014076958 0.12331913 1.6438554e-38
0.87567586 0.016576959 0.12081914 1.6163047e-38
0.87567586 0.016576959 0.12331913 1.6346718e-38
0.87817591 0.016576959 0.12081914 1.6438554e-38
0.87817591 0.016576959 0.12331913 1.6438554e-38
0.87567586 0.014076958 0.12581913 1.7265073e-38
0.87567586 0.014076958 0.12831913 1.8367099e-38
0.87817591 0.014076958 0.12581913 1.7448744e-38
0.87817591 0.014076958 0.12831913 1.7999757e-38
0.87817591 0.016576959 0.12581913 1.8367099e-38
0.87817591 0.016576959 0.12831913 1.7907922e-38
0.88067591 0.016576959 0.12331913 1.7265073e-38
0.88317591 0.016576959 0.12331913 1.8367099e-38
0.88067591 0.016576959 0.12581913 1.8275264e-38
0.88317591 0.016576959 0.12581913 1.7816086e-38
0.87817591 0.014076958 0.13081914 1.6346718e-38
0.87317586 0.019076958 0.065819137 1.6989567e-38
0.87317586 0.021576958 0.065819137 1.6989567e-38
0.87317586 0.024076957 0.065819137 1.6989567e-38
0.87317586 0.026576959 0.065819137 1.6989567e-38
0.87317586 0.026576959 0.073319137 1.7265073e-38
0.87317586 0.026576959 0.075819135 1.7356909e-38
0.87317586 0.026576959 0.078319132 1.7081402e-38
0.87317586 0.034076959 0.065819137 1.7081402e-38
0.87317586 0.036576957 0.065819137 1.6897731e-38
0.87067586 0.031576958 0.073319137 1.7448744e-38
0.87317586 0.029076958 0.070819139 1.7265073e-38
0.87317586 0.029076958 0.073319137 1.7081402e-38
0.87317586 0.031576958 0.070819139 1.7265073e-38
0.87317586 0.031576958 0.073319137 1.7081402e-38
0.87317586 0.029076958 0.075819135 1.7081402e-38
0.87317586 0.029076958 0.078319132 1.7265073e-38
0.87317586 0.031576958 0.075819135 1.7081402e-38
0.87317586 0.031576958 0.078319132 1.7265073e-38
0.87067586 0.034076959 0.073319137 1.754058e-38
0.87067586 0.036576957 0.073319137 1.754058e-38
0.87317586 0.034076959 0.070819139 1.7265073e-38
0.87317586 0.034076959 0.073319137 1.7265073e-38
0.87317586 0.036576957 0.070819139 1.7265073e-38
0.87317586 0.036576957 0.073319137 1.7356909e-38
0.87067586 0.036576957 0.075819135 1.7265073e-38
0.87067586 0.036576957 0.078319132 1.7265073e-38
0.87317586 0.034076959 0.075819135 1.7265073e-38
0.87317586 0.034076959 0.078319132 1.7265073e-38
0.87317586 0.036576957 0.075819135 1.754058e-38
0.87317586 0.036576957 0.078319132 1.7265073e-38
0.87567586 0.019076958 0.068319134 1.6989567e-38
0.87567586 0.021576958 0.068319134 1.6989567e-38
0.87817591 0.019076958 0.065819137 1.7356909e-38
0.87817591 0.019076958 0.068319134 1.7081402e-38
0.87817591 0.021576958 0.065819137 1.6989567e-38
0.87817591 0.021576958 0.068319134 1.7081402e-38
0.87567586 0.024076957 0.068319134 1.7081402e-38
0.87567586 0.026576959 0.068319134 1.7081402e-38
0.87817591 0.024076957 0.065819137 1.6989567e-38
0.87817591 0.024076957 0.068319134 1.7265073e-38
0.87817591 0.026576959 0.065819137 1.7081402e-38
0.87817591 0.026576959 0.068319134 1.7356909e-38
0.88067591 0.021576958 0.068319134 1.7081402e-38
0.88067591 0.024076957 0.068319134 1.7081402e-38
0.88067591 0.026576959 0.068319134 1.7081402e-38
0.87567586 0.019076958 0.070819139 1.7081402e-38
0.87567586 0.021576958 0.070819139 1.7356909e-38
0.87817591 0.019076958 0.073319137 1.7081402e-38
0.87817591 0.021576958 0.073319137 1.7356909e-38
0.87817591 0.019076958 0.075819135 1.7265073e-38
0.87817591 0.019076958 0.078319132 1.7356909e-38
0.87817591 0.021576958 0.075819135 1.7265073e-38
0.87817591 0.021576958 0.078319132 1.754058e-38
0.87567586 0.024076957 0.070819139 1.7265073e-38
0.87567586 0.024076957 0.073319137 1.7265073e-38
0.87567586 0.026576959 0.070819139 1.7081402e-38
0.87567586 0.026576959 0.073319137 1.7265073e-38
0.87817591 0.024076957 0.073319137 1.7081402e-38
0.87817591 0.026576959 0.073319137 1.6989567e-38
0.87567586 0.024076957 0.075819135 1.754058e-38
0.87567586 0.026576959 0.075819135 1.7081402e-38
0.87817591 0.024076957 0.075819135 1.754058e-38
0.87817591 0.024076957 0.078319132 1.7356909e-38
0.87817591 0.026576959 0.075819135 1.7265073e-38
0.88067591 0.019076958 0.073319137 1.754058e-38
0.88067591 0.021576958 0.070819139 1.7081402e-38
0.88067591 0.021576958 0.073319137 1.7265073e-38
0.88317591 0.019076958 0.073319137 1.7356909e-38
0.88317591 0.021576958 0.073319137 1.7265073e-38
0.88067591 0.019076958 0.075819135 1.7265073e-38
0.88067591 0.021576958 0.075819135 1.7265073e-38
0.88067591 0.024076957 0.075819135 1.7356909e-38
0.87567586 0.029076958 0.068319134 1.7081402e-38
0.87567586 0.031576958 0.068319134 1.7081402e-38
0.87817591 0.029076958 0.065819137 1.7081402e-38
0.87817591 0.029076958 0.068319134 1.7356909e-38
0.87817591 0.031576958 0.065819137 1.7081402e-38
0.87817591 0.031576958 0.068319134 1.7356909e-38
0.87567586 0.034076959 0.068319134 1.7265073e-38
0.87567586 0.036576957 0.068319134 1.7265073e-38
0.87817591 0.034076959 0.065819137 1.7081402e-38
0.87817591 0.034076959 0.068319134 1.754058e-38
0.87817591 0.036576957 0.065819137 1.7081402e-38
0.87817591 0.036576957 0.068319134 1.754058e-38
0.88067591 0.036576957 0.068319134 1.754058e-38
0.87567586 0.029076958 0.070819139 1.7081402e-38
0.87567586 0.029076958 0.073319137 1.7265073e-38
0.87567586 0.031576958 0.070819139 1.7081402e-38
0.87567586 0.031576958 0.073319137 1.7081402e-38
0.87817591 0.029076958 0.073319137 1.6989567e-38
0.87817591 0.031576958 0.073319137 1.6989567e-38
0.87567586 0.029076958 0.075819135 1.7081402e-38
0.87567586 0.031576958 0.075819135 1.7081402e-38
0.87817591 0.029076958 0.075819135 1.7265073e-38
0.87817591 0.031576958 0.075819135 1.7265073e-38
0.87817591 0.031576958 0.078319132 1.7265073e-38
0.87567586 0.034076959 0.070819139 1.7265073e-38
0.87567586 0.034076959 0.073319137 1.6989567e-38
0.87567586 0.036576957 0.070819139 1.7448744e-38
0.87817591 0.036576957 0.073319137 1.7265073e-38
0.87567586 0.034076959 0.075819135 1.7265073e-38
0.87817591 0.034076959 0.075819135 1.7356909e-38
0.87817591 0.036576957 0.075819135 1.7356909e-38
0.87817591 0.036576957 0.078319132 1.754058e-38
0.88067591 0.036576957 0.070819139 1.754058e-38
0.88067591 0.036576957 0.073319137 1.7448744e-38
0.88067591 0.036576957 0.075819135 1.754058e-38
0.87317586 0.019076958 0.083319135 1.7356909e-38
0.87317586 0.021576958 0.083319135 1.754058e-38
0.87067586 0.021576958 0.088319138 1.754058e-38
0.87317586 0.019076958 0.085819133 1.754058e-38
0.87317586 0.021576958 0.085819133 1.7265073e-38
0.87067586 0.024076957 0.083319135 1.7356909e-38
0.87067586 0.026576959 0.083319135 1.7265073e-38
0.87317586 0.024076957 0.080819137 1.7356909e-38
0.87317586 0.024076957 0.083319135 1.754058e-38
0.87317586 0.026576959 0.080819137 1.7356909e-38
0.87317586 0.026576959 0.083319135 1.7265073e-38
0.87067586 0.024076957 0.088319138 1.7448744e-38
0.87067586 0.026576959 0.088319138 1.7081402e-38
0.87317586 0.024076957 0.085819133 1.7265073e-38
0.87317586 0.026576959 0.085819133 1.7356909e-38
0.86817586 0.021576958 0.095819138 1.7356909e-38
0.86817586 0.024076957 0.095819138 1.7265073e-38
0.86817586 0.026576959 0.095819138 1.7265073e-38
0.87067586 0.019076958 0.093319133 1.754058e-38
0.87067586 0.021576958 0.093319133 1.754058e-38
0.87317586 0.019076958 0.090819135 1.754058e-38
0.87317586 0.019076958 0.093319133 1.7081402e-38
0.87317586 0.021576958 0.090819135 1.754058e-38
0.87317586 0.021576958 0.093319133 1.7265073e-38
0.87067586 0.019076958 0.095819138 1.7356909e-38
0.87067586 0.019076958 0.098319136 1.7448744e-38
0.87067586 0.021576958 0.095819138 1.754058e-38
0.87067586 0.021576958 0.098319136 1.7265073e-38
0.87317586 0.019076958 0.095819138 1.6989567e-38
0.87317586 0.019076958 0.098319136 1.754058e-38
0.87317586 0.021576958 0.095819138 1.7265073e-38
0.87317586 0.021576958 0.098319136 1.7448744e-38
0.87067586 0.024076957 0.093319133 1.7448744e-38
0.87067586 0.026576959 0.093319133 1.7081402e-38
0.87317586 0.024076957 0.090819135 1.7356909e-38
0.87317586 0.024076957 0.093319133 1.7356909e-38
0.87317586 0.026576959 0.090819135 1.7356909e-38
0.87317586 0.026576959 0.093319133 1.7356909e-38
0.87067586 0.024076957 0.095819138 1.7356909e-38
0.87067586 0.024076957 0.098319136 1.7356909e-38
0.87067586 0.026576959 0.095819138 1.754058e-38
0.87067586 0.026576959 0.098319136 1.7448744e-38
0.87317586 0.024076957 0.095819138 1.754058e-38
0.87317586 0.024076957 0.098319136 1.7356909e-38
0.87317586 0.026576959 0.095819138 1.7356909e-38
0.87317586 0.026576959 0.098319136 1.7356909e-38
0.87317586 0.029076958 0.080819137 1.7356909e-38
0.87317586 0.029076958 0.083319135 1.7265073e-38
0.87317586 0.031576958 0.080819137 1.7356909e-38
0.87317586 0.031576958 0.083319135 1.7265073e-38
0.87317586 0.029076958 0.085819133 1.7265073e-38
0.87317586 0.031576958 0.085819133 1.7448744e-38
0.87067586 0.036576957 0.080819137 1.7265073e-38
0.87317586 0.034076959 0.080819137 1.7448744e-38
0.87317586 0.034076959 0.083319135 1.7265073e-38
0.87317586 0.036576957 0.080819137 1.7448744e-38
0.87317586 0.036576957 0.083319135 1.7356909e-38
0.87317586 0.034076959 0.085819133 1.7448744e-38
0.87317586 0.036576957 0.085819133 1.754058e-38
0.86817586 0.029076958 0.095819138 1.7265073e-38
0.86817586 0.031576958 0.095819138 1.7173238e-38
0.86817586 0.034076959 0.095819138 1.7265073e-38
0.86817586 0.036576957 0.095819138 1.754058e-38
0.87067586 0.029076958 0.093319133 1.7265073e-38
0.87067586 0.031576958 0.093319133 1.7356909e-38
0.87317586 0.029076958 0.090819135 1.7356909e-38
0.87317586 0.029076958 0.093319133 1.7356909e-38
0.87317586 0.031576958 0.090819135 1.7265073e-38
0.87317586 0.031576958 0.093319133 1.7448744e-38
0.87067586 0.029076958 0.095819138 1.7356909e-38
0.87067586 0.029076958 0.098319136 1.7356909e-38
0.87067586 0.031576958 0.095819138 1.754058e-38
0.87067586 0.031576958 0.098319136 1.7265073e-38
0.87317586 0.029076958 0.095819138 1.7356909e-38
0.87317586 0.029076958 0.098319136 1.754058e-38
0.87317586 0.031576958 0.095819138 1.7265073e-38
0.87317586 0.031576958 0.098319136 1.7448744e-38
0.87067586 0.034076959 0.093319133 1.7265073e-38
0.87067586 0.036576957 0.093319133 1.7356909e-38
0.87317586 0.034076959 0.093319133 1.7448744e-38
0.87317586 0.036576957 0.093319133 1.7356909e-38
0.87067586 0.034076959 0.095819138 1.754058e-38
0.87067586 0.034076959 0.098319136 1.7265073e-38
0.87067586 0.036576957 0.095819138 1.7265073e-38
0.87067586 0.036576957 0.098319136 1.7265073e-38
0.87317586 0.034076959 0.095819138 1.7265073e-38
0.87317586 0.034076959 0.098319136 1.754058e-38
0.87317586 0.036576957 0.095819138 1.7265073e-38
0.87317586 0.036576957 0.098319136 1.7265073e-38
0.87567586 0.019076958 0.080819137 1.754058e-38
0.87567586 0.021576958 0.080819137 1.754058e-38
0.87817591 0.019076958 0.080819137 1.754058e-38
0.87817591 0.019076958 0.083319135 1.754058e-38
0.87817591 0.021576958 0.080819137 1.754058e-38
0.87817591 0.021576958 0.083319135 1.7265073e-38
0.87567586 0.019076958 0.085819133 1.754058e-38
0.87567586 0.019076958 0.088319138 1.7448744e-38
0.87567586 0.021576958 0.085819133 1.754058e-38
0.87567586 0.021576958 0.088319138 1.754058e-38
0.87817591 0.019076958 0.085819133 1.7632415e-38
0.87817591 0.019076958 0.088319138 1.7632415e-38
0.87817591 0.021576958 0.088319138 1.754058e-38
0.87567586 0.024076957 0.080819137 1.7356909e-38
0.87567586 0.026576959 0.080819137 1.7632415e-38
0.87567586 0.024076957 0.085819133 1.7448744e-38
0.87567586 0.024076957 0.088319138 1.7356909e-38
0.87567586 0.026576959 0.088319138 1.7356909e-38
0.88067591 0.019076958 0.080819137 1.754058e-38
0.88067591 0.019076958 0.083319135 1.7632415e-38
0.88067591 0.021576958 0.080819137 1.7448744e-38
0.88067591 0.019076958 0.088319138 1.7632415e-38
0.87567586 0.019076958 0.090819135 1.754058e-38
0.87567586 0.019076958 0.093319133 1.7448744e-38
0.87567586 0.021576958 0.090819135 1.7356909e-38
0.87567586 0.021576958 0.093319133 1.754058e-38
0.87817591 0.019076958 0.090819135 1.754058e-38
0.87817591 0.019076958 0.093319133 1.7448744e-38
0.87817591 0.021576958 0.093319133 1.7265073e-38
0.87567586 0.019076958 0.095819138 1.7448744e-38
0.87567586 0.019076958 0.098319136 1.7356909e-38
0.87567586 0.021576958 0.095819138 1.7265073e-38
0.87567586 0.021576958 0.098319136 1.7265073e-38
0.87817591 0.019076958 0.095819138 1.754058e-38
0.87817591 0.019076958 0.098319136 1.7448744e-38
0.87817591 0.021576958 0.098319136 1.7265073e-38
0.87567586 0.024076957 0.093319133 1.7356909e-38
0.87567586 0.026576959 0.093319133 1.7356909e-38
0.87567586 0.024076957 0.095819138 1.7265073e-38
0.87567586 0.024076957 0.098319136 1.7265073e-38
0.87567586 0.026576959 0.095819138 1.7356909e-38
0.87567586 0.026576959 0.098319136 1.7356909e-38
0.87817591 0.024076957 0.098319136 1.7265073e-38
0.87817591 0.026576959 0.098319136 1.7448744e-38
0.87567586 0.029076958 0.080819137 1.7081402e-38
0.87567586 0.031576958 0.080819137 1.7081402e-38
0.87567586 0.029076958 0.088319138 1.7356909e-38
0.87567586 0.031576958 0.085819133 1.7265073e-38
0.87567586 0.031576958 0.088319138 1.7448744e-38
0.87567586 0.034076959 0.080819137 1.7265073e-38
0.87567586 0.036576957 0.080819137 1.754058e-38
0.87817591 0.036576957 0.083319135 1.7356909e-38
0.87567586 0.034076959 0.085819133 1.7265073e-38
0.87567586 0.034076959 0.088319138 1.754058e-38
0.87567586 0.036576957 0.085819133 1.7265073e-38
0.87567586 0.036576957 0.088319138 1.7356909e-38
0.87817591 0.034076959 0.088319138 1.7356909e-38
0.87817591 0.036576957 0.088319138 1.7356909e-38
0.87567586 0.029076958 0.090819135 1.7448744e-38
0.87567586 0.031576958 0.090819135 1.7081402e-38
0.87567586 0.031576958 0.093319133 1.6989567e-38
0.87567586 0.029076958 0.098319136 1.7356909e-38
0.87567586 0.034076959 0.090819135 1.7081402e-38
0.87567586 0.034076959 0.093319133 1.6989567e-38
0.87567586 0.036576957 0.090819135 1.754058e-38
0.87567586 0.036576957 0.093319133 1.7356909e-38
0.87817591 0.034076959 0.090819135 1.7265073e-38
0.87817591 0.036576957 0.090819135 1.7356909e-38
0.87567586 0.034076959 0.095819138 1.7265073e-38
0.87567586 0.036576957 0.095819138 1.7265073e-38
0.87567586 0.036576957 0.098319136 1.7356909e-38
0.87317586 0.039076958 0.065819137 1.6897731e-38
0.86817586 0.039076958 0.073319137 1.7448744e-38
0.86817586 0.041576959 0.073319137 1.754058e-38
0.86817586 0.039076958 0.075819135 1.7265073e-38
0.86817586 0.041576959 0.075819135 1.754058e-38
0.86817586 0.044076957 0.073319137 1.7265073e-38
0.86817586 0.044076957 0.075819135 1.754058e-38
0.87067586 0.039076958 0.073319137 1.754058e-38
0.87067586 0.041576959 0.073319137 1.7448744e-38
0.87317586 0.039076958 0.070819139 1.754058e-38
0.87317586 0.039076958 0.073319137 1.7265073e-38
0.87317586 0.041576959 0.070819139 1.754058e-38
0.87317586 0.041576959 0.073319137 1.7265073e-38
0.87067586 0.039076958 0.075819135 1.7448744e-38
0.87067586 0.039076958 0.078319132 1.7448744e-38
0.87067586 0.041576959 0.075819135 1.754058e-38
0.87067586 0.041576959 0.078319132 1.754058e-38
0.87317586 0.039076958 0.075819135 1.7448744e-38
0.87317586 0.039076958 0.078319132 1.7081402e-38
0.87317586 0.041576959 0.075819135 1.754058e-38
0.87317586 0.041576959 0.078319132 1.7265073e-38
0.87067586 0.044076957 0.073319137 1.754058e-38
0.87067586 0.046576958 0.073319137 1.7448744e-38
0.87317586 0.044076957 0.073319137 1.754058e-38
0.87317586 0.046576958 0.073319137 1.7265073e-38
0.87067586 0.044076957 0.075819135 1.7448744e-38
0.87067586 0.044076957 0.078319132 1.7448744e-38
0.87317586 0.044076957 0.075819135 1.7356909e-38
0.87317586 0.044076957 0.078319132 1.7448744e-38
0.87317586 0.046576958 0.075819135 1.754058e-38
0.87317586 0.046576958 0.078319132 1.754058e-38
0.87317586 0.054076958 0.068319134 1.7265073e-38
0.87317586 0.05657696 0.065819137 1.7081402e-38
0.87317586 0.05657696 0.068319134 1.7356909e-38
0.87067586 0.049076959 0.073319137 1.754058e-38
0.87317586 0.049076959 0.073319137 1.7265073e-38
0.87317586 0.051576957 0.073319137 1.754058e-38
0.87317586 0.049076959 0.075819135 1.754058e-38
0.87317586 0.049076959 0.078319132 1.754058e-38
0.87317586 0.051576957 0.075819135 1.754058e-38
0.87317586 0.051576957 0.078319132 1.754058e-38
0.87067586 0.05657696 0.073319137 1.7632415e-38
0.87317586 0.054076958 0.070819139 1.7816086e-38
0.87317586 0.054076958 0.073319137 1.754058e-38
0.87317586 0.05657696 0.070819139 1.7632415e-38
0.87317586 0.05657696 0.073319137 1.7356909e-38
0.87317586 0.054076958 0.075819135 1.754058e-38
0.87317586 0.054076958 0.078319132 1.754058e-38
0.87317586 0.05657696 0.075819135 1.754058e-38
0.87317586 0.05657696 0.078319132 1.754058e-38
0.87567586 0.039076958 0.068319134 1.7265073e-38
0.87567586 0.041576959 0.068319134 1.7265073e-38
0.87817591 0.039076958 0.065819137 1.7081402e-38
0.87817591 0.039076958 0.068319134 1.7448744e-38
0.87817591 0.041576959 0.068319134 1.7448744e-38
0.87567586 0.044076957 0.068319134 1.7356909e-38
0.87567586 0.046576958 0.068319134 1.7356909e-38
0.87817591 0.044076957 0.068319134 1.7265073e-38
0.87817591 0.046576958 0.068319134 1.7265073e-38
0.88067591 0.039076958 0.068319134 1.754058e-38
0.88067591 0.044076957 0.068319134 1.754058e-38
0.88067591 0.046576958 0.065819137 1.754058e-38
0.88067591 0.046576958 0.068319134 1.7265073e-38
0.87567586 0.039076958 0.070819139 1.7448744e-38
0.87567586 0.039076958 0.073319137 1.7265073e-38
0.87567586 0.041576959 0.070819139 1.754058e-38
0.87567586 0.041576959 0.073319137 1.7265073e-38
0.87817591 0.039076958 0.073319137 1.754058e-38
0.87817591 0.041576959 0.073319137 1.754058e-38
0.87567586 0.039076958 0.075819135 1.7265073e-38
0.87567586 0.041576959 0.075819135 1.7265073e-38
0.87817591 0.039076958 0.075819135 1.754058e-38
0.87817591 0.041576959 0.075819135 1.754058e-38
0.87817591 0.041576959 0.078319132 1.7265073e-38
0.87567586 0.044076957 0.070819139 1.754058e-38
0.87567586 0.044076957 0.073319137 1.7356909e-38
0.87567586 0.046576958 0.070819139 1.754058e-38
0.87567586 0.046576958 0.073319137 1.754058e-38
0.87817591 0.044076957 0.073319137 1.754058e-38
0.87817591 0.046576958 0.073319137 1.7632415e-38
0.87567586 0.044076957 0.075819135 1.7448744e-38
0.87567586 0.046576958 0.075819135 1.754058e-38
0.87817591 0.044076957 0.075819135 1.754058e-38
0.87817591 0.044076957 0.078319132 1.7448744e-38
0.87817591 0.046576958 0.075819135 1.754058e-38
0.87817591 0.046576958 0.078319132 1.7448744e-38
0.88067591 0.039076958 0.075819135 1.754058e-38
0.88067591 0.041576959 0.075819135 1.7356909e-38
0.88067591 0.044076957 0.070819139 1.754058e-38
0.88067591 0.044076957 0.073319137 1.754058e-38
0.88317591 0.044076957 0.073319137 1.754058e-38
0.88067591 0.044076957 0.075819135 1.7356909e-38
0.87567586 0.049076959 0.068319134 1.7356909e-38
0.87567586 0.051576957 0.068319134 1.7356909e-38
0.87817591 0.049076959 0.068319134 1.7356909e-38
0.87817591 0.051576957 0.065819137 1.754058e-38
0.87817591 0.051576957 0.068319134 1.7265073e-38
0.87567586 0.054076958 0.068319134 1.7081402e-38
0.87567586 0.05657696 0.068319134 1.754058e-38
0.87817591 0.054076958 0.065819137 1.7173238e-38
0.87817591 0.054076958 0.068319134 1.754058e-38
0.87817591 0.05657696 0.065819137 1.7265073e-38
0.87817591 0.05657696 0.068319134 1.754058e-38
0.88067591 0.049076959 0.065819137 1.754058e-38
0.88067591 0.051576957 0.065819137 1.754058e-38
0.88067591 0.051576957 0.068319134 1.7448744e-38
0.88067591 0.054076958 0.065819137 1.7448744e-38
0.88067591 0.054076958 0.068319134 1.7632415e-38
0.88067591 0.05657696 0.068319134 1.754058e-38
0.87567586 0.049076959 0.070819139 1.7632415e-38
0.87567586 0.049076959 0.073319137 1.7632415e-38
0.87567586 0.051576957 0.070819139 1.754058e-38
0.87567586 0.051576957 0.073319137 1.7632415e-38
0.87817591 0.049076959 0.073319137 1.7632415e-38
0.87817591 0.051576957 0.073319137 1.7448744e-38
0.87567586 0.049076959 0.075819135 1.754058e-38
0.87567586 0.051576957 0.075819135 1.7448744e-38
0.87817591 0.049076959 0.075819135 1.7448744e-38
0.87817591 0.049076959 0.078319132 1.7448744e-38
0.87817591 0.051576957 0.075819135 1.754058e-38
0.87817591 0.051576957 0.078319132 1.754058e-38
0.87567586 0.054076958 0.070819139 1.7265073e-38
0.87567586 0.054076958 0.073319137 1.754058e-38
0.87567586 0.05657696 0.070819139 1.754058e-38
0.87567586 0.05657696 0.073319137 1.754058e-38
0.87817591 0.054076958 0.073319137 1.754058e-38
0.87817591 0.05657696 0.073319137 1.754058e-38
0.87567586 0.054076958 0.075819135 1.7448744e-38
0.87567586 0.05657696 0.075819135 1.7356909e-38
0.87817591 0.054076958 0.075819135 1.7265073e-38
0.87817591 0.054076958 0.078319132 1.7265073e-38
0.87817591 0.05657696 0.075819135 1.7173238e-38
0.87817591 0.05657696 0.078319132 1.7265073e-38
0.88067591 0.05657696 0.075819135 1.754058e-38
0.88067591 0.05657696 0.078319132 1.754058e-38
0.88317591 0.05657696 0.075819135 1.7448744e-38
0.87067586 0.039076958 0.080819137 1.7265073e-38
0.87067586 0.041576959 0.080819137 1.7265073e-38
0.87317586 0.039076958 0.080819137 1.7265073e-38
0.87317586 0.039076958 0.083319135 1.7265073e-38
0.87317586 0.041576959 0.080819137 1.7265073e-38
0.87317586 0.041576959 0.083319135 1.7265073e-38
0.87317586 0.039076958 0.085819133 1.7356909e-38
0.87317586 0.041576959 0.085819133 1.7265073e-38
0.87067586 0.044076957 0.080819137 1.7265073e-38
0.87067586 0.046576958 0.080819137 1.7448744e-38
0.87317586 0.044076957 0.080819137 1.7265073e-38
0.87317586 0.044076957 0.083319135 1.7265073e-38
0.87317586 0.046576958 0.080819137 1.7265073e-38
0.87317586 0.046576958 0.083319135 1.7448744e-38
0.87317586 0.039076958 0.093319133 1.7356909e-38
0.87317586 0.041576959 0.093319133 1.7265073e-38
0.87067586 0.039076958 0.095819138 1.7356909e-38
0.87067586 0.041576959 0.095819138 1.7448744e-38
0.87317586 0.039076958 0.095819138 1.7265073e-38
0.87317586 0.039076958 0.098319136 1.7265073e-38
0.87317586 0.041576959 0.095819138 1.7265073e-38
0.87317586 0.041576959 0.098319136 1.7265073e-38
0.87067586 0.049076959 0.080819137 1.754058e-38
0.87317586 0.049076959 0.080819137 1.754058e-38
0.87317586 0.049076959 0.083319135 1.754058e-38
0.87317586 0.051576957 0.080819137 1.754058e-38
0.87317586 0.051576957 0.083319135 1.7265073e-38
0.87317586 0.054076958 0.080819137 1.7356909e-38
0.87317586 0.054076958 0.083319135 1.7265073e-38
0.87317586 0.054076958 0.085819133 1.7081402e-38
0.87317586 0.05657696 0.085819133 1.7081402e-38
0.87567586 0.039076958 0.080819137 1.7356909e-38
0.87567586 0.041576959 0.080819137 1.7265073e-38
0.87817591 0.041576959 0.080819137 1.7356909e-38
0.87817591 0.041576959 0.083319135 1.7356909e-38
0.87567586 0.039076958 0.085819133 1.7356909e-38
0.87567586 0.039076958 0.088319138 1.7081402e-38
0.87567586 0.041576959 0.085819133 1.7265073e-38
0.87567586 0.041576959 0.088319138 1.7265073e-38
0.87817591 0.039076958 0.088319138 1.6989567e-38
0.87817591 0.041576959 0.088319138 1.7081402e-38
0.87567586 0.044076957 0.080819137 1.754058e-38
0.87567586 0.046576958 0.080819137 1.754058e-38
0.87817591 0.044076957 0.080819137 1.7356909e-38
0.87817591 0.044076957 0.083319135 1.7081402e-38
0.87817591 0.046576958 0.080819137 1.7448744e-38
0.87817591 0.046576958 0.083319135 1.7081402e-38
0.87567586 0.044076957 0.085819133 1.7265073e-38
0.87567586 0.044076957 0.088319138 1.7081402e-38
0.87567586 0.046576958 0.085819133 1.7081402e-38
0.87567586 0.046576958 0.088319138 1.7356909e-38
0.87817591 0.044076957 0.088319138 1.7265073e-38
0.87817591 0.046576958 0.085819133 1.7265073e-38
0.87817591 0.046576958 0.088319138 1.7356909e-38
0.88067591 0.046576958 0.088319138 1.7173238e-38
0.87567586 0.039076958 0.090819135 1.7081402e-38
0.87567586 0.039076958 0.093319133 1.7081402e-38
0.87567586 0.041576959 0.090819135 1.7081402e-38
0.87567586 0.041576959 0.093319133 1.7265073e-38
0.87817591 0.039076958 0.090819135 1.7265073e-38
0.87817591 0.039076958 0.093319133 1.7081402e-38
0.87817591 0.041576959 0.090819135 1.7356909e-38
0.87817591 0.041576959 0.093319133 1.7081402e-38
0.87567586 0.039076958 0.095819138 1.7265073e-38
0.87567586 0.039076958 0.098319136 1.7265073e-38
0.87567586 0.041576959 0.095819138 1.7265073e-38
0.87567586 0.041576959 0.098319136 1.7265073e-38
0.87817591 0.039076958 0.095819138 1.7081402e-38
0.87817591 0.039076958 0.098319136 1.7265073e-38
0.87817591 0.041576959 0.095819138 1.7081402e-38
0.87817591 0.041576959 0.098319136 1.7081402e-38
0.87567586 0.044076957 0.090819135 1.7265073e-38
0.87567586 0.046576958 0.090819135 1.7081402e-38
0.87817591 0.044076957 0.090819135 1.7356909e-38
0.87817591 0.044076957 0.093319133 1.7265073e-38
0.87817591 0.046576958 0.090819135 1.7081402e-38
0.87817591 0.046576958 0.093319133 1.7356909e-38
0.87817591 0.044076957 0.095819138 1.7265073e-38
0.87817591 0.046576958 0.095819138 1.7356909e-38
0.88067591 0.041576959 0.095819138 1.7265073e-38
0.88067591 0.041576959 0.098319136 1.7265073e-38
0.88067591 0.044076957 0.093319133 1.7081402e-38
0.88067591 0.046576958 0.093319133 1.7081402e-38
0.88067591 0.044076957 0.095819138 1.7265073e-38
0.88067591 0.044076957 0.098319136 1.7265073e-38
0.88067591 0.046576958 0.095819138 1.7081402e-38
0.88067591 0.046576958 0.098319136 1.6989567e-38
0.88317591 0.046576958 0.098319136 1.6989567e-38
0.87567586 0.049076959 0.080819137 1.754058e-38
0.87567586 0.051576957 0.080819137 1.7632415e-38
0.87817591 0.049076959 0.080819137 1.7448744e-38
0.87817591 0.049076959 0.083319135 1.7081402e-38
0.87817591 0.051576957 0.080819137 1.7632415e-38
0.87817591 0.051576957 0.083319135 1.754058e-38
0.87567586 0.049076959 0.085819133 1.7173238e-38
0.87567586 0.051576957 0.085819133 1.7265073e-38
0.87817591 0.049076959 0.085819133 1.7265073e-38
0.87817591 0.049076959 0.088319138 1.7081402e-38
0.87817591 0.051576957 0.085819133 1.754058e-38
0.87817591 0.051576957 0.088319138 1.7081402e-38
0.87567586 0.054076958 0.080819137 1.754058e-38
0.87567586 0.05657696 0.080819137 1.7356909e-38
0.87817591 0.054076958 0.080819137 1.7632415e-38
0.87817591 0.054076958 0.083319135 1.754058e-38
0.87817591 0.05657696 0.080819137 1.7632415e-38
0.87817591 0.05657696 0.083319135 1.7081402e-38
0.87567586 0.054076958 0.085819133 1.7265073e-38
0.87567586 0.054076958 0.088319138 1.7081402e-38
0.87567586 0.05657696 0.085819133 1.7265073e-38
0.87567586 0.05657696 0.088319138 1.7265073e-38
0.87817591 0.054076958 0.085819133 1.7081402e-38
0.87817591 0.054076958 0.088319138 1.7081402e-38
0.87817591 0.05657696 0.085819133 1.6989567e-38
0.87817591 0.05657696 0.088319138 1.7081402e-38
0.88067591 0.049076959 0.080819137 1.7356909e-38
0.88067591 0.051576957 0.080819137 1.7356909e-38
0.88067591 0.051576957 0.083319135 1.754058e-38
0.88067591 0.049076959 0.088319138 1.6989567e-38
0.88067591 0.051576957 0.088319138 1.754058e-38
0.88067591 0.054076958 0.080819137 1.754058e-38
0.88067591 0.054076958 0.083319135 1.7081402e-38
0.88067591 0.05657696 0.083319135 1.7265073e-38
0.88317591 0.054076958 0.080819137 1.7265073e-38
0.88317591 0.05657696 0.080819137 1.754058e-38
0.88067591 0.054076958 0.088319138 1.7081402e-38
0.88067591 0.05657696 0.088319138 1.6989567e-38
0.88317591 0.054076958 0.085819133 1.6989567e-38
0.88317591 0.054076958 0.088319138 1.6897731e-38
0.88317591 0.05657696 0.085819133 1.6989567e-38
0.88317591 0.05657696 0.088319138 1.6989567e-38
0.87567586 0.049076959 0.090819135 1.7265073e-38
0.87817591 0.049076959 0.090819135 1.7081402e-38
0.87817591 0.049076959 0.093319133 1.6989567e-38
0.87817591 0.051576957 0.090819135 1.7081402e-38
0.87817591 0.049076959 0.095819138 1.6989567e-38
0.87817591 0.051576957 0.095819138 1.7081402e-38
0.87817591 0.054076958 0.090819135 1.7081402e-38
0.87817591 0.054076958 0.093319133 1.6989567e-38
0.87817591 0.05657696 0.090819135 1.7081402e-38
0.87817591 0.05657696 0.093319133 1.6989567e-38
0.87817591 0.054076958 0.095819138 1.6989567e-38
0.87817591 0.05657696 0.095819138 1.6805896e-38
0.88067591 0.049076959 0.090819135 1.6897731e-38
0.88067591 0.049076959 0.093319133 1.7081402e-38
0.88067591 0.051576957 0.090819135 1.7081402e-38
0.88067591 0.051576957 0.093319133 1.6989567e-38
0.88317591 0.049076959 0.090819135 1.7081402e-38
0.88317591 0.051576957 0.090819135 1.7081402e-38
0.88067591 0.049076959 0.095819138 1.6989567e-38
0.88067591 0.049076959 0.098319136 1.6989567e-38
0.88067591 0.051576957 0.095819138 1.7081402e-38
0.88067591 0.051576957 0.098319136 1.6897731e-38
0.88317591 0.049076959 0.098319136 1.6989567e-38
0.88067591 0.054076958 0.090819135 1.6989567e-38
0.88067591 0.054076958 0.093319133 1.7081402e-38
0.88067591 0.05657696 0.090819135 1.7265073e-38
0.88067591 0.05657696 0.093319133 1.7081402e-38
0.88317591 0.054076958 0.090819135 1.7081402e-38
0.88317591 0.054076958 0.093319133 1.6897731e-38
0.88317591 0.05657696 0.090819135 1.7265073e-38
0.88317591 0.05657696 0.093319133 1.6897731e-38
0.88067591 0.054076958 0.095819138 1.6989567e-38
0.88067591 0.054076958 0.098319136 1.6989567e-38
0.88067591 0.05657696 0.095819138 1.6989567e-38
0.88067591 0.05657696 0.098319136 1.7265073e-38
0.88317591 0.054076958 0.098319136 1.6897731e-38
0.88317591 0.05657696 0.098319136 1.6989567e-38
0.85817587 0.024076957 0.12581913 1.6438554e-38
0.85817587 0.026576959 0.12581913 1.6438554e-38
0.86067587 0.021576958 0.12831913 1.5887541e-38
0.86067587 0.024076957 0.12581913 1.5795705e-38
0.86067587 0.024076957 0.12831913 1.6071212e-38
0.86067587 0.026576959 0.12581913 1.6163047e-38
0.86067587 0.026576959 0.12831913 1.6346718e-38
0.86317587 0.024076957 0.12831913 1.6254883e-38
0.85817587 0.024076957 0.13081914 1.6622225e-38
0.85817587 0.026576959 0.13081914 1.6346718e-38
0.86067587 0.021576958 0.13081914 1.6622225e-38
0.86317587 0.021576958 0.13081914 1.7081402e-38
0.86317587 0.021576958 0.13331914 1.7356909e-38
0.86067587 0.024076957 0.13081914 1.6622225e-38
0.86067587 0.026576959 0.13081914 1.6622225e-38
0.86067587 0.026576959 0.13331914 1.7081402e-38
0.86317587 0.024076957 0.13081914 1.6897731e-38
0.86317587 0.024076957 0.13331914 1.7356909e-38
0.86317587 0.026576959 0.13081914 1.6989567e-38
0.86317587 0.026576959 0.13331914 1.7356909e-38
0.86317587 0.031576958 0.12331913 1.6438554e-38
0.86067587 0.029076958 0.12581913 1.6438554e-38
0.86067587 0.029076958 0.12831913 1.6163047e-38
0.86067587 0.031576958 0.12581913 1.6071212e-38
0.86317587 0.029076958 0.12831913 1.6346718e-38
0.86317587 0.031576958 0.12831913 1.6254883e-38
0.86317587 0.034076959 0.12331913 1.6254887e-38
0.86067587 0.034076959 0.12581913 1.5795705e-38
0.86317587 0.034076959 0.12831913 1.6071212e-38
0.85817587 0.029076958 0.13081914 1.6622225e-38
0.86067587 0.029076958 0.13081914 1.6622225e-38
0.86067587 0.029076958 0.13331914 1.6989567e-38
0.86067587 0.031576958 0.13081914 1.6622225e-38
0.86317587 0.029076958 0.13081914 1.6897731e-38
0.86317587 0.029076958 0.13331914 1.7724251e-38
0.86317587 0.031576958 0.13081914 1.6897731e-38
0.86317587 0.031576958 0.13331914 1.7448744e-38
0.86317587 0.034076959 0.13081914 1.6346718e-38
0.86317587 0.041576959 0.12831913 1.6254883e-38
0.86317587 0.044076957 0.12831913 1.6254883e-38
0.86317587 0.046576958 0.12831913 1.6622225e-38
0.86067587 0.041576959 0.13081914 1.6989567e-38
0.86317587 0.041576959 0.13081914 1.6438554e-38
0.86317587 0.041576959 0.13331914 1.7632415e-38
0.86067587 0.044076957 0.13081914 1.6989567e-38
0.86067587 0.046576958 0.13081914 1.7448744e-38
0.86317587 0.044076957 0.13081914 1.6897731e-38
0.86317587 0.044076957 0.13331914 1.754058e-38
0.86317587 0.046576958 0.13081914 1.7632415e-38
0.86317587 0.046576958 0.13331914 1.7999757e-38
0.86067587 0.046576958 0.13581914 1.7907922e-38
0.86317587 0.046576958 0.13831913 1.6254883e-38
0.86067587 0.049076959 0.12581913 1.5795705e-38
0.86067587 0.051576957 0.12581913 1.5795705e-38
0.86317587 0.049076959 0.12831913 1.6622225e-38
0.86317587 0.051576957 0.12831913 1.6897731e-38
0.86067587 0.049076959 0.13081914 1.754058e-38
0.86317587 0.049076959 0.13081914 1.7632415e-38
0.86317587 0.049076959 0.13331914 1.7999757e-38
0.86317587 0.051576957 0.13081914 1.7632415e-38
0.86317587 0.051576957 0.13331914 1.8183428e-38
0.86067587 0.049076959 0.13581914 1.8367099e-38
0.86067587 0.051576957 0.13581914 1.8367099e-38
0.86317587 0.049076959 0.13831913 1.5979376e-38
0.86317587 0.051576957 0.13831913 1.5979376e-38
0.86317587 0.054076958 0.13081914 1.754058e-38
0.86317587 0.054076958 0.13331914 1.8275264e-38
0.86817586 0.026576959 0.10081913 1.754058e-38
0.86817586 0.026576959 0.10331914 1.7356909e-38
0.86817586 0.026576959 0.10581914 1.7356909e-38
0.87067586 0.019076958 0.10081913 1.7356909e-38
0.87067586 0.021576958 0.10081913 1.7081402e-38
0.87317586 0.019076958 0.10331914 1.7265073e-38
0.87317586 0.021576958 0.10331914 1.7356909e-38
0.87067586 0.019076958 0.10581914 1.7632415e-38
0.87067586 0.021576958 0.10581914 1.7081402e-38
0.87317586 0.019076958 0.10831913 1.7265073e-38
0.87317586 0.021576958 0.10831913 1.6989567e-38
0.87067586 0.024076957 0.10081913 1.7356909e-38
0.87067586 0.026576959 0.10081913 1.7356909e-38
0.87067586 0.026576959 0.10331914 1.7356909e-38
0.87317586 0.024076957 0.10331914 1.7448744e-38
0.87317586 0.026576959 0.10331914 1.7448744e-38
0.87067586 0.024076957 0.10581914 1.6989567e-38
0.87067586 0.026576959 0.10581914 1.7081402e-38
0.87067586 0.026576959 0.10831913 1.7081402e-38
