# .PCD v0.7 - Point Cloud Data file format
VERSION 0.7
FIELDS x y z rgb
SIZE 4 4 4 4
TYPE F F F F
COUNT 1 1 1 1
WIDTH 973
HEIGHT 1
VIEWPOINT 0 0 0 1 0 0 0
POINTS 973
DATA ascii
0.87188888 -0.016094694 0.11288197 1.7173238e-38
0.87188888 -0.013594694 0.11038197 1.7356909e-38
0.87438893 -0.016094694 0.11288197 1.7081402e-38
0.87188888 -0.016094694 0.11538196 1.7632415e-38
0.87188888 -0.013594694 0.11538196 1.7081402e-38
0.87188888 -0.031094695 0.12038197 1.6622237e-38
0.87188888 -0.031094695 0.12288196 1.671406e-38
0.87188888 -0.028594695 0.12288196 1.6438554e-38
0.87438893 -0.031094695 0.12038197 1.6254883e-38
0.87438893 -0.031094695 0.12288196 1.6622226e-38
0.87188888 -0.031094695 0.12538196 1.6897731e-38
0.87188888 -0.031094695 0.12788196 1.7081402e-38
0.87188888 -0.028594695 0.12538196 1.6897731e-38
0.87438893 -0.031094695 0.12538196 1.6897731e-38
0.87438893 -0.031094695 0.12788196 1.7816103e-38
0.87438893 -0.028594695 0.12538196 1.6897731e-38
0.87438893 -0.028594695 0.12788196 1.7816103e-38
0.87438893 -0.026094694 0.12538196 1.7173238e-38
0.87688893 -0.031094695 0.12788196 1.7634591e-38
0.87688893 -0.028594695 0.12788196 1.7450199e-38
0.87188888 -0.018594693 0.12038197 1.6897731e-38
0.87188888 -0.016094694 0.12038197 1.6622225e-38
0.87188888 -0.013594694 0.12038197 1.6805896e-38
0.87188888 -0.013594694 0.12538196 1.7724251e-38
0.87188888 -0.013594694 0.12788196 1.7907922e-38
0.87188888 -0.018594693 0.13038197 1.8091593e-38
0.87188888 -0.016094694 0.13038197 1.8275264e-38
0.87188888 -0.013594694 0.13038197 1.8458935e-38
0.86688888 0.0039053059 0.072881967 1.7632415e-38
0.86688888 0.006405306 0.072881967 1.754058e-38
0.86688888 0.0039053059 0.075381964 1.7356909e-38
0.86688888 0.006405306 0.075381964 1.7356909e-38
0.86938888 0.0039053059 0.075381964 1.7265073e-38
0.86938888 0.0039053059 0.077881962 1.7448744e-38
0.86938888 0.006405306 0.075381964 1.754058e-38
0.86938888 0.006405306 0.077881962 1.754058e-38
0.86938888 -0.011094694 0.097881965 1.754058e-38
0.86938888 -0.0085946945 0.097881965 1.754058e-38
0.86688888 0.0089053055 0.072881967 1.7265073e-38
0.86688888 0.011405306 0.072881967 1.7081402e-38
0.86688888 0.0089053055 0.075381964 1.7632415e-38
0.86688888 0.0089053055 0.077881962 1.7632415e-38
0.86938888 0.0089053055 0.075381964 1.7356909e-38
0.86938888 0.0089053055 0.077881962 1.7265073e-38
0.86938888 0.011405306 0.075381964 1.7356909e-38
0.86938888 0.011405306 0.077881962 1.754058e-38
0.86938888 0.011405306 0.095381968 1.7356909e-38
0.86938888 0.011405306 0.097881965 1.7356909e-38
0.86938888 0.013905305 0.095381968 1.7081402e-38
0.86938888 0.013905305 0.097881965 1.7265073e-38
0.86938888 0.016405307 0.095381968 1.7081402e-38
0.86938888 0.016405307 0.097881965 1.7356909e-38
0.86938888 0.018905306 0.095381968 1.7448744e-38
0.86938888 0.018905306 0.097881965 1.754058e-38
0.86938888 0.021405306 0.095381968 1.7448744e-38
0.86938888 0.021405306 0.097881965 1.7448744e-38
0.86938888 0.023905305 0.097881965 1.7265073e-38
0.87688893 -0.011094694 0.065381967 1.7265073e-38
0.87688893 -0.0085946945 0.065381967 1.7356909e-38
0.87938893 -0.011094694 0.067881964 1.7448744e-38
0.87938893 -0.0085946945 0.067881964 1.7724251e-38
0.87688893 -0.0060946941 0.065381967 1.7356909e-38
0.87688893 -0.0035946942 0.065381967 1.7081402e-38
0.87938893 -0.0060946941 0.067881964 1.7632415e-38
0.87938893 -0.0035946942 0.067881964 1.754058e-38
0.87438893 -0.011094694 0.077881962 1.7448744e-38
0.87438893 -0.0085946945 0.077881962 1.7632415e-38
0.87688893 -0.011094694 0.070381969 1.7632415e-38
0.87688893 -0.011094694 0.072881967 1.7816086e-38
0.87688893 -0.0085946945 0.070381969 1.7632415e-38
0.87688893 -0.0085946945 0.072881967 1.7632415e-38
0.87938893 -0.011094694 0.072881967 1.7632415e-38
0.87938893 -0.0085946945 0.070381969 1.7448744e-38
0.87938893 -0.0085946945 0.072881967 1.7632415e-38
0.87688893 -0.011094694 0.075381964 1.7448744e-38
0.87688893 -0.011094694 0.077881962 1.7632415e-38
0.87688893 -0.0085946945 0.075381964 1.7448744e-38
0.87688893 -0.0085946945 0.077881962 1.7356909e-38
0.87938893 -0.011094694 0.075381964 1.7632415e-38
0.87938893 -0.011094694 0.077881962 1.7448744e-38
0.87938893 -0.0085946945 0.075381964 1.7632415e-38
0.87938893 -0.0085946945 0.077881962 1.754058e-38
0.87688893 -0.0060946941 0.070381969 1.7632415e-38
0.87688893 -0.0060946941 0.072881967 1.7632415e-38
0.87688893 -0.0035946942 0.072881967 1.7632415e-38
0.87938893 -0.0060946941 0.070381969 1.7632415e-38
0.87938893 -0.0060946941 0.072881967 1.754058e-38
0.87938893 -0.0035946942 0.070381969 1.754058e-38
0.87938893 -0.0035946942 0.072881967 1.754058e-38
0.87688893 -0.0060946941 0.077881962 1.754058e-38
0.87688893 -0.0035946942 0.077881962 1.7265073e-38
0.87938893 -0.0060946941 0.075381964 1.7632415e-38
0.87938893 -0.0060946941 0.077881962 1.7632415e-38
0.87938893 -0.0035946942 0.075381964 1.7816086e-38
0.87938893 -0.0035946942 0.077881962 1.7816086e-38
0.87438893 0.0039053059 0.067881964 1.7265073e-38
0.87438893 0.006405306 0.065381967 1.7081402e-38
0.87438893 0.006405306 0.067881964 1.7081402e-38
0.87688893 -0.0010946941 0.065381967 1.7265073e-38
0.87688893 0.0014053058 0.065381967 1.7265073e-38
0.87938893 -0.0010946941 0.067881964 1.7632415e-38
0.87938893 0.0014053058 0.067881964 1.7448744e-38
0.87688893 0.0039053059 0.065381967 1.7081402e-38
0.87688893 0.006405306 0.065381967 1.7081402e-38
0.87938893 0.0039053059 0.067881964 1.7356909e-38
0.87938893 0.006405306 0.067881964 1.7265073e-38
0.87438893 0.0014053058 0.077881962 1.7632415e-38
0.87188888 0.0039053059 0.072881967 1.7265073e-38
0.87188888 0.006405306 0.072881967 1.7448744e-38
0.87438893 0.0039053059 0.070381969 1.754058e-38
0.87438893 0.0039053059 0.072881967 1.754058e-38
0.87438893 0.006405306 0.070381969 1.7448744e-38
0.87438893 0.006405306 0.072881967 1.754058e-38
0.87188888 0.0039053059 0.075381964 1.7356909e-38
0.87188888 0.0039053059 0.077881962 1.754058e-38
0.87188888 0.006405306 0.075381964 1.7448744e-38
0.87188888 0.006405306 0.077881962 1.754058e-38
0.87438893 0.0039053059 0.077881962 1.7356909e-38
0.87438893 0.006405306 0.077881962 1.754058e-38
0.87688893 -0.0010946941 0.070381969 1.754058e-38
0.87688893 -0.0010946941 0.072881967 1.754058e-38
0.87688893 0.0014053058 0.070381969 1.7356909e-38
0.87688893 0.0014053058 0.072881967 1.754058e-38
0.87938893 -0.0010946941 0.070381969 1.7448744e-38
0.87938893 -0.0010946941 0.072881967 1.7265073e-38
0.87938893 0.0014053058 0.070381969 1.754058e-38
0.87938893 0.0014053058 0.072881967 1.754058e-38
0.87688893 -0.0010946941 0.077881962 1.7265073e-38
0.87688893 0.0014053058 0.075381964 1.7448744e-38
0.87688893 0.0014053058 0.077881962 1.7632415e-38
0.87938893 -0.0010946941 0.075381964 1.754058e-38
0.87938893 -0.0010946941 0.077881962 1.754058e-38
0.87938893 0.0014053058 0.075381964 1.754058e-38
0.87938893 0.0014053058 0.077881962 1.754058e-38
0.87688893 0.0039053059 0.070381969 1.7356909e-38
0.87688893 0.0039053059 0.072881967 1.7081402e-38
0.87938893 0.0039053059 0.070381969 1.754058e-38
0.87938893 0.0039053059 0.072881967 1.754058e-38
0.87688893 0.0039053059 0.075381964 1.7356909e-38
0.87688893 0.0039053059 0.077881962 1.754058e-38
0.87688893 0.006405306 0.075381964 1.7356909e-38
0.87688893 0.006405306 0.077881962 1.754058e-38
0.87938893 0.0039053059 0.075381964 1.754058e-38
0.87938893 0.0039053059 0.077881962 1.754058e-38
0.88188893 -0.011094694 0.072881967 1.7632415e-38
0.88188893 -0.0085946945 0.072881967 1.7448744e-38
0.88188893 -0.011094694 0.077881962 1.7265073e-38
0.88188893 -0.0085946945 0.077881962 1.7632415e-38
0.88188893 -0.0060946941 0.072881967 1.7173238e-38
0.88188893 -0.0035946942 0.072881967 1.7173238e-38
0.88188893 -0.0060946941 0.077881962 1.754058e-38
0.88188893 -0.0035946942 0.077881962 1.7632415e-38
0.88438892 -0.0060946941 0.077881962 1.7632415e-38
0.88188893 -0.0010946941 0.065381967 1.7632415e-38
0.88188893 -0.0010946941 0.067881964 1.754058e-38
0.88188893 0.0014053058 0.065381967 1.7265073e-38
0.88188893 0.0014053058 0.067881964 1.754058e-38
0.88188893 0.0039053059 0.065381967 1.7265073e-38
0.88188893 0.0039053059 0.067881964 1.7265073e-38
0.88188893 -0.0010946941 0.070381969 1.7632415e-38
0.88188893 -0.0010946941 0.072881967 1.754058e-38
0.88188893 -0.0010946941 0.077881962 1.754058e-38
0.88188893 0.0014053058 0.077881962 1.7816086e-38
0.88438892 -0.0010946941 0.075381964 1.754058e-38
0.88438892 -0.0010946941 0.077881962 1.7632415e-38
0.88188893 0.0039053059 0.077881962 1.7632415e-38
0.87438893 -0.011094694 0.080381967 1.7356909e-38
0.87438893 -0.011094694 0.082881965 1.7448744e-38
0.87438893 -0.0085946945 0.080381967 1.7356909e-38
0.87438893 -0.0085946945 0.082881965 1.7632415e-38
0.87438893 -0.011094694 0.085381962 1.7724251e-38
0.87438893 -0.011094694 0.087881967 1.7448744e-38
0.87438893 -0.0085946945 0.085381962 1.7632415e-38
0.87438893 -0.0085946945 0.087881967 1.7448744e-38
0.87438893 -0.0060946941 0.080381967 1.754058e-38
0.87438893 -0.0060946941 0.082881965 1.7632415e-38
0.87438893 -0.0035946942 0.080381967 1.7632415e-38
0.87438893 -0.0035946942 0.082881965 1.7632415e-38
0.87438893 -0.0060946941 0.085381962 1.754058e-38
0.87438893 -0.0060946941 0.087881967 1.7356909e-38
0.87438893 -0.0035946942 0.085381962 1.7448744e-38
0.87438893 -0.0035946942 0.087881967 1.7448744e-38
0.87688893 -0.011094694 0.080381967 1.7356909e-38
0.87688893 -0.011094694 0.082881965 1.7448744e-38
0.87688893 -0.0085946945 0.080381967 1.7632415e-38
0.87938893 -0.011094694 0.080381967 1.7632415e-38
0.87938893 -0.011094694 0.082881965 1.7448744e-38
0.87688893 -0.011094694 0.087881967 1.7448744e-38
0.87688893 -0.0060946941 0.080381967 1.7632415e-38
0.87688893 -0.0060946941 0.082881965 1.7448744e-38
0.87688893 -0.0035946942 0.080381967 1.754058e-38
0.87688893 -0.0035946942 0.082881965 1.754058e-38
0.87938893 -0.0060946941 0.080381967 1.7632415e-38
0.87938893 -0.0035946942 0.080381967 1.754058e-38
0.87188888 -0.011094694 0.090381965 1.7173238e-38
0.87188888 -0.0085946945 0.090381965 1.7448744e-38
0.87188888 -0.0085946945 0.092881963 1.7448744e-38
0.87438893 -0.011094694 0.090381965 1.7448744e-38
0.87438893 -0.011094694 0.092881963 1.7173238e-38
0.87438893 -0.0085946945 0.090381965 1.754058e-38
0.87438893 -0.0085946945 0.092881963 1.7356909e-38
0.87188888 -0.011094694 0.095381968 1.7448744e-38
0.87188888 -0.0085946945 0.095381968 1.754058e-38
0.87438893 -0.011094694 0.095381968 1.7448744e-38
0.87438893 -0.0085946945 0.095381968 1.7632415e-38
0.87438893 -0.0085946945 0.097881965 1.754058e-38
0.87188888 -0.0060946941 0.090381965 1.7173238e-38
0.87188888 -0.0060946941 0.092881963 1.7265073e-38
0.87188888 -0.0035946942 0.090381965 1.754058e-38
0.87438893 -0.0060946941 0.090381965 1.7265073e-38
0.87438893 -0.0060946941 0.092881963 1.7173241e-38
0.87438893 -0.0035946942 0.090381965 1.7173238e-38
0.87438893 -0.0035946942 0.092881963 1.7265073e-38
0.87188888 -0.0060946941 0.095381968 1.754058e-38
0.87188888 -0.0035946942 0.095381968 1.7173238e-38
0.87438893 -0.0060946941 0.097881965 1.754058e-38
0.87438893 -0.0035946942 0.095381968 1.7265073e-38
0.87688893 -0.011094694 0.090381965 1.7448744e-38
0.87688893 -0.011094694 0.092881963 1.7448744e-38
0.87688893 -0.0085946945 0.090381965 1.7632415e-38
0.87688893 -0.0085946945 0.092881963 1.7448744e-38
0.87688893 -0.0035946942 0.090381965 1.7265077e-38
0.87688893 -0.0035946942 0.092881963 1.754058e-38
0.87688893 -0.0035946942 0.097881965 1.754058e-38
0.87938893 -0.0035946942 0.095381968 1.754058e-38
0.87938893 -0.0035946942 0.097881965 1.754058e-38
0.87188888 0.0014053058 0.080381967 1.754058e-38
0.87438893 -0.0010946941 0.080381967 1.754058e-38
0.87438893 0.0014053058 0.080381967 1.7448744e-38
0.87438893 0.0014053058 0.082881965 1.754058e-38
0.87188888 0.0039053059 0.080381967 1.7632415e-38
0.87188888 0.006405306 0.080381967 1.754058e-38
0.87438893 0.0039053059 0.080381967 1.7448747e-38
0.87438893 0.0039053059 0.082881965 1.754058e-38
0.87438893 0.006405306 0.080381967 1.754058e-38
0.87438893 0.006405306 0.082881965 1.754058e-38
0.87688893 -0.0010946941 0.080381967 1.7448744e-38
0.87688893 0.0014053058 0.080381967 1.7173238e-38
0.87938893 -0.0010946941 0.080381967 1.754058e-38
0.87938893 0.0014053058 0.080381967 1.754058e-38
0.87688893 0.0039053059 0.080381967 1.7356909e-38
0.87688893 0.0039053059 0.082881965 1.7448744e-38
0.87688893 0.006405306 0.080381967 1.7356909e-38
0.87688893 0.006405306 0.082881965 1.7448744e-38
0.87938893 0.0039053059 0.080381967 1.7356909e-38
0.87938893 0.0039053059 0.082881965 1.7448744e-38
0.87938893 0.006405306 0.080381967 1.7356909e-38
0.87938893 0.006405306 0.082881965 1.754058e-38
0.87688893 0.0039053059 0.085381962 1.7265073e-38
0.87688893 0.006405306 0.085381962 1.7265073e-38
0.87688893 0.006405306 0.087881967 1.7448744e-38
0.87938893 0.0039053059 0.085381962 1.754058e-38
0.87938893 0.006405306 0.085381962 1.754058e-38
0.87938893 0.006405306 0.087881967 1.7265073e-38
0.87188888 0.006405306 0.095381968 1.7356909e-38
0.87688893 -0.0010946941 0.097881965 1.7265073e-38
0.87938893 0.0014053058 0.097881965 1.7265073e-38
0.87938893 0.0039053059 0.097881965 1.7356909e-38
0.88188893 -0.011094694 0.080381967 1.7356909e-38
0.88188893 -0.0085946945 0.080381967 1.7632415e-38
0.88438892 -0.011094694 0.080381967 1.7448744e-38
0.88438892 -0.0085946945 0.080381967 1.7448744e-38
0.88438892 -0.0085946945 0.082881965 1.7448744e-38
0.88188893 -0.0060946941 0.080381967 1.7632415e-38
0.88188893 -0.0035946942 0.080381967 1.7632415e-38
0.88438892 -0.0060946941 0.080381967 1.7632415e-38
0.88438892 -0.0035946942 0.080381967 1.754058e-38
0.88438892 -0.0035946942 0.082881965 1.754058e-38
0.88688892 -0.0035946942 0.080381967 1.7632415e-38
0.88188893 -0.0010946941 0.080381967 1.754058e-38
0.88188893 0.0014053058 0.080381967 1.754058e-38
0.88438892 -0.0010946941 0.080381967 1.754058e-38
0.88438892 -0.0010946941 0.082881965 1.754058e-38
0.88438892 0.0014053058 0.080381967 1.754058e-38
0.88188893 0.0039053059 0.080381967 1.754058e-38
0.88188893 0.006405306 0.080381967 1.7448744e-38
0.88438892 0.0039053059 0.080381967 1.754058e-38
0.88438892 0.0039053059 0.082881965 1.7448744e-38
0.88438892 0.006405306 0.080381967 1.754058e-38
0.88438892 0.006405306 0.082881965 1.754058e-38
0.88188893 0.0039053059 0.085381962 1.754058e-38
0.88188893 0.006405306 0.085381962 1.7448744e-38
0.88438892 0.0039053059 0.085381962 1.7356909e-38
0.88438892 0.006405306 0.085381962 1.754058e-38
0.88438892 0.006405306 0.087881967 1.754058e-38
0.88688892 0.0039053059 0.085381962 1.754058e-38
0.88688892 0.0039053059 0.087881967 1.7907922e-38
0.88688892 0.006405306 0.085381962 1.754058e-38
0.88688892 0.006405306 0.087881967 1.7632415e-38
0.88188893 0.0014053058 0.097881965 1.7265073e-38
0.88438892 0.0039053059 0.092881963 1.7356909e-38
0.88438892 0.006405306 0.092881963 1.7356909e-38
0.87438893 0.0089053055 0.065381967 1.6897731e-38
0.87438893 0.0089053055 0.067881964 1.7081402e-38
0.87438893 0.011405306 0.065381967 1.7081402e-38
0.87438893 0.011405306 0.067881964 1.7265073e-38
0.87438893 0.013905305 0.065381967 1.7081402e-38
0.87438893 0.013905305 0.067881964 1.7081402e-38
0.87438893 0.016405307 0.065381967 1.7081402e-38
0.87438893 0.016405307 0.067881964 1.7081402e-38
0.87688893 0.0089053055 0.065381967 1.6989567e-38
0.87688893 0.011405306 0.065381967 1.7081402e-38
0.87938893 0.0089053055 0.067881964 1.7265073e-38
0.87938893 0.011405306 0.067881964 1.7265073e-38
0.87688893 0.016405307 0.065381967 1.7081402e-38
0.87188888 0.0089053055 0.072881967 1.7265073e-38
0.87188888 0.011405306 0.072881967 1.7356909e-38
0.87438893 0.0089053055 0.070381969 1.7356909e-38
0.87438893 0.0089053055 0.072881967 1.7081402e-38
0.87438893 0.011405306 0.070381969 1.7265073e-38
0.87438893 0.011405306 0.072881967 1.7081402e-38
0.87188888 0.0089053055 0.075381964 1.7265073e-38
0.87188888 0.0089053055 0.077881962 1.7356909e-38
0.87188888 0.011405306 0.075381964 1.754058e-38
0.87188888 0.011405306 0.077881962 1.7265073e-38
0.87438893 0.0089053055 0.077881962 1.7356909e-38
0.87438893 0.011405306 0.077881962 1.754058e-38
0.87188888 0.013905305 0.072881967 1.7356909e-38
0.87438893 0.013905305 0.070381969 1.7265073e-38
0.87438893 0.013905305 0.072881967 1.7356909e-38
0.87438893 0.016405307 0.070381969 1.7081402e-38
0.87438893 0.016405307 0.072881967 1.7356909e-38
0.87188888 0.013905305 0.075381964 1.7265073e-38
0.87188888 0.013905305 0.077881962 1.754058e-38
0.87438893 0.013905305 0.077881962 1.754058e-38
0.87438893 0.016405307 0.077881962 1.7081402e-38
0.87688893 0.0089053055 0.075381964 1.754058e-38
0.87688893 0.0089053055 0.077881962 1.7448744e-38
0.87688893 0.011405306 0.075381964 1.7081402e-38
0.87688893 0.011405306 0.077881962 1.7265073e-38
0.87938893 0.011405306 0.075381964 1.7265073e-38
0.87688893 0.016405307 0.070381969 1.7081402e-38
0.87688893 0.016405307 0.072881967 1.754058e-38
0.87938893 0.016405307 0.072881967 1.7356909e-38
0.87688893 0.013905305 0.075381964 1.754058e-38
0.87688893 0.013905305 0.077881962 1.7081402e-38
0.87688893 0.016405307 0.075381964 1.7356909e-38
0.87688893 0.016405307 0.077881962 1.7265073e-38
0.87938893 0.013905305 0.075381964 1.7265073e-38
0.87938893 0.013905305 0.077881962 1.7265073e-38
0.87938893 0.016405307 0.075381964 1.7081402e-38
0.87938893 0.016405307 0.077881962 1.7356909e-38
0.87438893 0.018905306 0.065381967 1.7081402e-38
0.87438893 0.018905306 0.067881964 1.7081402e-38
0.87438893 0.021405306 0.067881964 1.6989567e-38
0.87438893 0.023905305 0.067881964 1.6989567e-38
0.87438893 0.026405307 0.065381967 1.6897731e-38
0.87438893 0.026405307 0.067881964 1.7081402e-38
0.87688893 0.018905306 0.065381967 1.7081402e-38
0.87688893 0.021405306 0.065381967 1.7081402e-38
0.87938893 0.021405306 0.067881964 1.7081402e-38
0.87688893 0.023905305 0.065381967 1.6989567e-38
0.87688893 0.026405307 0.065381967 1.7265073e-38
0.87938893 0.023905305 0.067881964 1.6989567e-38
0.87938893 0.026405307 0.067881964 1.7265073e-38
0.87438893 0.018905306 0.070381969 1.7081402e-38
0.87438893 0.018905306 0.072881967 1.7265073e-38
0.87438893 0.023905305 0.072881967 1.7448744e-38
0.87438893 0.026405307 0.072881967 1.7265073e-38
0.87438893 0.026405307 0.077881962 1.754058e-38
0.87688893 0.018905306 0.070381969 1.7081402e-38
0.87688893 0.018905306 0.072881967 1.7356909e-38
0.87688893 0.021405306 0.070381969 1.7081402e-38
0.87688893 0.021405306 0.072881967 1.7356909e-38
0.87938893 0.018905306 0.072881967 1.7356909e-38
0.87938893 0.021405306 0.070381969 1.7356909e-38
0.87938893 0.021405306 0.072881967 1.7356909e-38
0.87688893 0.018905306 0.075381964 1.7265073e-38
0.87688893 0.018905306 0.077881962 1.7632415e-38
0.87688893 0.021405306 0.075381964 1.7356909e-38
0.87688893 0.021405306 0.077881962 1.7448744e-38
0.87938893 0.018905306 0.075381964 1.7356909e-38
0.87938893 0.018905306 0.077881962 1.7265073e-38
0.87938893 0.021405306 0.075381964 1.7356909e-38
0.87938893 0.021405306 0.077881962 1.7356909e-38
0.87688893 0.023905305 0.070381969 1.7356909e-38
0.87688893 0.023905305 0.072881967 1.7265073e-38
0.87688893 0.026405307 0.070381969 1.7356909e-38
0.87688893 0.026405307 0.072881967 1.7265073e-38
0.87938893 0.023905305 0.070381969 1.7081402e-38
0.87938893 0.023905305 0.072881967 1.7356909e-38
0.87938893 0.026405307 0.072881967 1.7356909e-38
0.87688893 0.023905305 0.075381964 1.7632417e-38
0.87688893 0.023905305 0.077881962 1.7448744e-38
0.87688893 0.026405307 0.075381964 1.7448744e-38
0.87688893 0.026405307 0.077881962 1.7356909e-38
0.87938893 0.023905305 0.075381964 1.754058e-38
0.87938893 0.023905305 0.077881962 1.7265073e-38
0.87938893 0.026405307 0.075381964 1.7356909e-38
0.88188893 0.0089053055 0.077881962 1.754058e-38
0.88188893 0.016405307 0.077881962 1.7081402e-38
0.88188893 0.021405306 0.072881967 1.7265073e-38
0.88188893 0.018905306 0.077881962 1.7356909e-38
0.88188893 0.021405306 0.077881962 1.7356909e-38
0.88188893 0.023905305 0.077881962 1.754058e-38
0.87188888 0.0089053055 0.080381967 1.7448744e-38
0.87188888 0.011405306 0.080381967 1.7356909e-38
0.87438893 0.0089053055 0.080381967 1.754058e-38
0.87438893 0.0089053055 0.082881965 1.754058e-38
0.87438893 0.011405306 0.080381967 1.7265073e-38
0.87438893 0.011405306 0.082881965 1.7448744e-38
0.87438893 0.0089053055 0.085381962 1.7632415e-38
0.87438893 0.011405306 0.085381962 1.7448744e-38
0.87188888 0.013905305 0.080381967 1.7356909e-38
0.87188888 0.016405307 0.080381967 1.7356909e-38
0.87438893 0.013905305 0.080381967 1.7356909e-38
0.87438893 0.013905305 0.082881965 1.7356909e-38
0.87438893 0.016405307 0.080381967 1.754058e-38
0.87438893 0.016405307 0.082881965 1.754058e-38
0.87438893 0.013905305 0.085381962 1.7356909e-38
0.87438893 0.016405307 0.085381962 1.754058e-38
0.87688893 0.0089053055 0.080381967 1.7632415e-38
0.87688893 0.0089053055 0.082881965 1.754058e-38
0.87688893 0.011405306 0.080381967 1.754058e-38
0.87688893 0.011405306 0.082881965 1.754058e-38
0.87938893 0.0089053055 0.080381967 1.754058e-38
0.87938893 0.0089053055 0.082881965 1.7265073e-38
0.87938893 0.011405306 0.080381967 1.7356909e-38
0.87938893 0.011405306 0.082881965 1.7632415e-38
0.87688893 0.0089053055 0.085381962 1.754058e-38
0.87688893 0.0089053055 0.087881967 1.7448744e-38
0.87688893 0.011405306 0.085381962 1.7356909e-38
0.87688893 0.011405306 0.087881967 1.7632415e-38
0.87938893 0.0089053055 0.085381962 1.7448744e-38
0.87938893 0.0089053055 0.087881967 1.754058e-38
0.87938893 0.011405306 0.085381962 1.7448744e-38
0.87938893 0.011405306 0.087881967 1.7356909e-38
0.87688893 0.013905305 0.080381967 1.754058e-38
0.87688893 0.013905305 0.082881965 1.7448744e-38
0.87688893 0.016405307 0.080381967 1.7265073e-38
0.87688893 0.016405307 0.082881965 1.7356909e-38
0.87938893 0.013905305 0.080381967 1.7356909e-38
0.87938893 0.016405307 0.080381967 1.7356909e-38
0.87938893 0.016405307 0.082881965 1.754058e-38
0.87688893 0.013905305 0.085381962 1.7356909e-38
0.87688893 0.013905305 0.087881967 1.7356909e-38
0.87688893 0.016405307 0.085381962 1.7356909e-38
0.87688893 0.016405307 0.087881967 1.7356909e-38
0.87938893 0.013905305 0.085381962 1.7356909e-38
0.87938893 0.013905305 0.087881967 1.754058e-38
0.87938893 0.016405307 0.085381962 1.7356909e-38
0.87188888 0.0089053055 0.095381968 1.7448744e-38
0.87188888 0.011405306 0.095381968 1.7356909e-38
0.87438893 0.013905305 0.090381965 1.7081402e-38
0.87438893 0.013905305 0.092881963 1.7356909e-38
0.87438893 0.016405307 0.090381965 1.7081402e-38
0.87438893 0.016405307 0.092881963 1.7356909e-38
0.87188888 0.013905305 0.095381968 1.7356909e-38
0.87188888 0.016405307 0.095381968 1.7356909e-38
0.87438893 0.016405307 0.095381968 1.7356909e-38
0.87688893 0.011405306 0.090381965 1.7356909e-38
0.87938893 0.0089053055 0.090381965 1.7265073e-38
0.87938893 0.011405306 0.090381965 1.7265073e-38
0.87938893 0.011405306 0.092881963 1.7265073e-38
0.87688893 0.013905305 0.090381965 1.7356909e-38
0.87688893 0.013905305 0.092881963 1.7265073e-38
0.87688893 0.016405307 0.090381965 1.7356909e-38
0.87688893 0.016405307 0.092881963 1.7081402e-38
0.87938893 0.013905305 0.090381965 1.7081402e-38
0.87938893 0.013905305 0.092881963 1.7265073e-38
0.87938893 0.016405307 0.090381965 1.7356909e-38
0.87938893 0.016405307 0.092881963 1.7356909e-38
0.87438893 0.018905306 0.080381967 1.7448744e-38
0.87438893 0.018905306 0.082881965 1.754058e-38
0.87438893 0.021405306 0.080381967 1.7356909e-38
0.87438893 0.021405306 0.082881965 1.7356909e-38
0.87188888 0.021405306 0.085381962 1.754058e-38
0.87438893 0.018905306 0.085381962 1.7356909e-38
0.87438893 0.021405306 0.085381962 1.754058e-38
0.87438893 0.021405306 0.087881967 1.7356909e-38
0.87188888 0.026405307 0.080381967 1.7448744e-38
0.87438893 0.023905305 0.080381967 1.754058e-38
0.87438893 0.023905305 0.082881965 1.7448744e-38
0.87438893 0.026405307 0.080381967 1.7265073e-38
0.87438893 0.026405307 0.082881965 1.7448744e-38
0.87188888 0.023905305 0.085381962 1.7448744e-38
0.87188888 0.026405307 0.085381962 1.754058e-38
0.87438893 0.023905305 0.085381962 1.754058e-38
0.87438893 0.023905305 0.087881967 1.754058e-38
0.87438893 0.026405307 0.085381962 1.7448744e-38
0.87438893 0.026405307 0.087881967 1.754058e-38
0.87688893 0.018905306 0.080381967 1.754058e-38
0.87688893 0.018905306 0.082881965 1.7356909e-38
0.87688893 0.021405306 0.080381967 1.7356909e-38
0.87688893 0.021405306 0.082881965 1.754058e-38
0.87938893 0.018905306 0.080381967 1.7356909e-38
0.87938893 0.018905306 0.082881965 1.754058e-38
0.87938893 0.021405306 0.080381967 1.7356909e-38
0.87688893 0.018905306 0.085381962 1.7356909e-38
0.87688893 0.018905306 0.087881967 1.754058e-38
0.87688893 0.021405306 0.085381962 1.754058e-38
0.87688893 0.021405306 0.087881967 1.754058e-38
0.87938893 0.018905306 0.085381962 1.754058e-38
0.87938893 0.018905306 0.087881967 1.754058e-38
0.87938893 0.021405306 0.085381962 1.754058e-38
0.87938893 0.021405306 0.087881967 1.754058e-38
0.87688893 0.023905305 0.080381967 1.7265073e-38
0.87688893 0.023905305 0.082881965 1.7265073e-38
0.87688893 0.026405307 0.080381967 1.7448744e-38
0.87688893 0.026405307 0.082881965 1.7356909e-38
0.87938893 0.023905305 0.080381967 1.754058e-38
0.87688893 0.023905305 0.087881967 1.754058e-38
0.87688893 0.026405307 0.087881967 1.7448744e-38
0.87938893 0.026405307 0.085381962 1.754058e-38
0.87438893 0.018905306 0.090381965 1.7356909e-38
0.87438893 0.018905306 0.092881963 1.754058e-38
0.87438893 0.021405306 0.090381965 1.7356909e-38
0.87438893 0.021405306 0.092881963 1.754058e-38
0.87188888 0.018905306 0.095381968 1.7265073e-38
0.87188888 0.021405306 0.095381968 1.7448744e-38
0.87438893 0.018905306 0.095381968 1.7448744e-38
0.87438893 0.018905306 0.097881965 1.7356909e-38
0.87438893 0.021405306 0.095381968 1.754058e-38
0.87438893 0.021405306 0.097881965 1.754058e-38
0.87438893 0.023905305 0.090381965 1.7632415e-38
0.87438893 0.023905305 0.092881963 1.754058e-38
0.87438893 0.026405307 0.090381965 1.754058e-38
0.87438893 0.026405307 0.092881963 1.7356909e-38
0.87188888 0.023905305 0.095381968 1.7448744e-38
0.87438893 0.023905305 0.095381968 1.754058e-38
0.87438893 0.023905305 0.097881965 1.754058e-38
0.87438893 0.026405307 0.095381968 1.7448744e-38
0.87688893 0.018905306 0.090381965 1.7356909e-38
0.87688893 0.018905306 0.092881963 1.7356909e-38
0.87688893 0.021405306 0.090381965 1.754058e-38
0.87688893 0.021405306 0.092881963 1.754058e-38
0.87938893 0.018905306 0.090381965 1.7265073e-38
0.87688893 0.018905306 0.097881965 1.7356909e-38
0.87688893 0.021405306 0.097881965 1.7356909e-38
0.87688893 0.023905305 0.090381965 1.754058e-38
0.87688893 0.023905305 0.092881963 1.754058e-38
0.87688893 0.026405307 0.090381965 1.7448744e-38
0.87688893 0.026405307 0.092881963 1.754058e-38
0.87938893 0.026405307 0.090381965 1.7356909e-38
0.87938893 0.026405307 0.092881963 1.7356909e-38
0.87688893 0.023905305 0.097881965 1.7356909e-38
0.87688893 0.026405307 0.097881965 1.7265073e-38
0.87938893 0.023905305 0.095381968 1.7356909e-38
0.87938893 0.023905305 0.097881965 1.7356909e-38
0.87938893 0.026405307 0.095381968 1.7356909e-38
0.87938893 0.026405307 0.097881965 1.7448744e-38
0.88188893 0.0089053055 0.080381967 1.7356909e-38
0.88188893 0.011405306 0.080381967 1.7356909e-38
0.88438892 0.0089053055 0.080381967 1.7356909e-38
0.88438892 0.0089053055 0.082881965 1.7448744e-38
0.88438892 0.011405306 0.080381967 1.754058e-38
0.88438892 0.011405306 0.082881965 1.754058e-38
0.88188893 0.0089053055 0.085381962 1.7448744e-38
0.88188893 0.0089053055 0.087881967 1.7448744e-38
0.88188893 0.011405306 0.087881967 1.754058e-38
0.88438892 0.0089053055 0.087881967 1.7356909e-38
0.88438892 0.011405306 0.085381962 1.754058e-38
0.88188893 0.013905305 0.080381967 1.7356909e-38
0.88188893 0.016405307 0.080381967 1.7356909e-38
0.88438892 0.013905305 0.080381967 1.754058e-38
0.88438892 0.013905305 0.082881965 1.754058e-38
0.88438892 0.016405307 0.080381967 1.754058e-38
0.88188893 0.013905305 0.087881967 1.7356909e-38
0.88688892 0.011405306 0.085381962 1.7356909e-38
0.88188893 0.0089053055 0.090381965 1.7356909e-38
0.88188893 0.018905306 0.087881967 1.7448744e-38
0.88188893 0.023905305 0.097881965 1.7356909e-38
0.88188893 0.026405307 0.095381968 1.7081402e-38
0.88188893 0.026405307 0.097881965 1.7356909e-38
0.86438888 -0.011094694 0.10538197 1.7448744e-38
0.86688888 -0.011094694 0.10038196 1.7448744e-38
0.86938888 -0.011094694 0.10038196 1.754058e-38
0.86938888 -0.011094694 0.10288197 1.754058e-38
0.86938888 -0.0085946945 0.10288197 1.7173238e-38
0.86688888 -0.011094694 0.10788196 1.754058e-38
0.86938888 -0.011094694 0.10538197 1.754058e-38
0.86938888 -0.011094694 0.10788196 1.7265073e-38
0.86938888 -0.0085946945 0.10538197 1.7265073e-38
0.86938888 -0.0085946945 0.10788196 1.754058e-38
0.86938888 -0.0060946941 0.10288197 1.7356909e-38
0.86938888 -0.0035946942 0.10288197 1.754058e-38
0.86688888 -0.0060946941 0.10788196 1.7356909e-38
0.86938888 -0.0060946941 0.10538197 1.7356909e-38
0.86938888 -0.0060946941 0.10788196 1.754058e-38
0.86938888 -0.0035946942 0.10538197 1.7173249e-38
0.86938888 -0.0035946942 0.10788196 1.7448744e-38
0.86938888 -0.011094694 0.11038197 1.7081402e-38
0.86938888 -0.011094694 0.11288197 1.7356909e-38
0.86938888 -0.0085946945 0.11288197 1.7173238e-38
0.86688888 -0.011094694 0.11788197 1.6989567e-38
0.86938888 -0.011094694 0.11538196 1.7081402e-38
0.86938888 -0.011094694 0.11788197 1.7081402e-38
0.86938888 -0.0085946945 0.11538196 1.7356909e-38
0.86938888 -0.0085946945 0.11788197 1.6897731e-38
0.86938888 -0.0060946941 0.11288197 1.7356909e-38
0.86938888 -0.0060946941 0.11788197 1.6897731e-38
0.86938888 -0.0010946941 0.10288197 1.7356909e-38
0.86938888 0.0014053058 0.10288197 1.6989567e-38
0.86688888 0.006405306 0.10288197 1.7265073e-38
0.86938888 0.0039053059 0.10288197 1.7356909e-38
0.86938888 0.006405306 0.10038196 1.7356909e-38
0.86938888 0.006405306 0.10288197 1.7356909e-38
0.86938888 0.006405306 0.10538197 1.7081402e-38
0.85938889 0.0039053059 0.12538196 1.6438554e-38
0.85938889 0.0039053059 0.12788196 1.6254883e-38
0.85938889 0.006405306 0.12538196 1.6438554e-38
0.85938889 0.006405306 0.12788196 1.6254883e-38
0.86438888 -0.0035946942 0.12788196 1.6438554e-38
0.86688888 -0.011094694 0.12038197 1.6897731e-38
0.86938888 -0.011094694 0.12288196 1.6438554e-38
0.86938888 -0.0085946945 0.12288196 1.6071212e-38
0.86688888 -0.011094694 0.12788196 1.754058e-38
0.86938888 -0.011094694 0.12538196 1.6805896e-38
0.86938888 -0.011094694 0.12788196 1.6805896e-38
0.86938888 -0.0085946945 0.12538196 1.6530389e-38
0.86938888 -0.0085946945 0.12788196 1.6805896e-38
0.86688888 -0.0035946942 0.12288196 1.6254883e-38
0.86938888 -0.0060946941 0.12288196 1.5979376e-38
0.86938888 -0.0035946942 0.12288196 1.6163047e-38
0.86688888 -0.0035946942 0.12788196 1.6438554e-38
0.86938888 -0.0060946941 0.12538196 1.6438554e-38
0.86938888 -0.0060946941 0.12788196 1.7265073e-38
0.86938888 -0.0035946942 0.12538196 1.6346718e-38
0.86938888 -0.0035946942 0.12788196 1.6897731e-38
0.86438888 -0.0060946941 0.13288197 1.7999757e-38
0.86438888 -0.0035946942 0.13038197 1.671406e-38
0.86438888 -0.0035946942 0.13288197 1.8091593e-38
0.86688888 -0.011094694 0.13038197 1.7907922e-38
0.86688888 -0.0035946942 0.13038197 1.7448744e-38
0.86938888 -0.0035946942 0.13288197 1.671406e-38
0.86188889 0.0014053058 0.12538196 1.6438554e-38
0.86438888 -0.0010946941 0.12538196 1.6346718e-38
0.86438888 -0.0010946941 0.12788196 1.6438554e-38
0.86438888 0.0014053058 0.12538196 1.6071212e-38
0.86438888 0.0014053058 0.12788196 1.6438554e-38
0.86188889 0.0039053059 0.12538196 1.6530389e-38
0.86188889 0.0039053059 0.12788196 1.6346718e-38
0.86188889 0.006405306 0.12538196 1.6530389e-38
0.86188889 0.006405306 0.12788196 1.6438554e-38
0.86438888 0.0039053059 0.12538196 1.6346718e-38
0.86438888 0.0039053059 0.12788196 1.6438554e-38
0.86688888 -0.0010946941 0.12288196 1.6163047e-38
0.86688888 0.0014053058 0.12288196 1.6071212e-38
0.86938888 -0.0010946941 0.12288196 1.6071212e-38
0.86688888 -0.0010946941 0.12788196 1.671406e-38
0.86688888 0.0014053058 0.12788196 1.671406e-38
0.86938888 -0.0010946941 0.12538196 1.6346718e-38
0.86938888 -0.0010946941 0.12788196 1.6346718e-38
0.86938888 0.0014053058 0.12538196 1.6346718e-38
0.86938888 0.0014053058 0.12788196 1.6438554e-38
0.86688888 0.0039053059 0.12788196 1.671406e-38
0.86938888 0.0039053059 0.12788196 1.7173238e-38
0.86438888 -0.0010946941 0.13038197 1.6805896e-38
0.86438888 -0.0010946941 0.13288197 1.7999757e-38
0.86188889 0.006405306 0.13038197 1.6346718e-38
0.86438888 0.0039053059 0.13038197 1.671406e-38
0.86438888 0.006405306 0.13038197 1.6622225e-38
0.86438888 0.006405306 0.13288197 1.855077e-38
0.86688888 -0.0010946941 0.13038197 1.7173238e-38
0.86688888 0.0014053058 0.13038197 1.7265073e-38
0.86938888 -0.0010946941 0.13288197 1.6622225e-38
0.86438888 0.0089053055 0.10288197 1.7356909e-38
0.86438888 0.011405306 0.10038196 1.754058e-38
0.86438888 0.011405306 0.10288197 1.7356909e-38
0.86188889 0.0089053055 0.10538197 1.7356909e-38
0.86188889 0.0089053055 0.10788196 1.7265073e-38
0.86188889 0.011405306 0.10538197 1.7356909e-38
0.86188889 0.011405306 0.10788196 1.7356909e-38
0.86438888 0.0089053055 0.10538197 1.7081402e-38
0.86438888 0.011405306 0.10538197 1.7356909e-38
0.86438888 0.013905305 0.10038196 1.754058e-38
0.86438888 0.013905305 0.10288197 1.754058e-38
0.86438888 0.016405307 0.10038196 1.7448744e-38
0.86438888 0.016405307 0.10288197 1.7081402e-38
0.86438888 0.013905305 0.10538197 1.7265073e-38
0.86438888 0.016405307 0.10538197 1.7356909e-38
0.86688888 0.0089053055 0.10288197 1.7356909e-38
0.86688888 0.011405306 0.10038196 1.7265073e-38
0.86688888 0.011405306 0.10288197 1.7265073e-38
0.86938888 0.0089053055 0.10038196 1.7356909e-38
0.86938888 0.0089053055 0.10288197 1.7356909e-38
0.86938888 0.011405306 0.10038196 1.754058e-38
0.86688888 0.011405306 0.10788196 1.7448744e-38
0.86938888 0.0089053055 0.10538197 1.7356909e-38
0.86938888 0.011405306 0.10538197 1.7081402e-38
0.86938888 0.011405306 0.10788196 1.7356909e-38
0.86688888 0.013905305 0.10038196 1.7356909e-38
0.86688888 0.013905305 0.10288197 1.754058e-38
0.86688888 0.016405307 0.10038196 1.754058e-38
0.86688888 0.016405307 0.10288197 1.7448744e-38
0.86938888 0.013905305 0.10038196 1.7448744e-38
0.86938888 0.016405307 0.10038196 1.7356909e-38
0.86938888 0.016405307 0.10288197 1.754058e-38
0.86688888 0.013905305 0.10788196 1.7265073e-38
0.86688888 0.016405307 0.10788196 1.7265073e-38
0.86938888 0.013905305 0.10538197 1.754058e-38
0.86938888 0.013905305 0.10788196 1.7356909e-38
0.86938888 0.016405307 0.10538197 1.754058e-38
0.86938888 0.016405307 0.10788196 1.7356909e-38
0.86938888 0.018905306 0.10288197 1.754058e-38
0.86938888 0.021405306 0.10288197 1.7356909e-38
0.86688888 0.018905306 0.10788196 1.7265073e-38
0.86938888 0.018905306 0.10538197 1.7265073e-38
0.86938888 0.018905306 0.10788196 1.7356909e-38
0.86938888 0.021405306 0.10538197 1.7265073e-38
0.86938888 0.021405306 0.10788196 1.6989567e-38
0.85938889 0.0089053055 0.12538196 1.6438555e-38
0.85938889 0.0089053055 0.12788196 1.6254883e-38
0.85938889 0.011405306 0.12538196 1.6438554e-38
0.85938889 0.011405306 0.12788196 1.6254883e-38
0.85938889 0.013905305 0.12538196 1.6438554e-38
0.85938889 0.013905305 0.12788196 1.6071212e-38
0.86438888 0.011405306 0.12288196 1.6438554e-38
0.86188889 0.0089053055 0.12538196 1.6438554e-38
0.86188889 0.0089053055 0.12788196 1.6254883e-38
0.86438888 0.011405306 0.12538196 1.6254883e-38
0.86188889 0.013905305 0.12538196 1.6438554e-38
0.86188889 0.013905305 0.12788196 1.6071212e-38
0.86688888 0.013905305 0.12288196 1.6530389e-38
0.86188889 0.0089053055 0.13038197 1.6438554e-38
0.86438888 0.0089053055 0.13038197 1.6622225e-38
0.86438888 0.0089053055 0.13288197 1.8367099e-38
0.87188888 -0.011094694 0.10038196 1.7632415e-38
0.87188888 -0.0085946945 0.10038196 1.7448744e-38
0.87188888 -0.0085946945 0.10288197 1.754058e-38
0.87188888 -0.011094694 0.10788196 1.7356909e-38
0.87188888 -0.0085946945 0.10538197 1.754058e-38
0.87188888 -0.0085946945 0.10788196 1.7356909e-38
0.87188888 -0.0060946941 0.10038196 1.7632415e-38
0.87188888 -0.0060946941 0.10288197 1.7265073e-38
0.87188888 -0.0035946942 0.10038196 1.754058e-38
0.87188888 -0.0035946942 0.10288197 1.7265073e-38
0.87438893 -0.0060946941 0.10038196 1.7632415e-38
0.87438893 -0.0035946942 0.10038196 1.7265073e-38
0.87188888 -0.0060946941 0.10538197 1.7265073e-38
0.87188888 -0.0060946941 0.10788196 1.754058e-38
0.87188888 -0.0035946942 0.10788196 1.7356909e-38
0.87188888 -0.011094694 0.11038197 1.7356909e-38
0.87188888 -0.0085946945 0.11038197 1.7356909e-38
0.87188888 -0.011094694 0.11538196 1.7081402e-38
0.87188888 -0.0085946945 0.11538196 1.7081402e-38
0.87188888 -0.0060946941 0.11038197 1.7265073e-38
0.87188888 -0.0060946941 0.11288197 1.7265073e-38
0.87188888 -0.0035946942 0.11038197 1.7265073e-38
0.87188888 -0.0035946942 0.11288197 1.7265073e-38
0.87438893 -0.0060946941 0.11288197 1.7081402e-38
0.87438893 -0.0035946942 0.11288197 1.7081402e-38
0.87188888 -0.0060946941 0.11538196 1.7081402e-38
0.87188888 -0.0060946941 0.11788197 1.671406e-38
0.87188888 -0.0035946942 0.11538196 1.7081402e-38
0.87188888 -0.0035946942 0.11788197 1.6530389e-38
0.87438893 -0.0060946941 0.11538196 1.6897731e-38
0.87438893 -0.0060946941 0.11788197 1.6438554e-38
0.87438893 -0.0035946942 0.11538196 1.6805896e-38
0.87438893 -0.0035946942 0.11788197 1.6530389e-38
0.87688893 -0.0060946941 0.11788197 1.6438554e-38
0.87688893 -0.0035946942 0.11788197 1.6530389e-38
0.87188888 -0.0010946941 0.10038196 1.754058e-38
0.87188888 -0.0010946941 0.10288197 1.7173238e-38
0.87188888 0.0014053058 0.10288197 1.754058e-38
0.87438893 -0.0010946941 0.10038196 1.7265073e-38
0.87438893 0.0014053058 0.10038196 1.7356909e-38
0.87438893 0.0014053058 0.10288197 1.7081402e-38
0.87188888 -0.0010946941 0.10538197 1.7265086e-38
0.87188888 -0.0010946941 0.10788196 1.7356909e-38
0.87188888 0.0014053058 0.10538197 1.7356909e-38
0.87188888 0.0014053058 0.10788196 1.7356909e-38
0.87438893 0.0014053058 0.10538197 1.7356909e-38
0.87438893 0.0014053058 0.10788196 1.7081402e-38
0.87188888 0.0039053059 0.10288197 1.7356909e-38
0.87188888 0.006405306 0.10038196 1.7356909e-38
0.87188888 0.006405306 0.10288197 1.7081402e-38
0.87438893 0.0039053059 0.10038196 1.7265073e-38
0.87438893 0.0039053059 0.10288197 1.7265073e-38
0.87438893 0.006405306 0.10288197 1.7081402e-38
0.87188888 0.0039053059 0.10538197 1.7265073e-38
0.87188888 0.0039053059 0.10788196 1.7081402e-38
0.87188888 0.006405306 0.10538197 1.7081402e-38
0.87188888 0.006405306 0.10788196 1.7081402e-38
0.87438893 0.0039053059 0.10538197 1.6989567e-38
0.87438893 0.0039053059 0.10788196 1.7081402e-38
0.87438893 0.006405306 0.10538197 1.7081402e-38
0.87438893 0.006405306 0.10788196 1.7081402e-38
0.87688893 0.0014053058 0.10788196 1.7081402e-38
0.87688893 0.0039053059 0.10288197 1.7081402e-38
0.87688893 0.0039053059 0.10538197 1.7265073e-38
0.87688893 0.0039053059 0.10788196 1.7081402e-38
0.87688893 0.006405306 0.10538197 1.7265073e-38
0.87688893 0.006405306 0.10788196 1.7081402e-38
0.87938893 0.006405306 0.10788196 1.7265073e-38
0.87188888 -0.0010946941 0.11038197 1.7265073e-38
0.87188888 -0.0010946941 0.11288197 1.6989567e-38
0.87188888 0.0014053058 0.11288197 1.7081402e-38
0.87438893 -0.0010946941 0.11038197 1.7081402e-38
0.87438893 -0.0010946941 0.11288197 1.7081402e-38
0.87438893 0.0014053058 0.11038197 1.7081402e-38
0.87438893 0.0014053058 0.11288197 1.7081402e-38
0.87188888 -0.0010946941 0.11538196 1.7081402e-38
0.87188888 -0.0010946941 0.11788197 1.6805896e-38
0.87438893 -0.0010946941 0.11538196 1.6805896e-38
0.87438893 -0.0010946941 0.11788197 1.6530389e-38
0.87438893 0.0014053058 0.11538196 1.671406e-38
0.87438893 0.0039053059 0.11038197 1.7265073e-38
0.87438893 0.0039053059 0.11288197 1.7265073e-38
0.87438893 0.006405306 0.11038197 1.7356909e-38
0.87438893 0.006405306 0.11288197 1.7265073e-38
0.87188888 0.006405306 0.11788197 1.671406e-38
0.87438893 0.0039053059 0.11538196 1.6805896e-38
0.87438893 0.006405306 0.11538196 1.6530389e-38
0.87688893 -0.0010946941 0.11288197 1.6805896e-38
0.87688893 0.0014053058 0.11038197 1.7081402e-38
0.87688893 0.0014053058 0.11288197 1.6805896e-38
0.87688893 -0.0010946941 0.11538196 1.6530389e-38
0.87688893 -0.0010946941 0.11788197 1.6438554e-38
0.87688893 0.0014053058 0.11538196 1.6530389e-38
0.87688893 0.0014053058 0.11788197 1.6438554e-38
0.87688893 0.0039053059 0.11038197 1.7081402e-38
0.87688893 0.0039053059 0.11288197 1.6989567e-38
0.87688893 0.006405306 0.11038197 1.6989567e-38
0.87688893 0.006405306 0.11288197 1.6989567e-38
0.87938893 0.006405306 0.11288197 1.6805896e-38
0.87688893 0.0039053059 0.11538196 1.671406e-38
0.87688893 0.0039053059 0.11788197 1.6530389e-38
0.87688893 0.006405306 0.11538196 1.671406e-38
0.88438892 0.006405306 0.10288197 1.7081402e-38
0.88188893 0.006405306 0.11038197 1.7081402e-38
0.87188888 -0.011094694 0.12038197 1.6805896e-38
0.87188888 -0.0085946945 0.12038197 1.6438554e-38
0.87188888 -0.0085946945 0.12288196 1.6438554e-38
0.87188888 -0.011094694 0.12538196 1.7081402e-38
0.87188888 -0.011094694 0.12788196 1.7907922e-38
0.87188888 -0.0085946945 0.12538196 1.6989567e-38
0.87188888 -0.0085946945 0.12788196 1.7265073e-38
0.87188888 -0.0060946941 0.12038197 1.6530389e-38
0.87188888 -0.0060946941 0.12288196 1.5887541e-38
0.87188888 -0.0035946942 0.12288196 1.5795705e-38
0.87438893 -0.0060946941 0.12038197 1.6438554e-38
0.87188888 -0.0060946941 0.12538196 1.6989567e-38
0.87188888 -0.0060946941 0.12788196 1.7448744e-38
0.87188888 -0.0035946942 0.12788196 1.7356909e-38
0.87438893 -0.0060946941 0.12538196 1.7081402e-38
0.87438893 -0.0060946941 0.12788196 1.8367099e-38
0.87438893 -0.0035946942 0.12538196 1.671406e-38
0.87688893 -0.0085946945 0.12788196 1.7907922e-38
0.87688893 -0.0035946942 0.12038197 1.6163047e-38
0.87688893 -0.0060946941 0.12788196 1.7999757e-38
0.87188888 -0.011094694 0.13038197 1.845894e-38
0.87188888 -0.0085946945 0.13038197 1.8367103e-38
0.87438893 -0.0085946945 0.13038197 1.7907922e-38
0.87188888 -0.0060946941 0.13038197 1.8091593e-38
0.87188888 -0.0035946942 0.13038197 1.8091593e-38
0.87188888 -0.0035946942 0.13288197 1.7265073e-38
0.87438893 -0.0060946941 0.13038197 1.8091593e-38
0.87438893 -0.0060946941 0.13288197 1.6989567e-38
0.87438893 -0.0035946942 0.13038197 1.7999757e-38
0.87188888 -0.0035946942 0.13538197 1.671406e-38
0.87688893 -0.0060946941 0.13038197 1.6897731e-38
0.87688893 -0.0060946941 0.13288197 1.6897731e-38
0.87188888 0.0014053058 0.12788196 1.7907922e-38
0.87188888 0.0039053059 0.12788196 1.7173238e-38
0.87188888 -0.0010946941 0.13038197 1.7999757e-38
0.87188888 -0.0010946941 0.13288197 1.7265073e-38
0.87188888 0.0014053058 0.13038197 1.7816086e-38
0.87438893 -0.0010946941 0.13038197 1.7907922e-38
0.87438893 -0.0010946941 0.13288197 1.7265073e-38
0.87438893 0.0014053058 0.13038197 1.7999757e-38
0.87438893 0.0014053058 0.13288197 1.7173238e-38
0.87188888 -0.0010946941 0.13538197 1.671406e-38
0.87438893 -0.0010946941 0.13538197 1.6622225e-38
0.87188888 0.0039053059 0.13038197 1.7907922e-38
0.87188888 0.006405306 0.13038197 1.8275264e-38
0.87438893 0.0039053059 0.13038197 1.7907922e-38
0.87188888 0.0089053055 0.10038196 1.7265073e-38
0.87188888 0.0089053055 0.10288197 1.7356909e-38
0.87438893 0.0089053055 0.10288197 1.7081402e-38
0.87188888 0.0089053055 0.10538197 1.7081402e-38
0.87188888 0.0089053055 0.10788196 1.7081402e-38
0.87188888 0.011405306 0.10788196 1.7356909e-38
0.87438893 0.0089053055 0.10538197 1.6989567e-38
0.87438893 0.0089053055 0.10788196 1.6989567e-38
0.87438893 0.011405306 0.10788196 1.7081402e-38
0.87188888 0.016405307 0.10038196 1.754058e-38
0.87188888 0.013905305 0.10788196 1.7081402e-38
0.87188888 0.016405307 0.10538197 1.754058e-38
0.87188888 0.016405307 0.10788196 1.7356909e-38
0.87438893 0.016405307 0.10788196 1.7081402e-38
0.87688893 0.0089053055 0.10788196 1.6989567e-38
0.87688893 0.011405306 0.10788196 1.6989567e-38
0.87688893 0.016405307 0.10788196 1.7081402e-38
0.87188888 0.0089053055 0.11038197 1.7265073e-38
0.87188888 0.011405306 0.11038197 1.6989567e-38
0.87438893 0.0089053055 0.11038197 1.7081402e-38
0.87438893 0.0089053055 0.11288197 1.6989567e-38
0.87438893 0.011405306 0.11038197 1.7081402e-38
0.87438893 0.011405306 0.11288197 1.7081402e-38
0.87188888 0.0089053055 0.11538196 1.7081402e-38
0.87188888 0.0089053055 0.11788197 1.671406e-38
0.87188888 0.011405306 0.11538196 1.6989567e-38
0.87188888 0.011405306 0.11788197 1.671406e-38
0.87188888 0.013905305 0.11038197 1.6989567e-38
0.87188888 0.016405307 0.11038197 1.7081402e-38
0.87438893 0.013905305 0.11038197 1.7265073e-38
0.87438893 0.013905305 0.11288197 1.6989567e-38
0.87438893 0.016405307 0.11038197 1.7081402e-38
0.87438893 0.016405307 0.11288197 1.7081402e-38
0.87688893 0.0089053055 0.11038197 1.7081402e-38
0.87688893 0.011405306 0.11038197 1.7081402e-38
0.87688893 0.011405306 0.11288197 1.6897731e-38
0.87938893 0.0089053055 0.11288197 1.6530389e-38
0.87938893 0.011405306 0.11288197 1.671406e-38
0.87688893 0.011405306 0.11538196 1.671406e-38
0.87688893 0.013905305 0.11038197 1.6989567e-38
0.87688893 0.013905305 0.11288197 1.671406e-38
0.87688893 0.016405307 0.11038197 1.7081402e-38
0.87688893 0.016405307 0.11288197 1.6897733e-38
0.87938893 0.013905305 0.11288197 1.671406e-38
0.87938893 0.016405307 0.11288197 1.671406e-38
0.87688893 0.013905305 0.11538196 1.671406e-38
0.87688893 0.013905305 0.11788197 1.6438554e-38
0.87688893 0.016405307 0.11538196 1.671406e-38
0.87688893 0.016405307 0.11788197 1.6530389e-38
0.87938893 0.016405307 0.11788197 1.6071212e-38
0.87188888 0.018905306 0.10038196 1.7448744e-38
0.87188888 0.021405306 0.10038196 1.7265073e-38
0.87188888 0.021405306 0.10288197 1.754058e-38
0.87438893 0.018905306 0.10038196 1.754058e-38
0.87438893 0.021405306 0.10038196 1.754058e-38
0.87188888 0.018905306 0.10538197 1.7448744e-38
0.87188888 0.018905306 0.10788196 1.7081402e-38
0.87188888 0.021405306 0.10538197 1.7265073e-38
0.87188888 0.021405306 0.10788196 1.7265073e-38
0.87188888 0.023905305 0.10038196 1.7265073e-38
0.87188888 0.023905305 0.10288197 1.754058e-38
0.87438893 0.023905305 0.10038196 1.754058e-38
0.87438893 0.023905305 0.10288197 1.7265073e-38
0.87438893 0.026405307 0.10038196 1.754058e-38
0.87438893 0.026405307 0.10288197 1.7265073e-38
0.87188888 0.023905305 0.10538197 1.7265073e-38
0.87188888 0.023905305 0.10788196 1.7265073e-38
0.87188888 0.026405307 0.10788196 1.7265073e-38
0.87438893 0.023905305 0.10538197 1.7265073e-38
0.87438893 0.023905305 0.10788196 1.7265073e-38
0.87438893 0.026405307 0.10538197 1.7265073e-38
0.87438893 0.026405307 0.10788196 1.7265073e-38
0.87688893 0.018905306 0.10788196 1.6989567e-38
0.87688893 0.021405306 0.10788196 1.7081402e-38
0.87688893 0.023905305 0.10038196 1.7265073e-38
0.87688893 0.026405307 0.10038196 1.7265073e-38
0.87688893 0.026405307 0.10288197 1.7265073e-38
0.87938893 0.023905305 0.10038196 1.7265073e-38
0.87938893 0.026405307 0.10038196 1.7081402e-38
0.87688893 0.023905305 0.10788196 1.7081402e-38
0.87688893 0.026405307 0.10788196 1.7081402e-38
0.87938893 0.023905305 0.10788196 1.7081402e-38
0.87938893 0.026405307 0.10788196 1.6989567e-38
0.87188888 0.018905306 0.11038197 1.7081402e-38
0.87438893 0.018905306 0.11038197 1.6989567e-38
0.87438893 0.018905306 0.11288197 1.7081402e-38
0.87438893 0.021405306 0.11038197 1.7081402e-38
0.87438893 0.021405306 0.11288197 1.6989567e-38
0.87438893 0.023905305 0.11038197 1.7081402e-38
0.87438893 0.023905305 0.11288197 1.6989567e-38
0.87438893 0.026405307 0.11038197 1.7081402e-38
0.87438893 0.026405307 0.11288197 1.7265073e-38
0.87438893 0.026405307 0.11538196 1.671406e-38
0.87688893 0.018905306 0.11038197 1.7356909e-38
0.87688893 0.018905306 0.11288197 1.671406e-38
0.87688893 0.021405306 0.11038197 1.7081402e-38
0.87938893 0.018905306 0.11288197 1.6897731e-38
0.87938893 0.021405306 0.11288197 1.6989567e-38
0.87688893 0.018905306 0.11538196 1.6805896e-38
0.87688893 0.018905306 0.11788197 1.6438554e-38
0.87688893 0.021405306 0.11788197 1.6438554e-38
0.87938893 0.018905306 0.11788197 1.6254883e-38
0.87938893 0.021405306 0.11788197 1.5979376e-38
0.87688893 0.023905305 0.11038197 1.7081402e-38
0.87688893 0.023905305 0.11288197 1.671406e-38
0.87688893 0.026405307 0.11038197 1.6897731e-38
