# .PCD v0.7 - Point Cloud Data file format
VERSION 0.7
FIELDS x y z rgb
SIZE 4 4 4 4
TYPE F F F F
COUNT 1 1 1 1
WIDTH 993
HEIGHT 1
VIEWPOINT 0 0 0 1 0 0 0
POINTS 993
DATA ascii
0.80154246 -0.13001543 0.1355221 1.919362e-38
0.80154246 -0.13001543 0.13802209 1.8826277e-38
0.80154246 -0.12251543 0.12552211 1.6163047e-38
0.80154246 -0.12001543 0.12552211 1.5703878e-38
0.80404246 -0.21251543 0.065522105 1.9391028e-38
0.80404246 -0.21001543 0.065522105 1.7639671e-38
0.80904245 -0.21501544 0.065522105 1.7739728e-38
0.80904245 -0.21251543 0.065522105 1.9668678e-38
0.80404246 -0.21501544 0.088022105 1.9147154e-38
0.80404246 -0.21251543 0.088022105 2.1701975e-38
0.80654246 -0.21501544 0.088022105 1.9422302e-38
0.80654246 -0.21501544 0.090522103 1.9329388e-38
0.80654246 -0.21251543 0.088022105 2.1056255e-38
0.80654246 -0.21251543 0.090522103 2.1238486e-38
0.80404246 -0.21001543 0.088022105 1.6994272e-38
0.80404246 -0.20751543 0.088022105 1.7086468e-38
0.80404246 -0.20751543 0.090522103 1.7180822e-38
0.80654246 -0.21001543 0.088022105 1.6627648e-38
0.80654246 -0.21001543 0.090522103 1.6902803e-38
0.80654246 -0.20751543 0.088022105 1.7271938e-38
0.80904245 -0.21501544 0.090522103 2.2066461e-38
0.80904245 -0.21251543 0.090522103 1.6350691e-38
0.80404246 -0.21501544 0.093022101 1.88702e-38
0.80404246 -0.21501544 0.095522106 1.8869126e-38
0.80404246 -0.21251543 0.093022101 2.1517218e-38
0.80654246 -0.21251543 0.093022101 2.0408369e-38
0.80404246 -0.21501544 0.1280221 2.0959766e-38
0.80404246 -0.21251543 0.1280221 2.2882175e-38
0.80654246 -0.21251543 0.1280221 1.8275275e-38
0.80404246 -0.21001543 0.1280221 1.8550776e-38
0.80404246 -0.20751543 0.1280221 1.7820776e-38
0.80904245 -0.21251543 0.1280221 1.7816086e-38
0.80904245 -0.21001543 0.1280221 1.6254883e-38
0.80904245 -0.20751543 0.1280221 1.6346718e-38
0.80904245 -0.20751543 0.1305221 1.6346745e-38
0.91404247 -0.23751543 0.098022103 1.9757993e-38
0.91654247 -0.23251544 0.095522106 1.6254883e-38
0.91404247 -0.23501544 0.098022103 1.9757993e-38
0.91404247 -0.23251544 0.098022103 1.8553654e-38
0.91654247 -0.23501544 0.1005221 1.9386697e-38
0.91654247 -0.23251544 0.1005221 1.8645853e-38
0.91404247 -0.23001543 0.098022103 1.6254883e-38
0.91654247 -0.23001543 0.1005221 1.6254883e-38
0.92154247 -0.22751543 0.095522106 1.5428375e-38
0.92154247 -0.22751543 0.098022103 1.5428363e-38
0.93154246 -0.23751543 0.073022105 1.6897731e-38
0.93154246 -0.23751543 0.0780221 1.9659281e-38
0.92654246 -0.23501544 0.0705221 1.5703887e-38
0.92654246 -0.23251544 0.068022102 1.6346755e-38
0.92654246 -0.23251544 0.0705221 1.5979396e-38
0.92654246 -0.23001543 0.068022102 1.6346727e-38
0.92654246 -0.23001543 0.0705221 1.671406e-38
0.92654246 -0.22751543 0.068022102 1.6530399e-38
0.92654246 -0.22751543 0.0705221 1.6622225e-38
0.92904246 -0.23251544 0.068022102 1.6346746e-38
0.93154246 -0.23501544 0.068022102 1.6071212e-38
0.93154246 -0.23251544 0.068022102 1.6530391e-38
0.93154246 -0.23251544 0.0705221 1.6163074e-38
0.92904246 -0.23001543 0.068022102 1.6346721e-38
0.92904246 -0.22751543 0.068022102 1.6897731e-38
0.93154246 -0.23001543 0.0705221 1.6254883e-38
0.93154246 -0.22751543 0.0705221 1.6805896e-38
0.92654246 -0.23501544 0.075522102 1.6897731e-38
0.92654246 -0.23251544 0.075522102 1.6346721e-38
0.92654246 -0.23001543 0.075522102 1.6346718e-38
0.92904246 -0.23501544 0.073022105 1.7265073e-38
0.92904246 -0.23501544 0.075522102 1.7081402e-38
0.92904246 -0.23251544 0.073022105 1.6530389e-38
0.92904246 -0.23251544 0.075522102 1.6530391e-38
0.93154246 -0.23501544 0.073022105 1.6346724e-38
0.93154246 -0.23501544 0.075522102 1.6989567e-38
0.93154246 -0.23251544 0.073022105 1.6346718e-38
0.93154246 -0.23251544 0.075522102 1.6530391e-38
0.92904246 -0.23501544 0.0780221 1.671406e-38
0.92904246 -0.23501544 0.080522105 1.6438554e-38
0.92904246 -0.23251544 0.0780221 1.6163057e-38
0.92904246 -0.23251544 0.080522105 1.6254883e-38
0.93154246 -0.23501544 0.0780221 1.6071212e-38
0.93154246 -0.23251544 0.0780221 1.6346724e-38
0.92904246 -0.23001543 0.073022105 1.6622225e-38
0.92904246 -0.23001543 0.075522102 1.6530389e-38
0.92904246 -0.22751543 0.073022105 1.6622225e-38
0.92904246 -0.22751543 0.075522102 1.6254883e-38
0.93154246 -0.23001543 0.073022105 1.6254883e-38
0.93154246 -0.23001543 0.075522102 1.6346718e-38
0.93154246 -0.22751543 0.073022105 1.6530389e-38
0.93154246 -0.22751543 0.075522102 1.6254883e-38
0.92904246 -0.23001543 0.0780221 1.6254883e-38
0.92904246 -0.23001543 0.080522105 1.6254883e-38
0.92904246 -0.22751543 0.0780221 1.6254883e-38
0.92904246 -0.22751543 0.080522105 1.6071212e-38
0.93154246 -0.23001543 0.0780221 1.5979376e-38
0.93154246 -0.22751543 0.0780221 1.5887541e-38
0.93404245 -0.23751543 0.075522102 1.6989567e-38
0.93404245 -0.24001543 0.080522105 1.9299886e-38
0.93404245 -0.23751543 0.0780221 1.6897731e-38
0.93404245 -0.23751543 0.080522105 1.9567086e-38
0.93654245 -0.23751543 0.0780221 1.6622225e-38
0.93654245 -0.23751543 0.080522105 1.6438554e-38
0.93404245 -0.23501544 0.068022102 1.6071212e-38
0.93404245 -0.23501544 0.075522102 1.6254883e-38
0.93404245 -0.23251544 0.075522102 1.6346718e-38
0.93404245 -0.23501544 0.0780221 1.5887541e-38
0.93404245 -0.23501544 0.080522105 1.6071212e-38
0.93404245 -0.23251544 0.0780221 1.6163049e-38
0.93404245 -0.23251544 0.080522105 1.6163047e-38
0.93654245 -0.23501544 0.0780221 1.5887541e-38
0.93654245 -0.23501544 0.080522105 1.5887541e-38
0.93654245 -0.23251544 0.0780221 1.6254883e-38
0.93654245 -0.23251544 0.080522105 1.5979376e-38
0.93404245 -0.23001543 0.075522102 1.5887541e-38
0.93404245 -0.22751543 0.075522102 1.6071212e-38
0.93404245 -0.23001543 0.0780221 1.5887541e-38
0.93404245 -0.23001543 0.080522105 1.5887541e-38
0.93404245 -0.22751543 0.0780221 1.5887541e-38
0.93404245 -0.22751543 0.080522105 1.5887541e-38
0.93654245 -0.23001543 0.0780221 1.5612034e-38
0.93654245 -0.22751543 0.0780221 1.5520199e-38
0.92654246 -0.23751543 0.0855221 1.9382339e-38
0.92904246 -0.23751543 0.0855221 1.9382336e-38
0.92654246 -0.23501544 0.0855221 1.6438554e-38
0.92654246 -0.23251544 0.083022103 1.5887541e-38
0.92654246 -0.23251544 0.0855221 1.5887541e-38
0.92654246 -0.23501544 0.088022105 1.9382336e-38
0.92654246 -0.23501544 0.090522103 1.919867e-38
0.92654246 -0.23251544 0.088022105 1.5887541e-38
0.92654246 -0.23001543 0.083022103 1.6254888e-38
0.92654246 -0.23001543 0.0855221 1.6163047e-38
0.92654246 -0.23001543 0.088022105 1.6163047e-38
0.92654246 -0.23001543 0.090522103 1.5979376e-38
0.92654246 -0.22751543 0.088022105 1.5887541e-38
0.92654246 -0.22751543 0.090522103 1.570387e-38
0.92904246 -0.23501544 0.0855221 1.6346718e-38
0.92904246 -0.23251544 0.0855221 1.5336528e-38
0.93154246 -0.23501544 0.083022103 1.6438554e-38
0.93154246 -0.23251544 0.083022103 1.6254888e-38
0.92904246 -0.23501544 0.088022105 1.6438554e-38
0.92904246 -0.23251544 0.088022105 1.5336528e-38
0.93154246 -0.23501544 0.088022105 1.6438554e-38
0.93154246 -0.23251544 0.088022105 1.5336528e-38
0.92904246 -0.23001543 0.0855221 1.6163047e-38
0.93154246 -0.23001543 0.083022103 1.570387e-38
0.93154246 -0.22751543 0.083022103 1.5887541e-38
0.92904246 -0.23001543 0.088022105 1.570387e-38
0.93154246 -0.23001543 0.088022105 1.6071215e-38
0.93154246 -0.23001543 0.090522103 1.5703882e-38
0.93154246 -0.22751543 0.088022105 1.5520199e-38
0.93154246 -0.22751543 0.090522103 1.5612046e-38
0.92404246 -0.23251544 0.093022101 1.4969186e-38
0.92654246 -0.23251544 0.093022101 1.496919e-38
0.92654246 -0.23251544 0.095522106 1.5152857e-38
0.92404246 -0.23001543 0.093022101 1.5979376e-38
0.92404246 -0.22751543 0.093022101 1.570387e-38
0.92654246 -0.23001543 0.093022101 1.5612034e-38
0.92654246 -0.23001543 0.095522106 1.570387e-38
0.92654246 -0.22751543 0.093022101 1.5612034e-38
0.92654246 -0.22751543 0.095522106 1.5612034e-38
0.92904246 -0.23501544 0.093022101 1.6346718e-38
0.92904246 -0.23251544 0.093022101 1.5795705e-38
0.92904246 -0.23001543 0.093022101 1.5979378e-38
0.92904246 -0.22751543 0.093022101 1.570387e-38
0.93154246 -0.23001543 0.093022101 1.5979376e-38
0.93154246 -0.23001543 0.095522106 1.6071212e-38
0.93154246 -0.22751543 0.093022101 1.5795705e-38
0.93154246 -0.22751543 0.095522106 1.5795705e-38
0.93154246 -0.23001543 0.098022103 1.6163049e-38
0.93154246 -0.22751543 0.098022103 1.6254891e-38
0.93404245 -0.23751543 0.083022103 1.9014629e-38
0.93904245 -0.23751543 0.083022103 1.6438554e-38
0.93904245 -0.23751543 0.0855221 1.6346718e-38
0.93404245 -0.23501544 0.083022103 1.5887541e-38
0.93404245 -0.23251544 0.083022103 1.6254888e-38
0.93404245 -0.23251544 0.0855221 1.6163047e-38
0.93654245 -0.23501544 0.0855221 1.5887541e-38
0.93654245 -0.23251544 0.0855221 1.6163047e-38
0.93404245 -0.23251544 0.088022105 1.570387e-38
0.93654245 -0.23251544 0.090522103 1.5336528e-38
0.93404245 -0.23001543 0.083022103 1.5887541e-38
0.93404245 -0.23001543 0.0855221 1.570387e-38
0.93404245 -0.22751543 0.083022103 1.5887541e-38
0.93404245 -0.22751543 0.0855221 1.5795721e-38
0.93654245 -0.23001543 0.0855221 1.5795721e-38
0.93654245 -0.22751543 0.0855221 1.5795705e-38
0.93404245 -0.23001543 0.088022105 1.5795705e-38
0.93404245 -0.22751543 0.088022105 1.5612034e-38
0.93654245 -0.22751543 0.090522103 1.5244692e-38
0.93904245 -0.23501544 0.083022103 1.5887541e-38
0.93904245 -0.23501544 0.0855221 1.5795705e-38
0.93904245 -0.23251544 0.083022103 1.6163047e-38
0.93904245 -0.23251544 0.0855221 1.5795708e-38
0.94154245 -0.23501544 0.083022103 1.570387e-38
0.93904245 -0.23001543 0.083022103 1.5612034e-38
0.93904245 -0.23001543 0.0855221 1.5428363e-38
0.93404245 -0.23251544 0.093022101 1.5795705e-38
0.93404245 -0.23251544 0.095522106 1.5795705e-38
0.93404245 -0.23001543 0.093022101 1.6071212e-38
0.93404245 -0.23001543 0.095522106 1.5979378e-38
0.93404245 -0.22751543 0.093022101 1.5795718e-38
0.93404245 -0.22751543 0.095522106 1.5795705e-38
0.93404245 -0.23001543 0.098022103 1.6530399e-38
0.93404245 -0.23001543 0.1005221 1.6254883e-38
0.93404245 -0.22751543 0.098022103 1.6897745e-38
0.93404245 -0.22751543 0.1005221 1.4601844e-38
0.93654245 -0.23001543 0.098022103 1.5336528e-38
0.93654245 -0.22751543 0.098022103 1.8559042e-38
0.94154245 -0.22751543 0.098022103 1.7091447e-38
0.92904246 -0.22501543 0.068022102 1.6622239e-38
0.92904246 -0.22251543 0.068022102 1.68059e-38
0.93154246 -0.22501543 0.068022102 1.6897731e-38
0.93154246 -0.22501543 0.0705221 1.6805896e-38
0.93154246 -0.22251543 0.068022102 1.68059e-38
0.93154246 -0.22251543 0.0705221 1.6897731e-38
0.93154246 -0.22001544 0.068022102 1.7356909e-38
0.93154246 -0.21751544 0.068022102 1.7173238e-38
0.92904246 -0.22501543 0.073022105 1.6622226e-38
0.92904246 -0.22501543 0.075522102 1.6438554e-38
0.93154246 -0.22501543 0.073022105 1.6438554e-38
0.93154246 -0.22501543 0.075522102 1.6346718e-38
0.93154246 -0.22251543 0.073022105 1.671406e-38
0.93154246 -0.22251543 0.075522102 1.6254883e-38
0.92904246 -0.22501543 0.0780221 1.6254883e-38
0.92904246 -0.22501543 0.080522105 1.5887541e-38
0.93154246 -0.22501543 0.0780221 1.5887541e-38
0.93154246 -0.22251543 0.0780221 1.6346718e-38
0.93154246 -0.22001544 0.073022105 1.6989567e-38
0.93154246 -0.20751543 0.068022102 1.7999757e-38
0.93404245 -0.22251543 0.068022102 1.6897731e-38
0.93404245 -0.22251543 0.0705221 1.6805896e-38
0.93404245 -0.22001544 0.068022102 1.7265073e-38
0.93404245 -0.22001544 0.0705221 1.6989567e-38
0.93404245 -0.21751544 0.068022102 1.7265073e-38
0.93404245 -0.21751544 0.0705221 1.7173243e-38
0.93654245 -0.22001544 0.068022102 1.7356909e-38
0.93654245 -0.22001544 0.0705221 1.6989567e-38
0.93654245 -0.21751544 0.068022102 1.7356909e-38
0.93654245 -0.21751544 0.0705221 1.754058e-38
0.93904245 -0.22001544 0.0705221 1.6897731e-38
0.93904245 -0.21751544 0.0705221 1.7356909e-38
0.94154245 -0.22001544 0.068022102 1.671406e-38
0.93404245 -0.22501543 0.075522102 1.6346718e-38
0.93404245 -0.22251543 0.073022105 1.6438554e-38
0.93404245 -0.22251543 0.075522102 1.6438554e-38
0.93404245 -0.22501543 0.0780221 1.6071212e-38
0.93404245 -0.22501543 0.080522105 1.5795705e-38
0.93404245 -0.22251543 0.0780221 1.6346718e-38
0.93404245 -0.22251543 0.080522105 1.6071212e-38
0.93654245 -0.22501543 0.0780221 1.5428363e-38
0.93654245 -0.22251543 0.0780221 1.6071212e-38
0.93654245 -0.22251543 0.080522105 1.5979376e-38
0.93404245 -0.22001544 0.073022105 1.6897731e-38
0.93404245 -0.22001544 0.075522102 1.671406e-38
0.93404245 -0.21751544 0.073022105 1.6805896e-38
0.93404245 -0.21751544 0.075522102 1.671406e-38
0.93654245 -0.22001544 0.073022105 1.6622225e-38
0.93654245 -0.21751544 0.073022105 1.6897731e-38
0.93654245 -0.21751544 0.075522102 1.671406e-38
0.93404245 -0.22001544 0.0780221 1.6438554e-38
0.93404245 -0.22001544 0.080522105 1.6071212e-38
0.93404245 -0.21751544 0.0780221 1.6530389e-38
0.93404245 -0.21751544 0.080522105 1.6346718e-38
0.93654245 -0.22001544 0.0780221 1.6254883e-38
0.93654245 -0.22001544 0.080522105 1.6346718e-38
0.93654245 -0.21751544 0.0780221 1.6254883e-38
0.93654245 -0.21751544 0.080522105 1.6438554e-38
0.93904245 -0.22001544 0.073022105 1.6438554e-38
0.93904245 -0.21751544 0.073022105 1.6897731e-38
0.93904245 -0.21751544 0.0780221 1.671406e-38
0.93654245 -0.21501544 0.068022102 1.7356909e-38
0.93654245 -0.21501544 0.0705221 1.7632415e-38
0.93654245 -0.21251543 0.068022102 1.7632415e-38
0.93654245 -0.21251543 0.0705221 1.7816086e-38
0.93404245 -0.20751543 0.068022102 1.8091593e-38
0.93654245 -0.21001543 0.068022102 1.7999757e-38
0.93654245 -0.21001543 0.0705221 1.7999757e-38
0.93654245 -0.20751543 0.068022102 1.7999757e-38
0.93654245 -0.20751543 0.0705221 1.7999757e-38
0.93904245 -0.21501544 0.0705221 1.7265073e-38
0.93904245 -0.21251543 0.0705221 1.7632415e-38
0.94154245 -0.21251543 0.068022102 1.754058e-38
0.93904245 -0.21001543 0.0705221 1.7907922e-38
0.93904245 -0.20751543 0.0705221 1.7907922e-38
0.94154245 -0.21001543 0.068022102 1.7907922e-38
0.94154245 -0.20751543 0.068022102 1.7907922e-38
0.93404245 -0.21501544 0.073022105 1.6989567e-38
0.93404245 -0.21251543 0.073022105 1.7448744e-38
0.93654245 -0.21501544 0.073022105 1.6897731e-38
0.93654245 -0.21501544 0.075522102 1.671406e-38
0.93654245 -0.21251543 0.073022105 1.7265073e-38
0.93654245 -0.21251543 0.075522102 1.7173238e-38
0.93404245 -0.21501544 0.0780221 1.6622225e-38
0.93404245 -0.21251543 0.0780221 1.6989567e-38
0.93654245 -0.21501544 0.0780221 1.6622225e-38
0.93654245 -0.21501544 0.080522105 1.671406e-38
0.93654245 -0.21251543 0.0780221 1.6989567e-38
0.93654245 -0.21251543 0.080522105 1.6897731e-38
0.93404245 -0.21001543 0.073022105 1.754058e-38
0.93404245 -0.20751543 0.073022105 1.7816086e-38
0.93654245 -0.21001543 0.073022105 1.7265073e-38
0.93654245 -0.21001543 0.075522102 1.7265073e-38
0.93654245 -0.20751543 0.073022105 1.7632415e-38
0.93654245 -0.20751543 0.075522102 1.754058e-38
0.93404245 -0.21001543 0.0780221 1.7081402e-38
0.93654245 -0.21001543 0.0780221 1.6989567e-38
0.93654245 -0.21001543 0.080522105 1.6897731e-38
0.93904245 -0.21501544 0.073022105 1.6989567e-38
0.93904245 -0.21251543 0.073022105 1.7448744e-38
0.93904245 -0.21501544 0.0780221 1.671406e-38
0.93904245 -0.21501544 0.080522105 1.6622225e-38
0.93904245 -0.21251543 0.0780221 1.6989567e-38
0.93904245 -0.21251543 0.080522105 1.6897731e-38
0.94154245 -0.21251543 0.0780221 1.671406e-38
0.93904245 -0.21001543 0.073022105 1.7632415e-38
0.93904245 -0.20751543 0.073022105 1.7632415e-38
0.93904245 -0.21001543 0.0780221 1.7265073e-38
0.93904245 -0.21001543 0.080522105 1.6897731e-38
0.93904245 -0.20751543 0.0780221 1.7265073e-38
0.93904245 -0.20751543 0.080522105 1.7081402e-38
0.94154245 -0.21001543 0.0780221 1.6805896e-38
0.94154245 -0.20751543 0.0780221 1.7081402e-38
0.93154246 -0.22501543 0.083022103 1.5795705e-38
0.93154246 -0.22251543 0.083022103 1.5795705e-38
0.93154246 -0.22501543 0.088022105 1.5244692e-38
0.93154246 -0.22501543 0.090522103 1.5336528e-38
0.93154246 -0.22251543 0.088022105 1.5336528e-38
0.93154246 -0.22251543 0.090522103 1.5520199e-38
0.93154246 -0.22001544 0.090522103 1.5887541e-38
0.93154246 -0.21751544 0.090522103 1.6346718e-38
0.92654246 -0.22501543 0.093022101 1.5336528e-38
0.92654246 -0.22501543 0.095522106 1.5612034e-38
0.92904246 -0.22501543 0.093022101 1.5795705e-38
0.92904246 -0.22251543 0.093022101 1.5795705e-38
0.93154246 -0.22501543 0.093022101 1.5336528e-38
0.93154246 -0.22501543 0.095522106 1.5887541e-38
0.93154246 -0.22251543 0.093022101 1.5428363e-38
0.93154246 -0.22251543 0.095522106 1.5887541e-38
0.93154246 -0.22501543 0.098022103 1.7816086e-38
0.93154246 -0.22251543 0.098022103 1.7632415e-38
0.92904246 -0.22001544 0.093022101 1.5887541e-38
0.92904246 -0.21751544 0.093022101 1.6438554e-38
0.93154246 -0.22001544 0.093022101 1.5887541e-38
0.93154246 -0.22001544 0.095522106 1.6346718e-38
0.93154246 -0.21751544 0.093022101 1.6438554e-38
0.93154246 -0.21751544 0.095522106 1.671406e-38
0.93154246 -0.22001544 0.098022103 1.7907922e-38
0.93154246 -0.21751544 0.098022103 1.8091593e-38
0.93154246 -0.21501544 0.095522106 1.671406e-38
0.93154246 -0.21501544 0.098022103 1.8091593e-38
0.93404245 -0.22501543 0.083022103 1.5795705e-38
0.93404245 -0.22501543 0.0855221 1.570387e-38
0.93404245 -0.22251543 0.083022103 1.5979376e-38
0.93404245 -0.22251543 0.0855221 1.6071212e-38
0.93654245 -0.22501543 0.0855221 1.5795705e-38
0.93654245 -0.22251543 0.0855221 1.6071212e-38
0.93404245 -0.22501543 0.088022105 1.5428363e-38
0.93404245 -0.22251543 0.088022105 1.5795705e-38
0.93654245 -0.22501543 0.090522103 1.5244692e-38
0.93654245 -0.22251543 0.090522103 1.5887541e-38
0.93404245 -0.22001544 0.083022103 1.5887541e-38
0.93404245 -0.22001544 0.0855221 1.6071212e-38
0.93404245 -0.21751544 0.083022103 1.6346718e-38
0.93654245 -0.22001544 0.0855221 1.6346718e-38
0.93654245 -0.21751544 0.0855221 1.6438554e-38
0.93404245 -0.22001544 0.088022105 1.5887541e-38
0.93404245 -0.21751544 0.088022105 1.6438554e-38
0.93654245 -0.22001544 0.088022105 1.6346718e-38
0.93654245 -0.22001544 0.090522103 1.6622225e-38
0.93654245 -0.21751544 0.088022105 1.6530389e-38
0.93654245 -0.21751544 0.090522103 1.671406e-38
0.93904245 -0.22001544 0.083022103 1.6071212e-38
0.93904245 -0.22001544 0.0855221 1.6254883e-38
0.93904245 -0.21751544 0.083022103 1.6254883e-38
0.93904245 -0.21751544 0.0855221 1.6254883e-38
0.93904245 -0.21751544 0.088022105 1.6254883e-38
0.93904245 -0.21751544 0.090522103 1.6438554e-38
0.93404245 -0.22501543 0.093022101 1.5612034e-38
0.93404245 -0.22501543 0.095522106 1.5520199e-38
0.93404245 -0.22251543 0.093022101 1.5612034e-38
0.93404245 -0.22251543 0.095522106 1.5520199e-38
0.93654245 -0.22501543 0.093022101 1.5612034e-38
0.93654245 -0.22251543 0.093022101 1.5887541e-38
0.93404245 -0.22501543 0.098022103 1.7999757e-38
0.93404245 -0.22501543 0.1005221 2.0216418e-38
0.93404245 -0.22251543 0.098022103 1.7907922e-38
0.93404245 -0.22251543 0.1005221 2.0860735e-38
0.93654245 -0.22501543 0.098022103 1.9756882e-38
0.93654245 -0.22501543 0.1005221 1.6444701e-38
0.93654245 -0.22251543 0.098022103 2.2509078e-38
0.93654245 -0.22251543 0.1005221 1.9947372e-38
0.93404245 -0.22001544 0.093022101 1.6254883e-38
0.93404245 -0.22001544 0.095522106 1.6254883e-38
0.93404245 -0.21751544 0.093022101 1.671406e-38
0.93404245 -0.21751544 0.095522106 1.6346718e-38
0.93654245 -0.22001544 0.093022101 1.6530389e-38
0.93654245 -0.21751544 0.093022101 1.6438554e-38
0.93404245 -0.22001544 0.098022103 1.8091593e-38
0.93404245 -0.22001544 0.1005221 2.2051699e-38
0.93404245 -0.21751544 0.098022103 1.8367099e-38
0.93404245 -0.21751544 0.1005221 2.1861897e-38
0.93654245 -0.22001544 0.098022103 2.1403089e-38
0.93654245 -0.22001544 0.1005221 1.9943779e-38
0.93654245 -0.21751544 0.098022103 2.1860477e-38
0.93654245 -0.21751544 0.1005221 2.0952541e-38
0.93904245 -0.22501543 0.095522106 2.0215363e-38
0.93904245 -0.22251543 0.095522106 1.7816086e-38
0.94154245 -0.22501543 0.095522106 2.1321709e-38
0.93904245 -0.22251543 0.1005221 2.3474941e-38
0.94154245 -0.22501543 0.098022103 1.6633406e-38
0.94154245 -0.22501543 0.1005221 2.3108348e-38
0.94154245 -0.22251543 0.098022103 2.0404755e-38
0.94154245 -0.22251543 0.1005221 2.3291629e-38
0.93904245 -0.22001544 0.095522106 2.1585683e-38
0.93904245 -0.21751544 0.095522106 2.1310891e-38
0.94154245 -0.22001544 0.095522106 2.1584234e-38
0.94154245 -0.21751544 0.095522106 2.1309487e-38
0.93904245 -0.22001544 0.1005221 2.3014322e-38
0.93904245 -0.21751544 0.1005221 2.3285514e-38
0.94154245 -0.22001544 0.098022103 1.9669706e-38
0.94154245 -0.22001544 0.1005221 2.3377341e-38
0.94154245 -0.21751544 0.098022103 2.0036678e-38
0.94154245 -0.21751544 0.1005221 2.2643013e-38
0.93654245 -0.21501544 0.0855221 1.671406e-38
0.93404245 -0.21501544 0.088022105 1.6897731e-38
0.93404245 -0.21251543 0.088022105 1.6897731e-38
0.93654245 -0.21501544 0.088022105 1.6622225e-38
0.93654245 -0.21501544 0.090522103 1.671406e-38
0.93654245 -0.21251543 0.088022105 1.6897731e-38
0.93654245 -0.21251543 0.090522103 1.671406e-38
0.93904245 -0.21501544 0.083022103 1.6438554e-38
0.93904245 -0.21501544 0.0855221 1.6805899e-38
0.93904245 -0.21251543 0.083022103 1.6897731e-38
0.93904245 -0.21251543 0.0855221 1.6989567e-38
0.94154245 -0.21501544 0.083022103 1.671406e-38
0.94154245 -0.21251543 0.083022103 1.6989567e-38
0.93904245 -0.21501544 0.088022105 1.671406e-38
0.93904245 -0.21501544 0.090522103 1.6989567e-38
0.93904245 -0.21251543 0.088022105 1.671406e-38
0.93904245 -0.21251543 0.090522103 1.671406e-38
0.94154245 -0.21251543 0.088022105 1.6989567e-38
0.94154245 -0.21251543 0.090522103 1.6989567e-38
0.93904245 -0.21001543 0.083022103 1.6897731e-38
0.93904245 -0.21001543 0.0855221 1.7081402e-38
0.93904245 -0.20751543 0.083022103 1.6897731e-38
0.93904245 -0.20751543 0.0855221 1.6989567e-38
0.94154245 -0.21001543 0.083022103 1.7081402e-38
0.94154245 -0.20751543 0.083022103 1.7265073e-38
0.94154245 -0.21001543 0.088022105 1.671406e-38
0.94154245 -0.21001543 0.090522103 1.671406e-38
0.94154245 -0.20751543 0.088022105 1.671406e-38
0.94154245 -0.20751543 0.090522103 1.671406e-38
0.93404245 -0.21501544 0.093022101 1.6897731e-38
0.93404245 -0.21501544 0.095522106 1.6805896e-38
0.93654245 -0.21501544 0.093022101 1.6989567e-38
0.93654245 -0.21251543 0.093022101 1.6897731e-38
0.93654245 -0.21501544 0.1005221 2.1038292e-38
0.93904245 -0.21501544 0.095522106 1.8458935e-38
0.93904245 -0.21251543 0.095522106 1.7907922e-38
0.94154245 -0.21501544 0.093022101 1.8458935e-38
0.94154245 -0.21501544 0.095522106 2.1768648e-38
0.94154245 -0.21251543 0.093022101 1.671406e-38
0.94154245 -0.21251543 0.095522106 2.0941035e-38
0.93904245 -0.21501544 0.1005221 2.3462344e-38
0.94154245 -0.21501544 0.098022103 2.0858894e-38
0.94154245 -0.21501544 0.1005221 2.3464853e-38
0.94154245 -0.21251543 0.098022103 2.0484758e-38
0.94154245 -0.21251543 0.1005221 2.2651295e-38
0.94154245 -0.21001543 0.093022101 1.7907922e-38
0.94154245 -0.21001543 0.095522106 2.0759888e-38
0.94154245 -0.20751543 0.093022101 1.7816086e-38
0.94154245 -0.20751543 0.095522106 2.0852099e-38
0.94404244 -0.22751543 0.098022103 1.7546678e-38
0.94654244 -0.23001543 0.098022103 1.8772245e-38
0.94654244 -0.22751543 0.098022103 2.2096341e-38
0.94404244 -0.20751543 0.080522105 1.7081402e-38
0.94654244 -0.20751543 0.0780221 1.7265073e-38
0.94404244 -0.22501543 0.098022103 1.9577898e-38
0.94404244 -0.22251543 0.098022103 2.0404769e-38
0.94654244 -0.22501543 0.098022103 2.3108345e-38
0.94654244 -0.22251543 0.098022103 2.3474944e-38
0.94404244 -0.22001544 0.098022103 2.2646628e-38
0.94404244 -0.21751544 0.098022103 2.2549748e-38
0.94404244 -0.21751544 0.1005221 2.2838212e-38
0.94654244 -0.22001544 0.098022103 2.3012156e-38
0.94654244 -0.21751544 0.098022103 2.2550464e-38
0.94904244 -0.22001544 0.098022103 2.3392084e-38
0.94904244 -0.21751544 0.098022103 2.3021875e-38
0.94404244 -0.21251543 0.0855221 1.671406e-38
0.94404244 -0.21251543 0.090522103 1.6438554e-38
0.94404244 -0.21001543 0.0855221 1.7265073e-38
0.94404244 -0.20751543 0.0855221 1.6897731e-38
0.94654244 -0.20751543 0.0855221 1.6897731e-38
0.94404244 -0.21001543 0.088022105 1.6989567e-38
0.94404244 -0.21001543 0.090522103 1.6622225e-38
0.94404244 -0.20751543 0.088022105 1.6897731e-38
0.94404244 -0.20751543 0.090522103 1.6346718e-38
0.94654244 -0.21001543 0.090522103 1.6346718e-38
0.94654244 -0.20751543 0.090522103 1.6346718e-38
0.95154244 -0.21251543 0.090522103 2.1216546e-38
0.94904244 -0.21001543 0.090522103 1.7907922e-38
0.94904244 -0.20751543 0.088022105 1.6346718e-38
0.94904244 -0.20751543 0.090522103 1.7907922e-38
0.94404244 -0.21251543 0.093022101 1.8367099e-38
0.94654244 -0.21501544 0.095522106 2.0579459e-38
0.94654244 -0.21251543 0.095522106 2.1031455e-38
0.94404244 -0.21501544 0.098022103 2.1686138e-38
0.94404244 -0.21501544 0.1005221 2.3204456e-38
0.94404244 -0.21251543 0.098022103 2.1310891e-38
0.94404244 -0.21251543 0.1005221 2.3478166e-38
0.94654244 -0.21501544 0.098022103 2.3464136e-38
0.94654244 -0.21251543 0.098022103 2.2161516e-38
0.94404244 -0.21001543 0.093022101 1.8367099e-38
0.94404244 -0.20751543 0.093022101 1.7816086e-38
0.94654244 -0.21001543 0.095522106 2.0663031e-38
0.94654244 -0.20751543 0.095522106 2.0204546e-38
0.94404244 -0.21001543 0.098022103 2.0666225e-38
0.94404244 -0.21001543 0.1005221 2.2923196e-38
0.94404244 -0.20751543 0.1005221 2.3474228e-38
0.94654244 -0.21001543 0.098022103 2.2069319e-38
0.94904244 -0.21501544 0.098022103 2.3480683e-38
0.94904244 -0.21251543 0.098022103 2.3200152e-38
0.94904244 -0.21001543 0.098022103 2.347672e-38
0.95404243 -0.21001543 0.095522106 2.328985e-38
0.93404245 -0.22751543 0.1030221 1.0290247e-38
0.93904245 -0.22251543 0.1030221 2.34886e-38
0.93904245 -0.21501544 0.1030221 2.3202301e-38
0.93904245 -0.21251543 0.1030221 2.3110105e-38
0.93904245 -0.21001543 0.1030221 2.347708e-38
0.80404246 -0.19001544 0.068022102 1.6989579e-38
0.80404246 -0.18751544 0.068022102 1.7081416e-38
0.80654246 -0.19001544 0.068022102 1.6897748e-38
0.80654246 -0.19001544 0.0705221 1.6805921e-38
0.80654246 -0.18751544 0.0705221 1.6989596e-38
0.80404246 -0.19001544 0.080522105 1.6805918e-38
0.80404246 -0.18751544 0.080522105 1.6806976e-38
0.80404246 -0.19001544 0.083022103 1.6622247e-38
0.80404246 -0.19001544 0.0855221 1.6897757e-38
0.80404246 -0.18751544 0.083022103 1.6439271e-38
0.80404246 -0.18751544 0.0855221 1.6439641e-38
0.80404246 -0.19001544 0.088022105 1.6438558e-38
0.80404246 -0.19001544 0.090522103 1.6897759e-38
0.80404246 -0.18751544 0.088022105 1.570678e-38
0.80404246 -0.18751544 0.090522103 1.6989596e-38
0.80654246 -0.19001544 0.088022105 1.6622246e-38
0.80654246 -0.19001544 0.090522103 1.6805915e-38
0.80654246 -0.18751544 0.088022105 1.4790537e-38
0.80654246 -0.18751544 0.090522103 1.4422139e-38
0.80404246 -0.19251543 0.093022101 1.6805906e-38
0.80404246 -0.19251543 0.095522106 1.7173252e-38
0.80404246 -0.19251543 0.098022103 1.6805906e-38
0.80404246 -0.19001544 0.093022101 1.6805921e-38
0.80404246 -0.19001544 0.095522106 1.6805924e-38
0.80404246 -0.18751544 0.093022101 1.6897759e-38
0.80404246 -0.18751544 0.095522106 1.3505219e-38
0.80654246 -0.19001544 0.095522106 1.7081435e-38
0.80654246 -0.18751544 0.095522106 1.6805924e-38
0.80404246 -0.19001544 0.098022103 1.6989598e-38
0.80404246 -0.19001544 0.1005221 1.6989596e-38
0.80404246 -0.18751544 0.098022103 1.3504885e-38
0.80404246 -0.18751544 0.1005221 1.6714087e-38
0.80654246 -0.19001544 0.1005221 1.6254921e-38
0.80654246 -0.18751544 0.098022103 1.3871872e-38
0.80654246 -0.18751544 0.1005221 1.3960079e-38
0.80404246 -0.18501544 0.065522105 1.6898474e-38
0.80404246 -0.18251543 0.065522105 1.7083211e-38
0.80404246 -0.18501544 0.068022102 1.6989586e-38
0.80404246 -0.18501544 0.0705221 1.6806288e-38
0.80404246 -0.18251543 0.068022102 1.7173257e-38
0.80404246 -0.18251543 0.0705221 1.7359815e-38
0.80654246 -0.18501544 0.0705221 1.662403e-38
0.80654246 -0.18251543 0.0705221 1.7637464e-38
0.80404246 -0.18001543 0.068022102 1.7173257e-38
0.80404246 -0.18001543 0.0705221 1.7361969e-38
0.80654246 -0.18001543 0.0705221 1.5711077e-38
0.80654246 -0.17751543 0.0705221 1.5437367e-38
0.80404246 -0.18501544 0.073022105 1.5800388e-38
0.80404246 -0.18501544 0.075522102 1.6166282e-38
0.80404246 -0.18251543 0.073022105 1.5161127e-38
0.80404246 -0.18251543 0.075522102 1.0652918e-38
0.80404246 -0.18501544 0.080522105 1.570387e-38
0.80404246 -0.18251543 0.080522105 1.8407835e-38
0.80404246 -0.18001543 0.073022105 1.5529562e-38
0.80404246 -0.18001543 0.075522102 1.2493227e-38
0.80404246 -0.17751543 0.073022105 1.5803275e-38
0.80404246 -0.17751543 0.075522102 1.3227913e-38
0.80404246 -0.18001543 0.080522105 1.5470841e-38
0.80404246 -0.17751543 0.080522105 1.5380826e-38
0.80404246 -0.16751543 0.065522105 1.6805896e-38
0.80654246 -0.17001544 0.065522105 1.7173249e-38
0.80654246 -0.16751543 0.065522105 1.7173249e-38
0.80404246 -0.16751543 0.068022102 1.7265097e-38
0.80654246 -0.17001544 0.0705221 1.7265093e-38
0.80654246 -0.16751543 0.068022102 1.7265084e-38
0.80654246 -0.16751543 0.0705221 1.7173257e-38
0.80904245 -0.16751543 0.068022102 1.744876e-38
0.80404246 -0.17501543 0.075522102 1.4143384e-38
0.80404246 -0.17251544 0.075522102 1.4787313e-38
0.80404246 -0.17501543 0.080522105 1.445923e-38
0.80404246 -0.17251544 0.0780221 1.3505224e-38
0.80404246 -0.17251544 0.080522105 1.5005561e-38
0.80404246 -0.17001544 0.073022105 1.6989579e-38
0.80404246 -0.17001544 0.075522102 1.6166297e-38
0.80404246 -0.16751543 0.073022105 1.6897748e-38
0.80404246 -0.16751543 0.075522102 1.6899175e-38
0.80654246 -0.17001544 0.075522102 1.3592767e-38
0.80654246 -0.16751543 0.075522102 1.3593834e-38
0.80404246 -0.17001544 0.0780221 1.3686739e-38
0.80404246 -0.17001544 0.080522105 1.5190311e-38
0.80404246 -0.16751543 0.0780221 1.3318323e-38
0.80404246 -0.16751543 0.080522105 1.5649134e-38
0.80654246 -0.17001544 0.080522105 1.537327e-38
0.80654246 -0.16751543 0.0780221 1.0207403e-38
0.80654246 -0.16751543 0.080522105 1.5558014e-38
0.80904245 -0.17001544 0.073022105 1.6898474e-38
0.80904245 -0.16751543 0.073022105 1.7174701e-38
0.80904245 -0.16751543 0.075522102 1.3410878e-38
0.80404246 -0.18501544 0.083022103 1.5612034e-38
0.80404246 -0.18501544 0.0855221 1.5795715e-38
0.80404246 -0.18251543 0.0855221 1.7485125e-38
0.80404246 -0.18501544 0.088022105 1.5153965e-38
0.80404246 -0.18501544 0.090522103 1.5522371e-38
0.80404246 -0.18251543 0.090522103 1.2787829e-38
0.80404246 -0.18001543 0.0855221 1.6850573e-38
0.80404246 -0.17751543 0.0855221 1.0120582e-38
0.80404246 -0.18001543 0.088022105 1.5101352e-38
0.80404246 -0.18001543 0.090522103 1.4638226e-38
0.80404246 -0.17751543 0.088022105 1.2887919e-38
0.80404246 -0.17751543 0.090522103 1.2797536e-38
0.80654246 -0.18001543 0.088022105 1.4361639e-38
0.80654246 -0.18001543 0.090522103 1.3625149e-38
0.80654246 -0.17751543 0.088022105 1.3625143e-38
0.80654246 -0.17751543 0.090522103 1.3349985e-38
0.80404246 -0.18501544 0.093022101 1.5620323e-38
0.80404246 -0.18501544 0.095522106 1.5994501e-38
0.80404246 -0.18251543 0.093022101 1.3063693e-38
0.80404246 -0.18251543 0.095522106 1.3158036e-38
0.80654246 -0.18501544 0.095522106 1.5994501e-38
0.80654246 -0.18251543 0.095522106 1.3525729e-38
0.80404246 -0.18501544 0.098022103 1.5994166e-38
0.80404246 -0.18501544 0.1005221 1.3962992e-38
0.80404246 -0.18251543 0.098022103 1.3617593e-38
0.80404246 -0.18251543 0.1005221 1.4620962e-38
0.80654246 -0.18501544 0.098022103 1.58991e-38
0.80654246 -0.18501544 0.1005221 1.5431991e-38
0.80654246 -0.18251543 0.098022103 1.4166095e-38
0.80654246 -0.18251543 0.1005221 1.4990095e-38
0.80404246 -0.18001543 0.093022101 1.3625149e-38
0.80404246 -0.17751543 0.093022101 1.2799686e-38
0.80404246 -0.17751543 0.095522106 1.3166323e-38
0.80654246 -0.18001543 0.093022101 1.3624427e-38
0.80654246 -0.18001543 0.095522106 1.3532231e-38
0.80654246 -0.17751543 0.093022101 1.3165241e-38
0.80654246 -0.17751543 0.095522106 1.307448e-38
0.80404246 -0.18001543 0.098022103 1.261207e-38
0.80404246 -0.18001543 0.1005221 1.5364272e-38
0.80404246 -0.17751543 0.098022103 1.261207e-38
0.80404246 -0.17751543 0.1005221 1.3891287e-38
0.80654246 -0.18001543 0.098022103 1.4170779e-38
0.80654246 -0.18001543 0.1005221 1.4905079e-38
0.80654246 -0.17751543 0.098022103 1.3802357e-38
0.80654246 -0.17751543 0.1005221 1.370547e-38
0.80904245 -0.18251543 0.098022103 1.5176284e-38
0.80404246 -0.17501543 0.0855221 1.2148886e-38
0.80404246 -0.17251544 0.083022103 1.7036038e-38
0.80404246 -0.17251544 0.0855221 1.6298428e-38
0.80404246 -0.17501543 0.088022105 1.6575384e-38
0.80404246 -0.17501543 0.090522103 1.611658e-38
0.80404246 -0.17251544 0.088022105 1.7681365e-38
0.80404246 -0.17251544 0.090522103 1.6112987e-38
0.80654246 -0.17501543 0.088022105 1.6299175e-38
0.80654246 -0.17501543 0.090522103 1.4456333e-38
0.80654246 -0.17251544 0.088022105 1.6114428e-38
0.80654246 -0.17251544 0.090522103 1.3442887e-38
0.80404246 -0.17001544 0.083022103 1.8326777e-38
0.80404246 -0.17001544 0.0855221 1.6483931e-38
0.80404246 -0.16751543 0.083022103 1.8878849e-38
0.80404246 -0.16751543 0.0855221 1.6114425e-38
0.80654246 -0.17001544 0.0855221 1.4549277e-38
0.80654246 -0.16751543 0.0855221 1.6206611e-38
0.80404246 -0.17001544 0.088022105 1.5102096e-38
0.80404246 -0.16751543 0.088022105 1.6666158e-38
0.80654246 -0.17001544 0.088022105 1.5286842e-38
0.80654246 -0.17001544 0.090522103 1.2982676e-38
0.80654246 -0.16751543 0.088022105 1.6666158e-38
0.80654246 -0.16751543 0.090522103 1.7495196e-38
0.80404246 -0.17501543 0.093022101 1.3626579e-38
0.80404246 -0.17501543 0.095522106 1.390531e-38
0.80404246 -0.17251544 0.093022101 1.0676297e-38
0.80404246 -0.17251544 0.095522106 1.4456358e-38
0.80654246 -0.17501543 0.093022101 1.3812764e-38
0.80654246 -0.17501543 0.095522106 1.3812045e-38
0.80654246 -0.17251544 0.095522106 1.2520954e-38
0.80404246 -0.17501543 0.098022103 1.4179399e-38
0.80404246 -0.17501543 0.1005221 1.4547083e-38
0.80404246 -0.17251544 0.098022103 1.4639277e-38
0.80404246 -0.17251544 0.1005221 1.4271219e-38
0.80654246 -0.17501543 0.098022103 1.427015e-38
0.80404246 -0.17001544 0.093022101 1.1692657e-38
0.80404246 -0.17001544 0.095522106 1.501168e-38
0.80404246 -0.16751543 0.093022101 1.6664362e-38
0.80404246 -0.16751543 0.095522106 1.5563053e-38
0.80654246 -0.17001544 0.095522106 1.2338027e-38
0.80654246 -0.16751543 0.095522106 1.5838217e-38
0.80404246 -0.17001544 0.098022103 1.2613534e-38
0.80404246 -0.17001544 0.1005221 1.2430926e-38
0.80404246 -0.16751543 0.098022103 1.5655968e-38
0.80404246 -0.16751543 0.1005221 1.5104599e-38
0.80654246 -0.16751543 0.098022103 1.5933987e-38
0.80404246 -0.19751543 0.1130221 1.5152857e-38
0.80404246 -0.19251543 0.1030221 1.6438554e-38
0.80404246 -0.19001544 0.1030221 1.6622243e-38
0.80404246 -0.19001544 0.1055221 1.6530408e-38
0.80404246 -0.18751544 0.1030221 1.6530405e-38
0.80404246 -0.18751544 0.1055221 1.6622239e-38
0.80654246 -0.19001544 0.1030221 1.6438565e-38
0.80654246 -0.18751544 0.1030221 1.6163054e-38
0.80404246 -0.18751544 0.1105221 1.5703875e-38
0.80654246 -0.19001544 0.1080221 1.5795715e-38
0.80654246 -0.18751544 0.1080221 1.5979389e-38
0.80904245 -0.19001544 0.1030221 1.6163054e-38
0.80404246 -0.19001544 0.1130221 1.5336528e-38
0.80404246 -0.19001544 0.1155221 1.5152857e-38
0.80404246 -0.18751544 0.1130221 1.5612034e-38
0.80404246 -0.18751544 0.1155221 1.5336528e-38
0.80654246 -0.18751544 0.1130221 1.5612034e-38
0.80654246 -0.18751544 0.1155221 1.5336528e-38
0.80654246 -0.18751544 0.1280221 1.9379455e-38
0.80404246 -0.18501544 0.1030221 1.4326337e-38
0.80404246 -0.18501544 0.1055221 1.4969207e-38
0.80404246 -0.18251543 0.1030221 1.5264138e-38
0.80404246 -0.18251543 0.1055221 1.645262e-38
0.80654246 -0.18501544 0.1030221 1.6630166e-38
0.80654246 -0.18251543 0.1030221 1.5815539e-38
0.80654246 -0.18251543 0.1055221 1.6364731e-38
0.80404246 -0.18501544 0.1105221 1.6071244e-38
0.80404246 -0.18251543 0.1105221 1.5979416e-38
0.80654246 -0.18501544 0.1080221 1.6346724e-38
0.80654246 -0.18501544 0.1105221 1.6163075e-38
0.80654246 -0.18251543 0.1080221 1.6254925e-38
0.80654246 -0.18251543 0.1105221 1.5979376e-38
0.80404246 -0.18001543 0.1030221 1.6652856e-38
0.80404246 -0.18001543 0.1055221 1.9039863e-38
0.80404246 -0.17751543 0.1030221 1.3795151e-38
0.80404246 -0.17751543 0.1055221 1.3324092e-38
0.80654246 -0.18001543 0.1030221 1.8488117e-38
0.80654246 -0.18001543 0.1055221 1.8113208e-38
0.80654246 -0.17751543 0.1030221 1.3694314e-38
0.80404246 -0.18001543 0.1105221 1.6438587e-38
0.80404246 -0.17751543 0.1105221 1.5520214e-38
0.80654246 -0.18001543 0.1080221 1.6254925e-38
0.80654246 -0.18001543 0.1105221 1.5979376e-38
0.80654246 -0.17751543 0.1080221 1.5795718e-38
0.80654246 -0.17751543 0.1105221 1.5703871e-38
0.80904245 -0.18501544 0.1030221 1.6902803e-38
0.80904245 -0.18251543 0.1030221 1.636871e-38
0.80904245 -0.18251543 0.1080221 1.5979378e-38
0.80904245 -0.18251543 0.1105221 1.5612034e-38
0.80904245 -0.18001543 0.1080221 1.5703871e-38
0.80904245 -0.18001543 0.1105221 1.5612037e-38
0.80904245 -0.17751543 0.1105221 1.5612034e-38
0.80404246 -0.18501544 0.1130221 1.5795708e-38
0.80404246 -0.18501544 0.1155221 1.5428382e-38
0.80654246 -0.18501544 0.1130221 1.5428363e-38
0.80654246 -0.18501544 0.1155221 1.5336528e-38
0.80654246 -0.18251543 0.1155221 1.5152857e-38
0.80404246 -0.18001543 0.1130221 1.6071217e-38
0.80404246 -0.17751543 0.1130221 1.5612037e-38
0.80404246 -0.17751543 0.1155221 1.5703871e-38
0.80654246 -0.18001543 0.1130221 1.5336528e-38
0.80654246 -0.17751543 0.1130221 1.5336528e-38
0.80904245 -0.18501544 0.1130221 1.5244709e-38
0.80904245 -0.18251543 0.1130221 1.5612034e-38
0.80904245 -0.18001543 0.1130221 1.5428363e-38
0.80904245 -0.17751543 0.1130221 1.5152868e-38
0.80404246 -0.17501543 0.1030221 1.0859262e-38
0.80404246 -0.17501543 0.1055221 1.2409699e-38
0.80404246 -0.17251544 0.1030221 1.0307199e-38
0.80404246 -0.17251544 0.1055221 1.3059049e-38
0.80404246 -0.17501543 0.1105221 1.5152892e-38
0.80404246 -0.17251544 0.1105221 1.4236338e-38
0.80654246 -0.17501543 0.1080221 1.5152857e-38
0.80654246 -0.17501543 0.1105221 1.5152857e-38
0.80654246 -0.17251544 0.1080221 1.4328183e-38
0.80654246 -0.17251544 0.1105221 1.4418197e-38
0.80404246 -0.17001544 0.1030221 1.2888284e-38
0.80404246 -0.17001544 0.1055221 1.1868353e-38
0.80404246 -0.16751543 0.1030221 1.1140537e-38
0.80404246 -0.16751543 0.1055221 1.0312234e-38
0.80404246 -0.17001544 0.1105221 9.7410604e-39
0.80404246 -0.16751543 0.1105221 1.61022e-38
0.80654246 -0.17001544 0.1080221 9.648862e-39
0.80654246 -0.17001544 0.1105221 1.0471399e-38
0.80654246 -0.16751543 0.1080221 1.6194752e-38
0.80654246 -0.16751543 0.1105221 1.7201676e-38
0.80404246 -0.17501543 0.1130221 1.6254883e-38
0.80404246 -0.17501543 0.1155221 1.6071215e-38
0.80404246 -0.17251544 0.1130221 1.6622233e-38
0.80404246 -0.17251544 0.1155221 1.570387e-38
0.80654246 -0.17501543 0.1130221 1.5520199e-38
0.80654246 -0.17501543 0.1155221 1.5244708e-38
0.80404246 -0.17251544 0.1180221 1.5244705e-38
0.80404246 -0.17001544 0.1130221 1.6530396e-38
0.80404246 -0.16751543 0.1130221 1.6530441e-38
0.80404246 -0.16751543 0.1180221 1.5428363e-38
0.80404246 -0.16751543 0.1205221 1.5336528e-38
0.80904245 -0.17501543 0.1130221 1.5336528e-38
0.80404246 -0.18501544 0.1280221 1.8091593e-38
0.80404246 -0.18501544 0.1305221 1.8734441e-38
0.80404246 -0.18251543 0.1280221 1.8367099e-38
0.80404246 -0.18251543 0.1305221 1.9472019e-38
0.80654246 -0.18501544 0.1280221 1.8091593e-38
0.80654246 -0.18251543 0.1280221 1.8458935e-38
0.80654246 -0.17751543 0.12552211 1.5979376e-38
0.80404246 -0.18001543 0.1280221 1.7999757e-38
0.80404246 -0.18001543 0.1305221 1.9286202e-38
0.80404246 -0.17751543 0.1280221 1.6254883e-38
0.80404246 -0.17751543 0.1305221 1.9745025e-38
0.80654246 -0.18001543 0.1280221 1.8367099e-38
0.80654246 -0.18001543 0.1305221 1.8918112e-38
0.80654246 -0.17751543 0.1280221 1.7724251e-38
0.80904245 -0.18251543 0.1305221 1.9101783e-38
0.80904245 -0.18001543 0.1305221 1.9101783e-38
0.80904245 -0.17751543 0.1280221 2.0482572e-38
0.80904245 -0.17751543 0.1305221 1.9193619e-38
0.81154245 -0.17751543 0.1280221 1.8826277e-38
0.80404246 -0.18251543 0.1330221 1.855077e-38
0.80404246 -0.18001543 0.1330221 1.8826277e-38
0.80654246 -0.17501543 0.12552211 1.6071212e-38
0.80654246 -0.17251544 0.12552211 1.6071212e-38
0.80404246 -0.17501543 0.1280221 1.6346718e-38
0.80404246 -0.17251544 0.1280221 1.6163047e-38
0.80654246 -0.17501543 0.1280221 1.7448744e-38
0.80654246 -0.17251544 0.1280221 1.7448744e-38
0.80404246 -0.17001544 0.1230221 1.5612034e-38
0.80404246 -0.17001544 0.12552211 1.6163047e-38
0.80404246 -0.16751543 0.1230221 1.5703871e-38
0.80404246 -0.16751543 0.12552211 1.5887541e-38
0.80654246 -0.17001544 0.12552211 1.5887541e-38
0.80654246 -0.16751543 0.12552211 1.5887541e-38
0.80404246 -0.17001544 0.1280221 1.5887541e-38
0.80404246 -0.16751543 0.1280221 1.5887541e-38
0.80904245 -0.17501543 0.12552211 1.7448747e-38
0.80904245 -0.17251544 0.12552211 1.7173243e-38
0.80904245 -0.17501543 0.1280221 1.9836874e-38
0.80404246 -0.16501543 0.065522105 1.6989606e-38
0.80404246 -0.16251543 0.065522105 1.6805931e-38
0.80654246 -0.16501543 0.065522105 1.7265096e-38
0.80654246 -0.16251543 0.065522105 1.6898097e-38
0.80404246 -0.16501543 0.068022102 1.7265096e-38
0.80404246 -0.16501543 0.0705221 1.7081771e-38
0.80404246 -0.16251543 0.068022102 1.7265096e-38
0.80404246 -0.16251543 0.0705221 1.7540599e-38
0.80654246 -0.16501543 0.0705221 1.7448774e-38
0.80654246 -0.16251543 0.0705221 1.7816092e-38
0.80404246 -0.16001543 0.065522105 1.6897768e-38
0.80404246 -0.15751544 0.065522105 1.6622239e-38
0.80404246 -0.16001543 0.068022102 1.7265096e-38
0.80404246 -0.16001543 0.0705221 1.754059e-38
0.80404246 -0.15751544 0.068022102 1.7081771e-38
0.80404246 -0.15751544 0.0705221 1.6989578e-38
0.80654246 -0.16001543 0.0705221 1.754058e-38
0.80404246 -0.16501543 0.073022105 1.7173255e-38
0.80404246 -0.16501543 0.075522102 1.7542759e-38
0.80404246 -0.16251543 0.073022105 1.7173252e-38
0.80404246 -0.16251543 0.075522102 1.7451295e-38
0.80654246 -0.16501543 0.075522102 1.3500918e-38
0.80654246 -0.16251543 0.075522102 1.377788e-38
0.80404246 -0.16501543 0.0780221 8.7311881e-39
0.80404246 -0.16251543 0.0780221 1.3136065e-38
0.80654246 -0.16501543 0.0780221 8.9127066e-39
0.80654246 -0.16501543 0.080522105 1.8694821e-38
0.80654246 -0.16251543 0.0780221 8.9087606e-39
0.80654246 -0.16251543 0.080522105 1.8602265e-38
0.80404246 -0.16001543 0.073022105 1.7356917e-38
0.80404246 -0.16001543 0.075522102 1.7544575e-38
0.80404246 -0.15751544 0.073022105 1.717325e-38
0.80404246 -0.15751544 0.075522102 1.7542411e-38
0.80654246 -0.16001543 0.075522102 1.4425765e-38
0.80654246 -0.15751544 0.075522102 1.5071472e-38
0.80404246 -0.16001543 0.0780221 1.4242803e-38
0.80404246 -0.15751544 0.0780221 1.4518298e-38
0.80404246 -0.15751544 0.080522105 1.2781325e-38
0.80654246 -0.16001543 0.0780221 9.6463144e-39
0.80654246 -0.16001543 0.080522105 1.8048012e-38
0.80654246 -0.15751544 0.0780221 1.1486976e-38
0.80654246 -0.15751544 0.080522105 1.2874964e-38
0.80904245 -0.16501543 0.073022105 1.7175784e-38
0.80904245 -0.16501543 0.075522102 1.3317603e-38
0.80904245 -0.16251543 0.073022105 1.763677e-38
0.80904245 -0.16251543 0.075522102 1.4057341e-38
0.80904245 -0.16501543 0.0780221 1.4453093e-38
0.80904245 -0.16501543 0.080522105 1.8510054e-38
0.80904245 -0.16251543 0.0780221 1.3895959e-38
0.80904245 -0.16251543 0.080522105 1.7864334e-38
0.81154245 -0.16251543 0.0780221 1.398994e-38
0.80904245 -0.16001543 0.073022105 1.7544925e-38
0.80904245 -0.16001543 0.075522102 8.9105543e-39
0.80904245 -0.16001543 0.0780221 1.2236078e-38
0.80904245 -0.15751544 0.0780221 1.1862611e-38
0.80404246 -0.15501544 0.065522105 1.6346718e-38
0.80654246 -0.15501544 0.065522105 1.6806629e-38
0.80404246 -0.15501544 0.068022102 1.7082139e-38
0.80404246 -0.15501544 0.0705221 1.6989574e-38
0.80404246 -0.15251544 0.0705221 1.6989593e-38
0.80404246 -0.14751543 0.0705221 1.7632429e-38
0.80654246 -0.14751543 0.0705221 1.7356909e-38
0.80404246 -0.15501544 0.073022105 1.7356927e-38
0.80404246 -0.15501544 0.075522102 1.7542411e-38
0.80404246 -0.15251544 0.073022105 1.7540599e-38
0.80404246 -0.15251544 0.075522102 1.7450214e-38
0.80654246 -0.15501544 0.075522102 1.5802572e-38
0.80654246 -0.15251544 0.075522102 1.5893673e-38
0.80404246 -0.15501544 0.0780221 1.5525986e-38
0.80404246 -0.15251544 0.0780221 1.5525609e-38
0.80404246 -0.15251544 0.080522105 1.130262e-38
0.80654246 -0.15501544 0.0780221 1.2309562e-38
0.80654246 -0.15501544 0.080522105 1.1763598e-38
0.80654246 -0.15251544 0.0780221 1.3041717e-38
0.80654246 -0.15251544 0.080522105 1.1393357e-38
0.80404246 -0.15001543 0.073022105 1.7173238e-38
0.80404246 -0.15001543 0.075522102 1.7542411e-38
0.80404246 -0.14751543 0.073022105 1.754059e-38
0.80404246 -0.14751543 0.075522102 1.7543137e-38
0.80654246 -0.15001543 0.075522102 1.5984462e-38
0.80654246 -0.14751543 0.075522102 1.6168853e-38
0.80404246 -0.15001543 0.0780221 1.5710002e-38
0.80404246 -0.15001543 0.080522105 1.148807e-38
0.80404246 -0.14751543 0.0780221 1.6352155e-38
0.80404246 -0.14751543 0.080522105 1.2957056e-38
0.80654246 -0.15001543 0.0780221 1.4050831e-38
0.80654246 -0.15001543 0.080522105 1.176178e-38
0.80654246 -0.14751543 0.0780221 1.3591653e-38
0.80654246 -0.14751543 0.080522105 1.2034037e-38
0.80904245 -0.15501544 0.0780221 1.1575979e-38
0.80904245 -0.15251544 0.0780221 1.1394796e-38
0.80904245 -0.14751543 0.073022105 1.7907933e-38
0.80904245 -0.15001543 0.0780221 1.1672808e-38
0.80904245 -0.14751543 0.0780221 1.1944354e-38
0.80404246 -0.16501543 0.083022103 1.7775007e-38
0.80404246 -0.16501543 0.0855221 1.5564854e-38
0.80654246 -0.16501543 0.0855221 1.7034927e-38
0.80654246 -0.16251543 0.0855221 1.5559438e-38
0.80404246 -0.16501543 0.088022105 1.6483921e-38
0.80654246 -0.16501543 0.088022105 1.740228e-38
0.80654246 -0.16501543 0.090522103 1.7034218e-38
0.80654246 -0.16251543 0.088022105 1.5834596e-38
0.80654246 -0.16251543 0.090522103 1.7220403e-38
0.80404246 -0.16001543 0.083022103 1.7405151e-38
0.80404246 -0.16001543 0.0855221 1.482474e-38
0.80404246 -0.15751544 0.083022103 1.6574331e-38
0.80404246 -0.15751544 0.0855221 1.5838198e-38
0.80654246 -0.16001543 0.0855221 1.4823318e-38
0.80654246 -0.15751544 0.0855221 1.4823686e-38
0.80404246 -0.16001543 0.088022105 1.3530061e-38
0.80404246 -0.16001543 0.090522103 1.5927835e-38
0.80404246 -0.15751544 0.088022105 1.353295e-38
0.80404246 -0.15751544 0.090522103 1.4641093e-38
0.80654246 -0.16001543 0.088022105 1.3988887e-38
0.80654246 -0.16001543 0.090522103 1.5652337e-38
0.80654246 -0.15751544 0.088022105 1.4456711e-38
0.80654246 -0.15751544 0.090522103 1.4736886e-38
0.80904245 -0.16501543 0.083022103 1.8694818e-38
0.80904245 -0.16251543 0.083022103 1.8049449e-38
0.80404246 -0.16501543 0.093022101 1.6572166e-38
0.80404246 -0.16251543 0.093022101 1.7404801e-38
0.80654246 -0.16501543 0.093022101 1.6483565e-38
0.80654246 -0.16501543 0.095522106 1.5469434e-38
0.80654246 -0.16251543 0.093022101 1.7036739e-38
0.80654246 -0.16251543 0.095522106 1.6302769e-38
0.80404246 -0.16501543 0.098022103 1.4642176e-38
0.80404246 -0.16501543 0.1005221 1.5657403e-38
0.80404246 -0.16251543 0.098022103 1.483017e-38
0.80404246 -0.16251543 0.1005221 1.5932185e-38
0.80654246 -0.16501543 0.098022103 1.5288615e-38
0.80654246 -0.16251543 0.098022103 1.4829439e-38
0.80654246 -0.16251543 0.1005221 1.5835324e-38
0.80404246 -0.16001543 0.093022101 1.7035668e-38
0.80404246 -0.15751544 0.093022101 1.4363807e-38
0.80654246 -0.16001543 0.095522106 1.6485384e-38
0.80654246 -0.15751544 0.093022101 1.4919109e-38
0.80654246 -0.15751544 0.095522106 1.8233117e-38
0.80404246 -0.16001543 0.098022103 1.5011677e-38
0.80404246 -0.16001543 0.1005221 1.4730403e-38
0.80404246 -0.15751544 0.1005221 1.4638206e-38
0.80654246 -0.16001543 0.098022103 1.390136e-38
0.80654246 -0.16001543 0.1005221 1.4636761e-38
0.80654246 -0.15751544 0.098022103 1.5930744e-38
0.80654246 -0.15751544 0.1005221 1.4087566e-38
0.80904245 -0.16251543 0.093022101 1.6025845e-38
0.80404246 -0.15501544 0.083022103 1.5379038e-38
0.80404246 -0.15501544 0.0855221 1.6025832e-38
0.80404246 -0.15251544 0.083022103 1.4641473e-38
0.80404246 -0.15251544 0.0855221 1.6025832e-38
0.80654246 -0.15501544 0.0855221 1.3999336e-38
0.80654246 -0.15251544 0.0855221 1.4276283e-38
