# .PCD v0.7 - Point Cloud Data file format
VERSION 0.7
FIELDS x y z rgb
SIZE 4 4 4 4
TYPE F F F F
COUNT 1 1 1 1
WIDTH 997
HEIGHT 1
VIEWPOINT 0 0 0 1 0 0 0
POINTS 997
DATA ascii
0.81154245 -0.14251544 0.1080221 1.102026e-38
0.81154245 -0.14251544 0.1105221 1.4877356e-38
0.80904245 -0.14001544 0.1030221 1.2613537e-38
0.80904245 -0.14001544 0.1055221 1.7775433e-38
0.80904245 -0.13751544 0.1030221 1.5562334e-38
0.80904245 -0.13751544 0.1055221 1.8880294e-38
0.81154245 -0.13751544 0.1055221 2.0994682e-38
0.80904245 -0.14001544 0.1080221 1.2790385e-38
0.80904245 -0.14001544 0.1105221 1.7573765e-38
0.80904245 -0.13751544 0.1080221 2.0904272e-38
0.81154245 -0.14001544 0.1080221 1.9246948e-38
0.81154245 -0.14001544 0.1105221 1.6173466e-38
0.81154245 -0.13751544 0.1080221 2.0810651e-38
0.81154245 -0.13751544 0.1105221 1.617282e-38
0.81404245 -0.14251544 0.1080221 1.0930651e-38
0.81404245 -0.14001544 0.1080221 1.812191e-38
0.81404245 -0.13751544 0.1080221 1.8675379e-38
0.81404245 -0.13751544 0.1105221 1.6254883e-38
0.80904245 -0.14251544 0.1130221 1.4877356e-38
0.80904245 -0.14001544 0.1130221 1.3685641e-38
0.80904245 -0.13751544 0.1130221 1.654445e-38
0.80904245 -0.13501543 0.1030221 1.3808077e-38
0.80904245 -0.13501543 0.1055221 1.8234562e-38
0.80904245 -0.13251543 0.1030221 1.3531489e-38
0.80904245 -0.13251543 0.1055221 1.8510788e-38
0.81154245 -0.13501543 0.1030221 1.3530764e-38
0.81154245 -0.13501543 0.1055221 1.961318e-38
0.81154245 -0.13251543 0.1030221 1.3249884e-38
0.81154245 -0.13251543 0.1055221 1.9428789e-38
0.80904245 -0.13501543 0.1080221 1.9520979e-38
0.80904245 -0.13501543 0.1105221 1.709657e-38
0.80904245 -0.13251543 0.1105221 1.7842376e-38
0.81154245 -0.13501543 0.1080221 1.7208178e-38
0.81154245 -0.13501543 0.1105221 1.7106609e-38
0.81154245 -0.13251543 0.1080221 1.9152575e-38
0.81154245 -0.13251543 0.1105221 1.8030007e-38
0.80904245 -0.13001543 0.1030221 1.3527544e-38
0.80904245 -0.13001543 0.1055221 1.749449e-38
0.80904245 -0.12751544 0.1055221 1.5191733e-38
0.81154245 -0.13001543 0.1030221 1.3710862e-38
0.81154245 -0.13001543 0.1055221 1.7035665e-38
0.81154245 -0.12751544 0.1030221 1.2977613e-38
0.81154245 -0.12751544 0.1055221 1.6111538e-38
0.80904245 -0.13001543 0.1105221 1.8121837e-38
0.80904245 -0.12751544 0.1105221 1.8875615e-38
0.81154245 -0.13001543 0.1080221 1.8967823e-38
0.81154245 -0.13001543 0.1105221 1.8214758e-38
0.81154245 -0.12751544 0.1080221 1.8417511e-38
0.81154245 -0.12751544 0.1105221 1.8216909e-38
0.81404245 -0.13501543 0.1080221 1.6841918e-38
0.81404245 -0.13251543 0.1080221 1.8873097e-38
0.81404245 -0.13001543 0.1080221 1.9241521e-38
0.81404245 -0.13001543 0.1105221 1.6438554e-38
0.81404245 -0.12751544 0.1080221 2.0167796e-38
0.81404245 -0.12751544 0.1105221 1.6346718e-38
0.80904245 -0.13501543 0.1130221 1.7282016e-38
0.80904245 -0.13501543 0.1155221 1.6163049e-38
0.80904245 -0.13251543 0.1130221 1.6438554e-38
0.80904245 -0.13251543 0.1155221 1.5979376e-38
0.81154245 -0.13251543 0.1130221 1.6346718e-38
0.80904245 -0.13001543 0.1130221 1.6254883e-38
0.80904245 -0.13001543 0.1155221 1.6163047e-38
0.80904245 -0.12751544 0.1130221 1.6346718e-38
0.80904245 -0.12751544 0.1155221 1.6254883e-38
0.81154245 -0.13001543 0.1130221 1.6254883e-38
0.81154245 -0.13001543 0.1155221 1.6530399e-38
0.81154245 -0.12751544 0.1130221 1.6346718e-38
0.81154245 -0.12751544 0.1155221 1.6438557e-38
0.80904245 -0.13001543 0.1180221 1.6346728e-38
0.80904245 -0.13001543 0.1205221 1.5887549e-38
0.80904245 -0.12751544 0.1180221 1.6530389e-38
0.80904245 -0.12751544 0.1205221 1.6530389e-38
0.81154245 -0.12501544 0.065522105 1.6805901e-38
0.80904245 -0.12251543 0.0705221 1.744876e-38
0.81154245 -0.12501544 0.068022102 1.7540595e-38
0.81154245 -0.12501544 0.0705221 1.7540599e-38
0.81154245 -0.12251543 0.068022102 1.7265089e-38
0.81154245 -0.12251543 0.0705221 1.7632432e-38
0.80904245 -0.12001543 0.0705221 1.72651e-38
0.81154245 -0.12001543 0.068022102 1.7540606e-38
0.81154245 -0.12001543 0.0705221 1.7448764e-38
0.81154245 -0.11751544 0.068022102 1.744876e-38
0.81154245 -0.11751544 0.0705221 1.7540587e-38
0.81404245 -0.12501544 0.065522105 1.7448771e-38
0.81404245 -0.12251543 0.065522105 1.744876e-38
0.81404245 -0.12501544 0.068022102 1.7540595e-38
0.81404245 -0.12251543 0.068022102 1.7448791e-38
0.81404245 -0.12001543 0.065522105 1.72651e-38
0.81404245 -0.11751544 0.065522105 1.7173997e-38
0.81404245 -0.12001543 0.068022102 1.7540606e-38
0.81404245 -0.11751544 0.068022102 1.7449145e-38
0.80904245 -0.12251543 0.073022105 1.7448748e-38
0.80904245 -0.12251543 0.075522102 1.754058e-38
0.81154245 -0.12501544 0.073022105 1.7448758e-38
0.81154245 -0.12501544 0.075522102 1.7173238e-38
0.81154245 -0.12251543 0.073022105 1.7357284e-38
0.81154245 -0.12251543 0.075522102 1.7173238e-38
0.81154245 -0.12501544 0.0780221 1.570387e-38
0.81154245 -0.12501544 0.080522105 1.933802e-38
0.81154245 -0.12251543 0.0780221 1.6530389e-38
0.81154245 -0.12251543 0.080522105 2.0070562e-38
0.80904245 -0.12001543 0.073022105 1.7632795e-38
0.80904245 -0.12001543 0.075522102 1.7448762e-38
0.80904245 -0.11751544 0.075522102 1.7540609e-38
0.81154245 -0.12001543 0.073022105 1.7448762e-38
0.81154245 -0.12001543 0.075522102 1.6989585e-38
0.81154245 -0.11751544 0.073022105 1.7540599e-38
0.81154245 -0.11751544 0.075522102 1.7356931e-38
0.81154245 -0.12001543 0.0780221 1.6897733e-38
0.81154245 -0.12001543 0.080522105 2.3451191e-38
0.81154245 -0.11751544 0.0780221 1.7081402e-38
0.81154245 -0.11751544 0.080522105 1.6903118e-38
0.81404245 -0.12501544 0.073022105 1.7540947e-38
0.81404245 -0.12251543 0.073022105 1.7357284e-38
0.81404245 -0.12501544 0.0780221 1.9419081e-38
0.81404245 -0.12501544 0.080522105 1.5100283e-38
0.81404245 -0.12251543 0.0780221 1.9141053e-38
0.81404245 -0.12251543 0.080522105 1.510028e-38
0.81404245 -0.11751544 0.073022105 1.772428e-38
0.81404245 -0.11751544 0.075522102 1.7816114e-38
0.81654245 -0.11751544 0.075522102 1.7448761e-38
0.81404245 -0.12001543 0.0780221 2.3442552e-38
0.81404245 -0.12001543 0.080522105 2.2720468e-38
0.81404245 -0.11751544 0.0780221 1.7265076e-38
0.81404245 -0.11751544 0.080522105 1.6450807e-38
0.81654245 -0.11751544 0.0780221 1.6897754e-38
0.80904245 -0.11251543 0.068022102 1.8367841e-38
0.80904245 -0.11251543 0.0705221 1.8001199e-38
0.81154245 -0.11501543 0.068022102 1.7449124e-38
0.81154245 -0.11501543 0.0705221 1.7449124e-38
0.81154245 -0.11251543 0.068022102 1.7450562e-38
0.81154245 -0.11251543 0.0705221 1.7632446e-38
0.81154245 -0.11001544 0.068022102 1.7358749e-38
0.81154245 -0.11001544 0.0705221 1.8183467e-38
0.81154245 -0.10751543 0.0705221 1.7541691e-38
0.81404245 -0.11501543 0.065522105 1.754314e-38
0.81404245 -0.11251543 0.065522105 1.7634957e-38
0.81404245 -0.11501543 0.068022102 1.7541341e-38
0.81404245 -0.11251543 0.068022102 1.7724635e-38
0.81654245 -0.11501543 0.0705221 1.7907944e-38
0.81404245 -0.11001544 0.065522105 1.754314e-38
0.81404245 -0.10751543 0.065522105 1.699284e-38
0.81404245 -0.11001544 0.068022102 1.7725003e-38
0.81404245 -0.10751543 0.068022102 1.7449864e-38
0.81654245 -0.11001544 0.0705221 1.8091622e-38
0.81654245 -0.10751543 0.0705221 1.7633161e-38
0.80904245 -0.11501543 0.075522102 1.7632446e-38
0.80904245 -0.11251543 0.073022105 1.7633864e-38
0.81154245 -0.11501543 0.073022105 1.7632456e-38
0.81154245 -0.11501543 0.075522102 1.7724269e-38
0.81154245 -0.11251543 0.073022105 1.772606e-38
0.81154245 -0.11251543 0.075522102 1.7816458e-38
0.81154245 -0.11251543 0.080522105 1.772606e-38
0.80904245 -0.11001544 0.073022105 1.772571e-38
0.81154245 -0.11001544 0.073022105 1.7266533e-38
0.81154245 -0.11001544 0.075522102 1.7265802e-38
0.81404245 -0.11501543 0.073022105 1.772428e-38
0.81404245 -0.11501543 0.075522102 1.7907953e-38
0.81404245 -0.11251543 0.073022105 1.7632449e-38
0.81404245 -0.11251543 0.075522102 1.7999789e-38
0.81654245 -0.11501543 0.075522102 1.7999782e-38
0.81654245 -0.11251543 0.075522102 1.8367127e-38
0.81404245 -0.11501543 0.0780221 1.781611e-38
0.81404245 -0.11501543 0.080522105 1.7540608e-38
0.81404245 -0.11251543 0.0780221 1.7632426e-38
0.81404245 -0.11251543 0.080522105 1.7816093e-38
0.81654245 -0.11501543 0.0780221 1.7816121e-38
0.81654245 -0.11251543 0.0780221 1.781611e-38
0.81404245 -0.11001544 0.073022105 1.8091622e-38
0.81404245 -0.11001544 0.075522102 1.7724273e-38
0.81404245 -0.10751543 0.073022105 1.7999782e-38
0.81404245 -0.10751543 0.075522102 1.7999782e-38
0.81654245 -0.11001544 0.073022105 1.7448776e-38
0.81654245 -0.11001544 0.075522102 1.8183456e-38
0.81654245 -0.10751543 0.073022105 1.7727153e-38
0.81654245 -0.10751543 0.075522102 1.7999782e-38
0.81404245 -0.11001544 0.0780221 1.7540594e-38
0.81404245 -0.11001544 0.080522105 1.7540602e-38
0.81404245 -0.10751543 0.080522105 1.7999788e-38
0.81654245 -0.11001544 0.0780221 1.7816113e-38
0.81654245 -0.10751543 0.0780221 1.8091622e-38
0.81154245 -0.10501543 0.0705221 1.7634607e-38
0.81404245 -0.10501543 0.065522105 1.7545655e-38
0.81654245 -0.10501543 0.065522105 1.7543506e-38
0.81654245 -0.10251544 0.065522105 1.7543856e-38
0.81404245 -0.10501543 0.068022102 1.7634257e-38
0.81404245 -0.10251544 0.068022102 1.77286e-38
0.81654245 -0.10501543 0.068022102 1.7726452e-38
0.81654245 -0.10501543 0.0705221 1.7909749e-38
0.81654245 -0.10251544 0.068022102 1.7818648e-38
0.81654245 -0.10251544 0.0705221 1.7726803e-38
0.81654245 -0.10001543 0.068022102 1.7363412e-38
0.81654245 -0.10001543 0.0705221 1.6904934e-38
0.81404245 -0.10501543 0.073022105 1.7816833e-38
0.81404245 -0.10501543 0.075522102 1.7724635e-38
0.81654245 -0.10501543 0.073022105 1.7634607e-38
0.81654245 -0.10501543 0.075522102 1.7724985e-38
0.81654245 -0.10251544 0.073022105 1.7726803e-38
0.81404245 -0.10501543 0.080522105 1.8091975e-38
0.81654245 -0.10501543 0.0780221 1.799978e-38
0.81654245 -0.10251544 0.0780221 1.7726803e-38
0.81654245 -0.10001543 0.073022105 1.6626919e-38
0.81654245 -0.10001543 0.0780221 1.6997465e-38
0.81904244 -0.10251544 0.065522105 1.745131e-38
0.81904244 -0.10501543 0.0705221 1.7545266e-38
0.81904244 -0.10251544 0.0705221 1.7637461e-38
0.81904244 -0.10001543 0.065522105 1.8004484e-38
0.82154244 -0.10001543 0.065522105 1.7639998e-38
0.81904244 -0.10001543 0.068022102 1.8103118e-38
0.81904244 -0.10001543 0.0705221 1.6628717e-38
0.81904244 -0.097515434 0.0705221 1.6730959e-38
0.82154244 -0.10001543 0.068022102 1.8103847e-38
0.82154244 -0.10001543 0.0705221 1.7553194e-38
0.82404244 -0.10001543 0.065522105 1.7824389e-38
0.82404244 -0.097515434 0.065522105 1.6725557e-38
0.82654244 -0.097515434 0.065522105 1.6638408e-38
0.82404244 -0.10001543 0.068022102 1.8011651e-38
0.81904244 -0.10501543 0.073022105 1.7633891e-38
0.81904244 -0.10501543 0.075522102 1.7726084e-38
0.81904244 -0.10251544 0.073022105 1.7360149e-38
0.81904244 -0.10251544 0.075522102 1.7541691e-38
0.81904244 -0.10501543 0.0780221 1.8001945e-38
0.81904244 -0.10501543 0.080522105 1.8091975e-38
0.81904244 -0.10251544 0.0780221 1.7818998e-38
0.81904244 -0.10251544 0.080522105 1.7818998e-38
0.82154244 -0.10501543 0.0780221 1.8001594e-38
0.82154244 -0.10251544 0.0780221 1.7726452e-38
0.81904244 -0.10001543 0.073022105 1.5891152e-38
0.81904244 -0.10001543 0.075522102 1.6168093e-38
0.81904244 -0.097515434 0.073022105 1.6545507e-38
0.81904244 -0.097515434 0.075522102 1.6087765e-38
0.82154244 -0.10001543 0.073022105 1.782904e-38
0.82154244 -0.10001543 0.075522102 1.8195317e-38
0.81904244 -0.10001543 0.0780221 1.6904928e-38
0.81904244 -0.10001543 0.080522105 1.7088584e-38
0.81904244 -0.097515434 0.0780221 1.5080062e-38
0.81904244 -0.097515434 0.080522105 1.7735762e-38
0.82154244 -0.10001543 0.0780221 1.7918345e-38
0.82154244 -0.097515434 0.0780221 1.3703949e-38
0.82404244 -0.10001543 0.073022105 1.8104178e-38
0.82404244 -0.10001543 0.075522102 1.8011263e-38
0.81154245 -0.12501544 0.083022103 1.5102081e-38
0.81154245 -0.12501544 0.0855221 1.2704658e-38
0.81154245 -0.12251543 0.0855221 1.4547786e-38
0.80904245 -0.12501544 0.090522103 1.4179046e-38
0.80904245 -0.12251543 0.090522103 1.5005229e-38
0.81154245 -0.12501544 0.088022105 1.4273387e-38
0.81154245 -0.12501544 0.090522103 1.4546023e-38
0.81154245 -0.12251543 0.088022105 1.3993235e-38
0.81154245 -0.12251543 0.090522103 1.5097421e-38
0.81154245 -0.12001543 0.0855221 1.6024054e-38
0.81154245 -0.12001543 0.090522103 1.6757306e-38
0.81404245 -0.12251543 0.083022103 1.7313656e-38
0.81404245 -0.12251543 0.088022105 1.4269096e-38
0.81404245 -0.12251543 0.090522103 1.5005564e-38
0.81404245 -0.12001543 0.083022103 2.3181444e-38
0.81404245 -0.11751544 0.083022103 1.608238e-38
0.81654245 -0.12001543 0.0855221 2.3456985e-38
0.81654245 -0.11751544 0.0855221 1.5711472e-38
0.81404245 -0.12001543 0.088022105 1.6850573e-38
0.81404245 -0.12001543 0.090522103 1.7126063e-38
0.81404245 -0.11751544 0.088022105 1.5065379e-38
0.81404245 -0.11751544 0.090522103 1.5339445e-38
0.81654245 -0.12001543 0.090522103 2.2530336e-38
0.81654245 -0.11751544 0.088022105 1.6530412e-38
0.81654245 -0.11751544 0.090522103 1.5246881e-38
0.80904245 -0.12501544 0.095522106 1.5655602e-38
0.81154245 -0.12501544 0.093022101 1.4178699e-38
0.81154245 -0.12501544 0.095522106 1.5471211e-38
0.81154245 -0.12251543 0.093022101 1.4730409e-38
0.81154245 -0.12251543 0.095522106 1.657146e-38
0.80904245 -0.12501544 0.1005221 1.3347835e-38
0.81154245 -0.12501544 0.098022103 1.6482119e-38
0.81154245 -0.12251543 0.098022103 1.7215352e-38
0.81154245 -0.12001543 0.095522106 1.7770353e-38
0.80904245 -0.12001543 0.1005221 1.8596151e-38
0.80904245 -0.11751544 0.1005221 1.6346718e-38
0.81154245 -0.12001543 0.098022103 1.7952917e-38
0.81154245 -0.11751544 0.098022103 1.6071222e-38
0.81404245 -0.12501544 0.095522106 1.6389923e-38
0.81404245 -0.12251543 0.093022101 1.4547122e-38
0.81404245 -0.12251543 0.095522106 1.7217183e-38
0.81404245 -0.12501544 0.1005221 1.3534029e-38
0.81404245 -0.12251543 0.098022103 1.684621e-38
0.81404245 -0.12251543 0.1005221 1.6845153e-38
0.81404245 -0.12001543 0.093022101 1.6667621e-38
0.81404245 -0.12001543 0.095522106 1.8139859e-38
0.81404245 -0.11751544 0.093022101 1.5520572e-38
0.81404245 -0.11751544 0.095522106 1.5612034e-38
0.81654245 -0.12001543 0.095522106 1.8507921e-38
0.81654245 -0.11751544 0.093022101 1.6805906e-38
0.81654245 -0.11751544 0.095522106 1.5520206e-38
0.81404245 -0.12001543 0.1005221 1.8320643e-38
0.81404245 -0.11751544 0.098022103 1.5795707e-38
0.81404245 -0.11751544 0.1005221 1.6622225e-38
0.81154245 -0.11501543 0.083022103 1.7540601e-38
0.81154245 -0.11501543 0.0855221 1.7632446e-38
0.81154245 -0.11251543 0.083022103 1.7632438e-38
0.81154245 -0.11251543 0.0855221 1.7632438e-38
0.81404245 -0.11501543 0.083022103 1.7632447e-38
0.81404245 -0.11251543 0.083022103 1.7356928e-38
0.81654245 -0.11501543 0.083022103 1.7632456e-38
0.81654245 -0.11501543 0.0855221 1.7726084e-38
0.81654245 -0.11251543 0.083022103 1.7816086e-38
0.81654245 -0.11251543 0.0855221 1.7540611e-38
0.81404245 -0.11501543 0.090522103 1.772714e-38
0.81404245 -0.11251543 0.090522103 1.7725003e-38
0.81654245 -0.11501543 0.088022105 1.7542411e-38
0.81654245 -0.11501543 0.090522103 1.7633514e-38
0.81654245 -0.11251543 0.088022105 1.7817907e-38
0.81654245 -0.11251543 0.090522103 1.7908656e-38
0.81404245 -0.11001544 0.083022103 1.7632438e-38
0.81404245 -0.10751543 0.083022103 1.7632438e-38
0.81654245 -0.11001544 0.083022103 1.7632426e-38
0.81654245 -0.11001544 0.0855221 1.7632446e-38
0.81654245 -0.10751543 0.083022103 1.7999774e-38
0.81654245 -0.10751543 0.0855221 1.7632446e-38
0.81404245 -0.11001544 0.090522103 1.8183455e-38
0.81404245 -0.10751543 0.090522103 1.7999781e-38
0.81654245 -0.11001544 0.088022105 1.7816121e-38
0.81654245 -0.11001544 0.090522103 1.781611e-38
0.81654245 -0.10751543 0.088022105 1.7816121e-38
0.81654245 -0.10751543 0.090522103 1.7999782e-38
0.81154245 -0.11501543 0.095522106 1.7541688e-38
0.81154245 -0.11251543 0.095522106 1.7908653e-38
0.80904245 -0.11501543 0.1005221 1.7081416e-38
0.80904245 -0.11251543 0.1005221 1.7632456e-38
0.81154245 -0.11501543 0.098022103 1.7265101e-38
0.81154245 -0.11251543 0.098022103 1.726548e-38
0.81154245 -0.11001544 0.095522106 1.7632426e-38
0.80904245 -0.11001544 0.1005221 1.7632456e-38
0.80904245 -0.10751543 0.1005221 1.7816833e-38
0.81154245 -0.11001544 0.098022103 1.7541708e-38
0.81154245 -0.10751543 0.098022103 1.8091611e-38
0.81404245 -0.11501543 0.093022101 1.7542394e-38
0.81404245 -0.11501543 0.095522106 1.7542394e-38
0.81404245 -0.11251543 0.093022101 1.7632424e-38
0.81404245 -0.11251543 0.095522106 1.7449493e-38
0.81654245 -0.11501543 0.093022101 1.7450199e-38
0.81654245 -0.11501543 0.095522106 1.6989581e-38
0.81404245 -0.11501543 0.1005221 1.6989585e-38
0.81404245 -0.11251543 0.1005221 1.7632808e-38
0.81404245 -0.11001544 0.093022101 1.7448748e-38
0.81404245 -0.11001544 0.095522106 1.7541688e-38
0.81404245 -0.10751543 0.093022101 1.7999781e-38
0.81654245 -0.11001544 0.093022101 1.7632438e-38
0.81654245 -0.11001544 0.095522106 1.8460036e-38
0.81654245 -0.10751543 0.093022101 1.7999782e-38
0.81654245 -0.10751543 0.095522106 1.781611e-38
0.81404245 -0.11001544 0.1005221 1.7449124e-38
0.81404245 -0.10751543 0.1005221 1.7634594e-38
0.81904244 -0.11251543 0.083022103 1.7724284e-38
0.81904244 -0.11251543 0.0855221 1.772571e-38
0.81904244 -0.10751543 0.093022101 1.7356934e-38
0.80904245 -0.12251543 0.1055221 1.6287666e-38
0.81154245 -0.12501544 0.1030221 1.3163118e-38
0.81154245 -0.12501544 0.1055221 1.3902443e-38
0.81154245 -0.12251543 0.1030221 1.3624095e-38
0.81154245 -0.12251543 0.1055221 1.4363061e-38
0.80904245 -0.12501544 0.1105221 1.8681495e-38
0.81154245 -0.12501544 0.1080221 1.8786987e-38
0.81154245 -0.12501544 0.1105221 1.8774059e-38
0.81154245 -0.12251543 0.1080221 1.8694791e-38
0.81154245 -0.12251543 0.1105221 2.0064798e-38
0.80904245 -0.12001543 0.1055221 1.6933036e-38
0.80904245 -0.11751544 0.1055221 2.2060346e-38
0.81154245 -0.12001543 0.1030221 1.7394374e-38
0.81154245 -0.12001543 0.1055221 1.610545e-38
0.81154245 -0.11751544 0.1030221 1.6438561e-38
0.81154245 -0.11751544 0.1055221 1.6071224e-38
0.80904245 -0.11751544 0.1105221 1.6805896e-38
0.81154245 -0.12001543 0.1080221 1.7022712e-38
0.81154245 -0.12001543 0.1105221 1.839735e-38
0.81154245 -0.11751544 0.1080221 2.1971745e-38
0.81154245 -0.11751544 0.1105221 2.0768167e-38
0.81404245 -0.12501544 0.1080221 2.0167423e-38
0.81404245 -0.12501544 0.1105221 1.6438554e-38
0.81404245 -0.12251543 0.1080221 2.0626959e-38
0.81404245 -0.12251543 0.1105221 1.6897747e-38
0.81404245 -0.12001543 0.1080221 1.7204589e-38
0.81404245 -0.12001543 0.1105221 1.7173259e-38
0.81404245 -0.11751544 0.1080221 1.5979383e-38
0.81404245 -0.11751544 0.1105221 1.7265089e-38
0.81654245 -0.12001543 0.1105221 1.6530389e-38
0.81654245 -0.11751544 0.1105221 1.6805907e-38
0.80904245 -0.12501544 0.1130221 1.6438554e-38
0.80904245 -0.12501544 0.1155221 1.6438554e-38
0.80904245 -0.12251543 0.1130221 1.671406e-38
0.80904245 -0.12251543 0.1155221 1.6438554e-38
0.81154245 -0.12501544 0.1130221 1.6163047e-38
0.81154245 -0.12501544 0.1155221 1.6622229e-38
0.81154245 -0.12251543 0.1130221 1.6530389e-38
0.81154245 -0.12251543 0.1155221 1.6622229e-38
0.80904245 -0.12501544 0.1180221 1.6346718e-38
0.80904245 -0.12501544 0.1205221 1.6163047e-38
0.80904245 -0.12251543 0.1180221 1.6163052e-38
0.80904245 -0.12251543 0.1205221 1.6163047e-38
0.81154245 -0.12251543 0.1180221 1.6438554e-38
0.80904245 -0.12001543 0.1130221 1.7265117e-38
0.80904245 -0.12001543 0.1155221 1.6438554e-38
0.80904245 -0.11751544 0.1130221 1.7265073e-38
0.80904245 -0.11751544 0.1155221 1.6714065e-38
0.81154245 -0.12001543 0.1155221 1.6714065e-38
0.81154245 -0.11751544 0.1130221 1.7265089e-38
0.81154245 -0.11751544 0.1155221 1.6714069e-38
0.80904245 -0.12001543 0.1180221 1.6346723e-38
0.80904245 -0.12001543 0.1205221 1.5795707e-38
0.80904245 -0.11751544 0.1180221 1.6254895e-38
0.80904245 -0.11751544 0.1205221 1.5979381e-38
0.81154245 -0.12001543 0.1180221 1.634673e-38
0.81154245 -0.12001543 0.1205221 1.6163052e-38
0.81154245 -0.11751544 0.1180221 1.6254907e-38
0.81154245 -0.11751544 0.1205221 1.6254895e-38
0.81404245 -0.12001543 0.1130221 1.6530389e-38
0.81404245 -0.11751544 0.1130221 1.671406e-38
0.80904245 -0.11501543 0.1030221 1.7540599e-38
0.80904245 -0.11501543 0.1055221 1.7081416e-38
0.80904245 -0.11251543 0.1030221 1.781611e-38
0.80904245 -0.11251543 0.1055221 1.7633514e-38
0.81154245 -0.11501543 0.1030221 1.6989579e-38
0.81154245 -0.11501543 0.1055221 1.7173255e-38
0.81154245 -0.11251543 0.1030221 1.7633514e-38
0.81154245 -0.11251543 0.1055221 1.772571e-38
0.80904245 -0.11501543 0.1105221 1.7265094e-38
0.80904245 -0.11251543 0.1105221 1.7448758e-38
0.81154245 -0.11501543 0.1080221 1.6989578e-38
0.81154245 -0.11501543 0.1105221 1.7265094e-38
0.81154245 -0.11251543 0.1080221 1.7540601e-38
0.81154245 -0.11251543 0.1105221 1.7173257e-38
0.80904245 -0.11001544 0.1055221 1.7632438e-38
0.80904245 -0.10751543 0.1055221 1.781611e-38
0.81154245 -0.11001544 0.1030221 1.7633514e-38
0.81154245 -0.11001544 0.1055221 1.7633514e-38
0.81154245 -0.10751543 0.1030221 1.7633514e-38
0.81154245 -0.10751543 0.1055221 1.7633514e-38
0.81154245 -0.11001544 0.1080221 1.7540601e-38
0.81154245 -0.11001544 0.1105221 1.7540599e-38
0.81154245 -0.10751543 0.1080221 1.781611e-38
0.81154245 -0.10751543 0.1105221 1.7540606e-38
0.81404245 -0.11501543 0.1080221 1.6805904e-38
0.81404245 -0.11501543 0.1105221 1.6989584e-38
0.81404245 -0.11251543 0.1080221 1.7357632e-38
0.81404245 -0.11251543 0.1105221 1.7265096e-38
0.81654245 -0.11501543 0.1105221 1.7081418e-38
0.81654245 -0.11251543 0.1105221 1.7081423e-38
0.81404245 -0.11001544 0.1080221 1.7540599e-38
0.81404245 -0.11001544 0.1105221 1.7265096e-38
0.81404245 -0.10751543 0.1080221 1.7448776e-38
0.81404245 -0.10751543 0.1105221 1.7448774e-38
0.81654245 -0.11001544 0.1105221 1.7081426e-38
0.81654245 -0.10751543 0.1105221 1.7265099e-38
0.80904245 -0.11501543 0.1130221 1.717326e-38
0.80904245 -0.11501543 0.1155221 1.7081418e-38
0.80904245 -0.11251543 0.1130221 1.7356931e-38
0.80904245 -0.11251543 0.1155221 1.7081418e-38
0.81154245 -0.11501543 0.1130221 1.7173257e-38
0.81154245 -0.11501543 0.1155221 1.6714079e-38
0.81154245 -0.11251543 0.1130221 1.7448768e-38
0.81154245 -0.11251543 0.1155221 1.6805915e-38
0.80904245 -0.11501543 0.1180221 1.6714079e-38
0.80904245 -0.11501543 0.1205221 1.5887546e-38
0.80904245 -0.11251543 0.1180221 1.7081428e-38
0.80904245 -0.11251543 0.1205221 1.625489e-38
0.81154245 -0.11501543 0.1180221 1.6530406e-38
0.81154245 -0.11501543 0.1205221 1.5703878e-38
0.81154245 -0.11251543 0.1180221 1.6438569e-38
0.81154245 -0.11251543 0.1205221 1.6254883e-38
0.81154245 -0.11001544 0.1130221 1.7081418e-38
0.81154245 -0.11001544 0.1155221 1.6805907e-38
0.81154245 -0.10751543 0.1155221 1.6897762e-38
0.80904245 -0.11001544 0.1205221 1.634673e-38
0.81154245 -0.11001544 0.1180221 1.6530417e-38
0.81154245 -0.11001544 0.1205221 1.6438568e-38
0.81154245 -0.10751543 0.1180221 1.7082858e-38
0.81154245 -0.10751543 0.1205221 1.6438587e-38
0.81404245 -0.11501543 0.1130221 1.7081418e-38
0.81404245 -0.11251543 0.1130221 1.717326e-38
0.81404245 -0.11251543 0.1155221 1.6438569e-38
0.81654245 -0.11251543 0.1130221 1.6989598e-38
0.81404245 -0.11251543 0.1180221 1.5887562e-38
0.81404245 -0.11251543 0.1205221 1.6254895e-38
0.81654245 -0.11251543 0.1205221 1.6254895e-38
0.81404245 -0.11001544 0.1130221 1.7265099e-38
0.81404245 -0.11001544 0.1155221 1.6530423e-38
0.81404245 -0.10751543 0.1130221 1.7173632e-38
0.81404245 -0.10751543 0.1155221 1.6531133e-38
0.81654245 -0.11001544 0.1130221 1.6989598e-38
0.81654245 -0.11001544 0.1155221 1.6715152e-38
0.81654245 -0.10751543 0.1130221 1.7081783e-38
0.81654245 -0.10751543 0.1155221 1.6989596e-38
0.81404245 -0.11001544 0.1180221 1.6163073e-38
0.81404245 -0.11001544 0.1205221 1.6438568e-38
0.81404245 -0.10751543 0.1180221 1.6715174e-38
0.81404245 -0.10751543 0.1205221 1.6530415e-38
0.81654245 -0.11001544 0.1205221 1.6254895e-38
0.81904244 -0.11251543 0.1105221 1.6898837e-38
0.81904244 -0.11001544 0.1105221 1.6714446e-38
0.81904244 -0.11001544 0.1130221 1.6714446e-38
0.81904244 -0.11001544 0.1155221 1.6530412e-38
0.81904244 -0.10751543 0.1130221 1.6989595e-38
0.82154244 -0.11001544 0.1130221 1.6530416e-38
0.81154245 -0.097515434 0.088022105 1.7550635e-38
0.81154245 -0.097515434 0.090522103 1.7920147e-38
0.81404245 -0.10251544 0.083022103 1.8005187e-38
0.81654245 -0.10501543 0.083022103 1.7818258e-38
0.81654245 -0.10501543 0.0855221 1.7816121e-38
0.81654245 -0.10251544 0.083022103 1.7452013e-38
0.81654245 -0.10251544 0.0855221 1.7636054e-38
0.81404245 -0.10501543 0.090522103 1.7818258e-38
0.81404245 -0.10251544 0.090522103 1.8458953e-38
0.81654245 -0.10501543 0.088022105 1.7817203e-38
0.81654245 -0.10501543 0.090522103 1.7818258e-38
0.81654245 -0.10251544 0.088022105 1.7910843e-38
0.81654245 -0.10251544 0.090522103 1.7819001e-38
0.81404245 -0.10001543 0.083022103 1.7182579e-38
0.81404245 -0.097515434 0.083022103 1.7827948e-38
0.81654245 -0.10001543 0.083022103 1.7364819e-38
0.81654245 -0.10001543 0.0855221 1.7546715e-38
0.81654245 -0.097515434 0.083022103 1.7456664e-38
0.81654245 -0.097515434 0.0855221 1.7272289e-38
0.81404245 -0.10001543 0.088022105 1.6351742e-38
0.81404245 -0.10001543 0.090522103 1.6079484e-38
0.81404245 -0.097515434 0.088022105 1.745809e-38
0.81404245 -0.097515434 0.090522103 1.7370223e-38
0.81654245 -0.10001543 0.088022105 1.5986219e-38
0.81654245 -0.10001543 0.090522103 1.5065351e-38
0.81654245 -0.097515434 0.088022105 1.7461349e-38
0.81654245 -0.097515434 0.090522103 1.7646829e-38
0.80904245 -0.10501543 0.098022103 1.8091625e-38
0.80904245 -0.10501543 0.1005221 1.7725704e-38
0.80904245 -0.10251544 0.098022103 1.7636052e-38
0.80904245 -0.10251544 0.1005221 1.7820453e-38
0.81154245 -0.10501543 0.098022103 1.8275658e-38
0.81154245 -0.10251544 0.098022103 1.7911553e-38
0.80904245 -0.10001543 0.098022103 1.7636052e-38
0.80904245 -0.10001543 0.1005221 1.7635701e-38
0.80904245 -0.097515434 0.1005221 1.7927365e-38
0.81404245 -0.10501543 0.093022101 1.7816121e-38
0.81404245 -0.10251544 0.093022101 1.7819367e-38
0.81654245 -0.10501543 0.093022101 1.7999788e-38
0.81654245 -0.10501543 0.095522106 1.7816483e-38
0.81654245 -0.10251544 0.093022101 1.8001963e-38
0.81654245 -0.10251544 0.095522106 1.8001945e-38
0.81404245 -0.10501543 0.1005221 1.7820426e-38
0.81404245 -0.10251544 0.1005221 1.8003748e-38
0.81654245 -0.10251544 0.098022103 1.7634957e-38
0.81654245 -0.10001543 0.093022101 1.4789843e-38
0.81654245 -0.10001543 0.095522106 1.5068601e-38
0.81654245 -0.097515434 0.093022101 1.7740462e-38
0.81654245 -0.097515434 0.095522106 1.7647872e-38
0.81404245 -0.10001543 0.1005221 1.763748e-38
0.81404245 -0.097515434 0.1005221 1.7653652e-38
0.81654245 -0.10001543 0.098022103 1.4610847e-38
0.81654245 -0.10001543 0.1005221 1.7359802e-38
0.81654245 -0.095015436 0.093022101 2.0719156e-38
0.81904244 -0.10501543 0.083022103 1.8091975e-38
0.81904244 -0.10501543 0.0855221 1.7817203e-38
0.81904244 -0.10251544 0.083022103 1.7911197e-38
0.81904244 -0.10501543 0.090522103 1.7909399e-38
0.81904244 -0.10251544 0.090522103 1.8095963e-38
0.81904244 -0.10001543 0.0855221 1.6719806e-38
0.81904244 -0.097515434 0.083022103 1.7641405e-38
0.81904244 -0.097515434 0.0855221 1.810274e-38
0.82154244 -0.097515434 0.0855221 1.4724291e-38
0.81904244 -0.10001543 0.088022105 1.5615623e-38
0.81904244 -0.10001543 0.090522103 1.5343348e-38
0.81904244 -0.097515434 0.088022105 1.7735762e-38
0.81904244 -0.097515434 0.090522103 1.7460257e-38
0.82154244 -0.097515434 0.090522103 1.7372011e-38
0.81904244 -0.10501543 0.093022101 1.7727859e-38
0.81904244 -0.10251544 0.093022101 1.7634607e-38
0.81904244 -0.10251544 0.095522106 1.7637124e-38
0.82154244 -0.10251544 0.093022101 1.7545263e-38
0.82154244 -0.10251544 0.095522106 1.7451998e-38
0.81904244 -0.10251544 0.098022103 1.7637111e-38
0.81904244 -0.10001543 0.093022101 1.5251874e-38
0.81904244 -0.10001543 0.095522106 1.5158241e-38
0.81904244 -0.097515434 0.093022101 1.7648261e-38
0.81904244 -0.097515434 0.095522106 1.7280936e-38
0.82154244 -0.10001543 0.093022101 1.5344815e-38
0.82154244 -0.10001543 0.095522106 1.4426819e-38
0.82154244 -0.097515434 0.093022101 1.7741192e-38
0.82154244 -0.097515434 0.095522106 1.7926661e-38
0.81904244 -0.10001543 0.098022103 1.4520059e-38
0.81904244 -0.097515434 0.098022103 1.7653302e-38
0.82154244 -0.097515434 0.098022103 1.7561456e-38
0.82154244 -0.097515434 0.1005221 1.7469647e-38
0.81904244 -0.095015436 0.095522106 2.0718429e-38
0.81904244 -0.092515431 0.095522106 2.0078825e-38
0.82154244 -0.095015436 0.093022101 2.071845e-38
0.82154244 -0.095015436 0.095522106 2.0811004e-38
0.82154244 -0.092515431 0.093022101 2.0077022e-38
0.82154244 -0.092515431 0.095522106 2.0354335e-38
0.81904244 -0.095015436 0.098022103 2.0626959e-38
0.81904244 -0.092515431 0.098022103 2.0447603e-38
0.82154244 -0.095015436 0.1005221 2.1273046e-38
0.82404244 -0.095015436 0.1005221 2.1364538e-38
0.80904245 -0.10501543 0.1030221 1.7726084e-38
0.80904245 -0.10501543 0.1055221 1.754349e-38
0.80904245 -0.10251544 0.1030221 1.7819004e-38
0.80904245 -0.10251544 0.1055221 1.837037e-38
0.81154245 -0.10501543 0.1030221 1.7451642e-38
0.81154245 -0.10501543 0.1055221 1.7449843e-38
0.81154245 -0.10251544 0.1030221 1.782042e-38
0.81154245 -0.10251544 0.1055221 1.7728225e-38
0.81154245 -0.10501543 0.1080221 1.7266902e-38
0.81154245 -0.10501543 0.1105221 1.7173629e-38
0.81154245 -0.10251544 0.1080221 1.791155e-38
0.81154245 -0.10001543 0.1030221 1.7542411e-38
0.81154245 -0.10001543 0.1055221 1.7267247e-38
0.81154245 -0.097515434 0.1030221 1.7836248e-38
0.81154245 -0.097515434 0.1055221 1.7836248e-38
0.81154245 -0.10001543 0.1080221 1.3781087e-38
0.81154245 -0.10001543 0.1105221 1.3046739e-38
0.81154245 -0.097515434 0.1080221 1.7653302e-38
0.81154245 -0.097515434 0.1105221 1.7841268e-38
0.81404245 -0.10501543 0.1030221 1.7728228e-38
0.81404245 -0.10251544 0.1030221 1.8373594e-38
0.81654245 -0.10251544 0.1055221 1.8095568e-38
0.81404245 -0.10501543 0.1080221 1.7726084e-38
0.81404245 -0.10501543 0.1105221 1.7541688e-38
0.81404245 -0.10251544 0.1080221 1.7912269e-38
0.81404245 -0.10251544 0.1105221 1.818848e-38
0.81654245 -0.10501543 0.1105221 1.7357297e-38
0.81654245 -0.10251544 0.1080221 1.8095565e-38
0.81654245 -0.10251544 0.1105221 1.8094496e-38
0.81404245 -0.10001543 0.1030221 1.7451998e-38
0.81404245 -0.097515434 0.1030221 1.7375978e-38
0.81654245 -0.10001543 0.1055221 1.7359096e-38
0.81654245 -0.097515434 0.1030221 1.7653302e-38
0.81654245 -0.097515434 0.1055221 1.7838766e-38
0.81404245 -0.10001543 0.1080221 1.3874351e-38
0.81404245 -0.10001543 0.1105221 1.7266884e-38
0.81404245 -0.097515434 0.1080221 1.7746568e-38
0.81404245 -0.097515434 0.1105221 1.7839485e-38
0.81654245 -0.10001543 0.1080221 1.7358e-38
0.81654245 -0.10001543 0.1105221 1.7081419e-38
0.81654245 -0.097515434 0.1080221 1.7655101e-38
0.81654245 -0.097515434 0.1105221 1.7468584e-38
0.81154245 -0.10501543 0.1155221 1.6899912e-38
0.80904245 -0.10251544 0.1205221 1.7727509e-38
0.81154245 -0.10501543 0.1180221 1.6991388e-38
0.81154245 -0.10501543 0.1205221 1.6533282e-38
0.81154245 -0.10251544 0.1180221 1.6808442e-38
0.81154245 -0.10251544 0.1205221 1.699426e-38
0.80904245 -0.10001543 0.1205221 1.6897748e-38
0.80904245 -0.097515434 0.1205221 1.2771244e-38
0.81154245 -0.10001543 0.1180221 1.6805917e-38
0.81154245 -0.10001543 0.1205221 1.6714076e-38
0.81154245 -0.097515434 0.1205221 1.1851814e-38
0.81404245 -0.10501543 0.1130221 1.6898843e-38
0.81404245 -0.10501543 0.1155221 1.6716246e-38
0.81404245 -0.10251544 0.1130221 1.8002664e-38
0.81654245 -0.10501543 0.1130221 1.6899912e-38
0.81654245 -0.10501543 0.1155221 1.6992835e-38
0.81654245 -0.10251544 0.1130221 1.8002301e-38
0.81654245 -0.10251544 0.1155221 1.800195e-38
0.81404245 -0.10501543 0.1180221 1.6531496e-38
0.81404245 -0.10501543 0.1205221 1.6899909e-38
0.81404245 -0.10001543 0.1130221 1.3137159e-38
0.81404245 -0.097515434 0.1130221 1.793133e-38
0.81654245 -0.10001543 0.1130221 1.7081419e-38
0.81654245 -0.10001543 0.1155221 1.6898827e-38
0.81654245 -0.097515434 0.1155221 1.7935281e-38
0.81404245 -0.10001543 0.1205221 1.2587225e-38
0.81404245 -0.097515434 0.1205221 1.7842376e-38
0.81154245 -0.095015436 0.1055221 1.6755096e-38
0.81404245 -0.095015436 0.1030221 1.6479229e-38
0.81654245 -0.095015436 0.1055221 1.7122822e-38
0.81654245 -0.092515431 0.1055221 2.0356856e-38
0.81404245 -0.095015436 0.1080221 1.7030268e-38
0.81404245 -0.095015436 0.1105221 1.7032056e-38
0.81654245 -0.095015436 0.1080221 2.1273775e-38
0.81654245 -0.095015436 0.1105221 1.7216817e-38
0.81654245 -0.092515431 0.1080221 2.0263584e-38
0.81404245 -0.095015436 0.1205221 1.777141e-38
0.81904244 -0.10501543 0.1080221 1.7452717e-38
0.81904244 -0.10501543 0.1105221 1.7359812e-38
0.81904244 -0.10251544 0.1080221 1.827888e-38
0.81904244 -0.10251544 0.1105221 1.8278162e-38
0.81904244 -0.097515434 0.1030221 1.6387036e-38
0.81904244 -0.097515434 0.1055221 1.6571445e-38
0.82154244 -0.097515434 0.1030221 1.6479954e-38
0.82154244 -0.097515434 0.1055221 1.6571798e-38
0.81904244 -0.10001543 0.1080221 1.7357284e-38
0.81904244 -0.10001543 0.1105221 1.7265099e-38
0.81904244 -0.097515434 0.1080221 1.7748015e-38
0.81904244 -0.097515434 0.1105221 1.7841635e-38
0.82154244 -0.10001543 0.1080221 1.744876e-38
0.82154244 -0.10001543 0.1105221 1.2956341e-38
0.82404244 -0.097515434 0.1030221 1.6663643e-38
0.82404244 -0.097515434 0.1055221 1.7032065e-38
0.81904244 -0.10501543 0.1130221 1.7175781e-38
0.81904244 -0.10251544 0.1130221 1.7910102e-38
0.82154244 -0.10501543 0.1130221 1.6993553e-38
0.82154244 -0.10251544 0.1130221 1.7819717e-38
0.81904244 -0.10001543 0.1130221 1.7081416e-38
0.82154244 -0.10001543 0.1130221 1.7081428e-38
0.81904244 -0.095015436 0.1055221 2.1181229e-38
0.82154244 -0.095015436 0.1030221 2.1181932e-38
0.82404244 -0.095015436 0.1030221 2.1273775e-38
0.82654244 -0.095015436 0.1030221 2.1181229e-38
0.92904246 -0.20251544 0.068022102 1.8918112e-38
0.93154246 -0.20501544 0.068022102 1.855077e-38
0.93154246 -0.20251544 0.068022102 1.8367099e-38
0.92904246 -0.20001544 0.068022102 1.8734441e-38
0.92904246 -0.19751543 0.068022102 1.8918112e-38
0.93154246 -0.20001544 0.068022102 1.8458935e-38
0.93154246 -0.19751543 0.068022102 1.8826277e-38
0.93404245 -0.20501544 0.068022102 1.8458935e-38
0.93404245 -0.20251544 0.068022102 1.8826277e-38
0.93404245 -0.20251544 0.0705221 1.8367099e-38
0.93654245 -0.20501544 0.068022102 1.8275264e-38
0.93654245 -0.20501544 0.0705221 1.8458935e-38
0.93654245 -0.20251544 0.068022102 1.8642606e-38
0.93654245 -0.20251544 0.0705221 1.8826277e-38
0.93404245 -0.20001544 0.068022102 1.8826277e-38
0.93404245 -0.20001544 0.0705221 1.8367099e-38
0.93654245 -0.20001544 0.068022102 1.8642606e-38
0.93654245 -0.20001544 0.0705221 1.8826277e-38
0.93654245 -0.19751543 0.068022102 1.855077e-38
0.93654245 -0.19751543 0.0705221 1.8367099e-38
0.93404245 -0.20501544 0.073022105 1.8183428e-38
0.93404245 -0.20251544 0.073022105 1.8183428e-38
0.93654245 -0.20501544 0.073022105 1.7907922e-38
0.93654245 -0.20501544 0.075522102 1.7632415e-38
0.93654245 -0.20251544 0.073022105 1.8091593e-38
0.93654245 -0.20251544 0.075522102 1.7907922e-38
0.93404245 -0.20001544 0.073022105 1.8183428e-38
0.93654245 -0.20001544 0.073022105 1.8183428e-38
0.93654245 -0.20001544 0.075522102 1.7907922e-38
0.93654245 -0.19501543 0.068022102 1.8642606e-38
0.93904245 -0.20501544 0.0705221 1.8183428e-38
0.93904245 -0.20251544 0.0705221 1.8367099e-38
0.94154245 -0.20501544 0.068022102 1.8183428e-38
0.94154245 -0.20251544 0.068022102 1.8367099e-38
0.94154245 -0.20251544 0.0705221 1.8183428e-38
0.93904245 -0.20001544 0.0705221 1.8367099e-38
0.93904245 -0.19751543 0.0705221 1.8458935e-38
0.94154245 -0.20001544 0.068022102 1.855077e-38
0.94154245 -0.20001544 0.0705221 1.8367099e-38
0.94154245 -0.19751543 0.068022102 1.8458935e-38
0.94154245 -0.19751543 0.0705221 1.8367099e-38
0.93904245 -0.20501544 0.073022105 1.7907922e-38
0.93904245 -0.20251544 0.073022105 1.8183428e-38
0.94154245 -0.20501544 0.075522102 1.754058e-38
0.94154245 -0.20251544 0.075522102 1.754058e-38
0.93904245 -0.20501544 0.0780221 1.7448744e-38
0.93904245 -0.20501544 0.080522105 1.7356909e-38
0.93904245 -0.20251544 0.0780221 1.7632415e-38
0.93904245 -0.20251544 0.080522105 1.7448744e-38
0.94154245 -0.20501544 0.0780221 1.7265073e-38
0.94154245 -0.20251544 0.0780221 1.7448744e-38
0.93904245 -0.20001544 0.073022105 1.8183428e-38
0.93904245 -0.19751543 0.073022105 1.8367099e-38
0.94154245 -0.20001544 0.075522102 1.754058e-38
0.94154245 -0.19751543 0.075522102 1.7632415e-38
0.93904245 -0.20001544 0.0780221 1.7632415e-38
0.93904245 -0.20001544 0.080522105 1.754058e-38
0.94154245 -0.20001544 0.0780221 1.754058e-38
0.94154245 -0.19751543 0.0780221 1.754058e-38
0.94404244 -0.20251544 0.073022105 1.7907922e-38
0.94654244 -0.20251544 0.075522102 1.7632415e-38
0.94404244 -0.20251544 0.080522105 1.7356909e-38
0.94404244 -0.20001544 0.073022105 1.7907922e-38
0.94404244 -0.19751543 0.073022105 1.7907922e-38
0.94654244 -0.20001544 0.075522102 1.7632415e-38
0.94654244 -0.19751543 0.075522102 1.7632415e-38
0.94404244 -0.20001544 0.080522105 1.7265073e-38
0.94404244 -0.19751543 0.080522105 1.754058e-38
0.94654244 -0.20001544 0.0780221 1.7632415e-38
0.94654244 -0.19751543 0.0780221 1.7632415e-38
0.93904245 -0.19501543 0.0705221 1.8367099e-38
0.94154245 -0.19501543 0.068022102 1.8458935e-38
0.94154245 -0.19501543 0.0705221 1.8367099e-38
0.94154245 -0.19251543 0.068022102 1.8458935e-38
0.94154245 -0.19251543 0.0705221 1.8458935e-38
0.94154245 -0.19001544 0.068022102 1.8458935e-38
0.94154245 -0.19001544 0.0705221 1.8367099e-38
0.94154245 -0.18751544 0.068022102 1.8458935e-38
0.94154245 -0.18751544 0.0705221 1.8367099e-38
0.93904245 -0.19501543 0.073022105 1.8091593e-38
0.93904245 -0.19251543 0.073022105 1.8367099e-38
0.94154245 -0.19501543 0.075522102 1.7907922e-38
0.94154245 -0.19251543 0.075522102 1.7816086e-38
0.94154245 -0.19501543 0.0780221 1.7632415e-38
0.94154245 -0.19251543 0.0780221 1.7632415e-38
0.94154245 -0.19001544 0.075522102 1.7816086e-38
0.94154245 -0.18751544 0.075522102 1.7907922e-38
0.94154245 -0.19001544 0.0780221 1.7632415e-38
0.94154245 -0.18751544 0.0780221 1.7632415e-38
0.94404244 -0.19501543 0.073022105 1.8183428e-38
0.94404244 -0.19251543 0.073022105 1.8183428e-38
0.94654244 -0.19501543 0.075522102 1.7816086e-38
0.94654244 -0.19251543 0.075522102 1.7816086e-38
0.94404244 -0.19501543 0.080522105 1.754058e-38
0.94404244 -0.19251543 0.080522105 1.754058e-38
0.94654244 -0.19501543 0.0780221 1.7632415e-38
0.94654244 -0.19251543 0.0780221 1.7632415e-38
0.94404244 -0.19001544 0.073022105 1.8091593e-38
0.94404244 -0.18751544 0.073022105 1.8091593e-38
0.94654244 -0.19001544 0.075522102 1.7632415e-38
0.94654244 -0.18751544 0.075522102 1.7632415e-38
0.94404244 -0.19001544 0.080522105 1.754058e-38
0.94404244 -0.18751544 0.080522105 1.7632415e-38
0.94154245 -0.18501544 0.068022102 1.8642606e-38
0.94154245 -0.18501544 0.0705221 1.8367099e-38
0.94154245 -0.18251543 0.068022102 1.855077e-38
0.94154245 -0.18251543 0.0705221 1.8367099e-38
0.94154245 -0.18001543 0.068022102 1.855077e-38
0.94154245 -0.18001543 0.0705221 1.8367099e-38
0.94404244 -0.18501544 0.068022102 1.855077e-38
0.94404244 -0.18251543 0.068022102 1.855077e-38
0.94404244 -0.18251543 0.0705221 1.8367099e-38
0.94654244 -0.18251543 0.0705221 1.8183428e-38
0.94404244 -0.18001543 0.068022102 1.855077e-38
0.94404244 -0.18001543 0.0705221 1.8367099e-38
0.94404244 -0.17751543 0.068022102 1.8642606e-38
0.94404244 -0.17751543 0.0705221 1.8458935e-38
0.94654244 -0.18001543 0.0705221 1.8183428e-38
0.94654244 -0.17751543 0.0705221 1.8183428e-38
0.94154245 -0.18501544 0.075522102 1.7816086e-38
0.94154245 -0.18251543 0.075522102 1.7907922e-38
0.93904245 -0.18501544 0.080522105 1.7632415e-38
0.93904245 -0.18251543 0.0780221 1.7816086e-38
0.93904245 -0.18251543 0.080522105 1.7632415e-38
0.94154245 -0.18501544 0.0780221 1.7632415e-38
0.94154245 -0.18251543 0.0780221 1.7816086e-38
0.94154245 -0.18001543 0.075522102 1.7816086e-38
0.93904245 -0.18001543 0.0780221 1.7816086e-38
0.93904245 -0.18001543 0.080522105 1.7632415e-38
0.93904245 -0.17751543 0.0780221 1.7816086e-38
0.93904245 -0.17751543 0.080522105 1.7632415e-38
0.94154245 -0.18001543 0.0780221 1.7907922e-38
0.94154245 -0.17751543 0.0780221 1.7816086e-38
0.94404244 -0.18501544 0.073022105 1.8091593e-38
0.94404244 -0.18251543 0.073022105 1.8091593e-38
0.94654244 -0.18501544 0.075522102 1.7632415e-38
0.94404244 -0.18501544 0.080522105 1.7448744e-38
0.94404244 -0.18251543 0.080522105 1.7632415e-38
0.94404244 -0.18001543 0.073022105 1.8091593e-38
0.94404244 -0.17751543 0.073022105 1.8183428e-38
0.94654244 -0.18001543 0.075522102 1.7632415e-38
0.94654244 -0.17751543 0.073022105 1.7816086e-38
0.94654244 -0.17751543 0.075522102 1.7816086e-38
0.94404244 -0.18001543 0.080522105 1.7632415e-38
0.94404244 -0.17751543 0.080522105 1.754058e-38
0.94154245 -0.17501543 0.0705221 1.8367099e-38
0.94154245 -0.17251544 0.068022102 1.9009948e-38
0.94154245 -0.17251544 0.0705221 1.8367099e-38
0.94154245 -0.17001544 0.068022102 1.8734441e-38
0.94154245 -0.17001544 0.0705221 1.8458935e-38
0.94154245 -0.16751543 0.068022102 1.8826277e-38
0.94154245 -0.16751543 0.0705221 1.8458935e-38
0.94404244 -0.17501543 0.068022102 1.8642606e-38
0.94404244 -0.17501543 0.0705221 1.855077e-38
0.94404244 -0.17251544 0.068022102 1.8642606e-38
0.94404244 -0.17251544 0.0705221 1.8367099e-38
0.94654244 -0.17501543 0.0705221 1.8091593e-38
0.94404244 -0.17001544 0.068022102 1.8826277e-38
0.94404244 -0.17001544 0.0705221 1.855077e-38
0.94404244 -0.16751543 0.068022102 1.8734441e-38
0.94404244 -0.16751543 0.0705221 1.855077e-38
0.94654244 -0.17001544 0.0705221 1.8183428e-38
0.94654244 -0.16751543 0.0705221 1.8091593e-38
0.93904245 -0.17501543 0.080522105 1.7632415e-38
0.93904245 -0.17251544 0.080522105 1.7448744e-38
0.94154245 -0.17501543 0.0780221 1.7632415e-38
0.94154245 -0.17251544 0.0780221 1.7632415e-38
0.93904245 -0.17001544 0.080522105 1.7448744e-38
0.94154245 -0.17001544 0.0780221 1.7632415e-38
0.94154245 -0.16751543 0.0780221 1.7632415e-38
0.94404244 -0.17501543 0.073022105 1.8183428e-38
0.94404244 -0.17251544 0.073022105 1.8183428e-38
0.94654244 -0.17501543 0.075522102 1.7816086e-38
0.94654244 -0.17251544 0.075522102 1.7632415e-38
0.94404244 -0.17501543 0.080522105 1.754058e-38
0.94404244 -0.17251544 0.080522105 1.754058e-38
0.94654244 -0.17251544 0.0780221 1.754058e-38
0.94404244 -0.17001544 0.073022105 1.8091593e-38
0.94404244 -0.16751543 0.073022105 1.8091593e-38
0.94654244 -0.17001544 0.073022105 1.7907922e-38
0.94654244 -0.17001544 0.075522102 1.7632415e-38
0.94654244 -0.16751543 0.073022105 1.7816086e-38
0.94654244 -0.16751543 0.075522102 1.7632415e-38
0.94404244 -0.17001544 0.080522105 1.754058e-38
0.94404244 -0.16751543 0.080522105 1.754058e-38
0.94654244 -0.17001544 0.0780221 1.754058e-38
0.94654244 -0.16751543 0.0780221 1.754058e-38
0.94904244 -0.19751543 0.080522105 1.7448744e-38
0.94904244 -0.19501543 0.080522105 1.754058e-38
0.93904245 -0.20501544 0.083022103 1.7265073e-38
0.93904245 -0.20501544 0.0855221 1.7265073e-38
0.93904245 -0.20251544 0.083022103 1.7265073e-38
0.93904245 -0.20251544 0.0855221 1.7265073e-38
0.94154245 -0.20501544 0.083022103 1.7265073e-38
0.94154245 -0.20251544 0.083022103 1.7265073e-38
0.94154245 -0.20501544 0.088022105 1.6897731e-38
0.94154245 -0.20501544 0.090522103 1.6989567e-38
0.94154245 -0.20251544 0.088022105 1.6897731e-38
0.94154245 -0.20251544 0.090522103 1.7081402e-38
0.94154245 -0.20001544 0.083022103 1.7265073e-38
0.94154245 -0.19751543 0.083022103 1.7265073e-38
0.94154245 -0.20001544 0.088022105 1.7265073e-38
0.94154245 -0.20001544 0.090522103 1.7265073e-38
0.94154245 -0.19751543 0.088022105 1.7265073e-38
0.94154245 -0.19751543 0.090522103 1.7265073e-38
0.94404244 -0.20501544 0.0855221 1.6989567e-38
0.94404244 -0.20251544 0.083022103 1.7265073e-38
0.94404244 -0.20251544 0.0855221 1.6897731e-38
0.94654244 -0.20251544 0.083022103 1.7265073e-38
0.94404244 -0.20501544 0.088022105 1.6897731e-38
0.94404244 -0.20501544 0.090522103 1.6530389e-38
0.94404244 -0.20251544 0.088022105 1.7173238e-38
0.94404244 -0.20251544 0.090522103 1.6438554e-38
0.94654244 -0.20501544 0.090522103 1.6346718e-38
0.94404244 -0.20001544 0.083022103 1.7265073e-38
0.94404244 -0.20001544 0.0855221 1.6897731e-38
0.94404244 -0.19751543 0.083022103 1.754058e-38
0.94404244 -0.19751543 0.0855221 1.7265073e-38
0.94654244 -0.20001544 0.083022103 1.7265073e-38
0.94654244 -0.19751543 0.083022103 1.7265073e-38
0.94404244 -0.20001544 0.088022105 1.7081402e-38
0.94404244 -0.20001544 0.090522103 1.6622225e-38
0.94404244 -0.19751543 0.088022105 1.7265073e-38
0.94404244 -0.19751543 0.090522103 1.671406e-38
0.94154245 -0.20251544 0.093022101 1.7632415e-38
0.94154245 -0.20251544 0.095522106 2.0571197e-38
0.94154245 -0.20001544 0.093022101 1.7632415e-38
0.94154245 -0.20001544 0.095522106 1.9836467e-38
0.94154245 -0.19751543 0.093022101 1.754058e-38
0.94154245 -0.19751543 0.095522106 1.9009948e-38
0.94154245 -0.20001544 0.1005221 2.2649891e-38
0.94154245 -0.19751543 0.1005221 2.3454056e-38
0.94404244 -0.20501544 0.093022101 1.7632415e-38
0.94404244 -0.20251544 0.093022101 1.7816086e-38
0.94654244 -0.20501544 0.095522106 2.0115938e-38
0.94654244 -0.20251544 0.095522106 2.0020169e-38
0.94404244 -0.20501544 0.098022103 1.9581851e-38
0.94404244 -0.20251544 0.098022103 1.9836858e-38
0.94654244 -0.20501544 0.098022103 2.0040676e-38
0.94654244 -0.20251544 0.098022103 2.1055186e-38
0.94654244 -0.20251544 0.1005221 2.3500496e-38
0.94404244 -0.20001544 0.093022101 1.7632415e-38
0.94404244 -0.19751543 0.093022101 1.7632415e-38
0.94404244 -0.20001544 0.098022103 1.9652796e-38
0.94404244 -0.20001544 0.1005221 2.3015796e-38
0.94404244 -0.19751543 0.098022103 1.9560961e-38
0.94404244 -0.19751543 0.1005221 2.3478522e-38
0.94654244 -0.20001544 0.1005221 2.3502314e-38
0.94654244 -0.19751543 0.1005221 2.3500507e-38
0.94154245 -0.19501543 0.083022103 1.7632415e-38
0.94154245 -0.19251543 0.083022103 1.7448744e-38
0.94154245 -0.19501543 0.088022105 1.7265073e-38
0.94154245 -0.19501543 0.090522103 1.6989567e-38
0.94154245 -0.19251543 0.088022105 1.7265073e-38
0.94154245 -0.19251543 0.090522103 1.7265073e-38
0.93904245 -0.18751544 0.0855221 1.7265073e-38
0.94154245 -0.19001544 0.083022103 1.7448744e-38
0.94154245 -0.18751544 0.083022103 1.7448744e-38
0.93904245 -0.18751544 0.088022105 1.7265073e-38
0.93904245 -0.18751544 0.090522103 1.7356909e-38
0.94154245 -0.19001544 0.088022105 1.7265073e-38
0.94154245 -0.19001544 0.090522103 1.7265073e-38
0.94154245 -0.18751544 0.088022105 1.754058e-38
0.94154245 -0.18751544 0.090522103 1.7265073e-38
0.94404244 -0.19501543 0.083022103 1.754058e-38
0.94404244 -0.19501543 0.0855221 1.7265073e-38
0.94404244 -0.19251543 0.083022103 1.754058e-38
0.94404244 -0.19251543 0.0855221 1.7265073e-38
0.94654244 -0.19501543 0.083022103 1.7356909e-38
0.94654244 -0.19251543 0.083022103 1.7356909e-38
0.94404244 -0.19501543 0.088022105 1.7081402e-38
0.94404244 -0.19501543 0.090522103 1.6622225e-38
0.94404244 -0.19251543 0.088022105 1.6989567e-38
0.94404244 -0.19251543 0.090522103 1.6622225e-38
0.94654244 -0.19251543 0.090522103 1.7081402e-38
0.94404244 -0.19001544 0.083022103 1.754058e-38
0.94404244 -0.19001544 0.0855221 1.7448744e-38
0.94404244 -0.18751544 0.083022103 1.754058e-38
0.94404244 -0.18751544 0.0855221 1.754058e-38
0.94654244 -0.19001544 0.083022103 1.754058e-38
0.94404244 -0.19001544 0.088022105 1.7265073e-38
0.94404244 -0.19001544 0.090522103 1.7173238e-38
0.94404244 -0.18751544 0.090522103 1.7265073e-38
0.94654244 -0.19001544 0.090522103 1.7173238e-38
0.93904245 -0.19501543 0.095522106 1.9009948e-38
0.93904245 -0.19251543 0.095522106 1.855077e-38
0.94154245 -0.19501543 0.093022101 1.754058e-38
0.94154245 -0.19501543 0.095522106 1.8826277e-38
0.94154245 -0.19251543 0.093022101 1.754058e-38
0.94154245 -0.19251543 0.095522106 1.8458935e-38
0.94154245 -0.19501543 0.098022103 1.9193619e-38
0.94154245 -0.19501543 0.1005221 2.2623941e-38
0.94154245 -0.19251543 0.098022103 1.937729e-38
0.94154245 -0.19251543 0.1005221 2.2427688e-38
0.94154245 -0.19001544 0.095522106 1.7999757e-38
