# .PCD v0.7 - Point Cloud Data file format
VERSION 0.7
FIELDS x y z rgb
SIZE 4 4 4 4
TYPE F F F F
COUNT 1 1 1 1
WIDTH 986
HEIGHT 1
VIEWPOINT 0 0 0 1 0 0 0
POINTS 986
DATA ascii
0.94364768 -0.18033455 0.067880452 1.8458935e-38
0.94364768 -0.18033455 0.070380449 1.8367099e-38
0.94364768 -0.17783456 0.067880452 1.8367099e-38
0.94364768 -0.17783456 0.070380449 1.8367099e-38
0.94614768 -0.18033455 0.070380449 1.8367099e-38
0.94614768 -0.17783456 0.070380449 1.8183428e-38
0.94364768 -0.18533456 0.072880454 1.7907922e-38
0.94364768 -0.18283455 0.072880454 1.7907922e-38
0.94614768 -0.18533456 0.075380452 1.7632415e-38
0.94364768 -0.18533456 0.07788045 1.7448744e-38
0.94364768 -0.18533456 0.080380455 1.754058e-38
0.94364768 -0.18283455 0.07788045 1.7448744e-38
0.94364768 -0.18283455 0.080380455 1.754058e-38
0.94614768 -0.18533456 0.07788045 1.754058e-38
0.94614768 -0.18283455 0.07788045 1.7632415e-38
0.94364768 -0.18033455 0.072880454 1.7907922e-38
0.94364768 -0.17783456 0.072880454 1.7907922e-38
0.94364768 -0.18033455 0.07788045 1.754058e-38
0.94364768 -0.18033455 0.080380455 1.7632415e-38
0.94364768 -0.17783456 0.07788045 1.7816086e-38
0.94364768 -0.17783456 0.080380455 1.7632415e-38
0.94864768 -0.18533456 0.080380455 1.7632415e-38
0.94864768 -0.18283455 0.080380455 1.7816086e-38
0.94364768 -0.17533456 0.067880452 1.8367099e-38
0.94364768 -0.17533456 0.070380449 1.8183428e-38
0.94364768 -0.17283456 0.067880452 1.8367099e-38
0.94364768 -0.17283456 0.070380449 1.8183428e-38
0.94614768 -0.17283456 0.070380449 1.8367099e-38
0.94364768 -0.17033456 0.067880452 1.8367099e-38
0.94364768 -0.17033456 0.070380449 1.8183428e-38
0.94364768 -0.16783455 0.067880452 1.8367099e-38
0.94364768 -0.16783455 0.070380449 1.8183428e-38
0.94364768 -0.17533456 0.072880454 1.7907922e-38
0.94364768 -0.17283456 0.072880454 1.7907922e-38
0.94614768 -0.17283456 0.075380452 1.7632415e-38
0.94364768 -0.17533456 0.07788045 1.754058e-38
0.94364768 -0.17533456 0.080380455 1.7448744e-38
0.94364768 -0.17283456 0.07788045 1.754058e-38
0.94364768 -0.17283456 0.080380455 1.7448744e-38
0.94364768 -0.17033456 0.072880454 1.7907922e-38
0.94364768 -0.16783455 0.072880454 1.7907922e-38
0.94364768 -0.17033456 0.07788045 1.754058e-38
0.94364768 -0.17033456 0.080380455 1.7448744e-38
0.94364768 -0.16783455 0.07788045 1.7448744e-38
0.94364768 -0.16783455 0.080380455 1.7448744e-38
0.94364768 -0.18533456 0.082880452 1.7448744e-38
0.94364768 -0.18533456 0.08538045 1.7265073e-38
0.94364768 -0.18283455 0.082880452 1.7448744e-38
0.94364768 -0.18283455 0.08538045 1.7265073e-38
0.94614768 -0.18533456 0.082880452 1.7448744e-38
0.94614768 -0.18283455 0.082880452 1.7448744e-38
0.94364768 -0.18533456 0.087880455 1.7265073e-38
0.94364768 -0.18533456 0.090380453 1.7448744e-38
0.94364768 -0.18283455 0.087880455 1.7081402e-38
0.94364768 -0.18283455 0.090380453 1.7265073e-38
0.94614768 -0.18533456 0.090380453 1.7081402e-38
0.94614768 -0.18283455 0.090380453 1.6989567e-38
0.94364768 -0.18033455 0.082880452 1.754058e-38
0.94364768 -0.18033455 0.08538045 1.7265073e-38
0.94364768 -0.17783456 0.082880452 1.7448744e-38
0.94364768 -0.17783456 0.08538045 1.7356909e-38
0.94614768 -0.18033455 0.082880452 1.7448744e-38
0.94614768 -0.18033455 0.08538045 1.754058e-38
0.94614768 -0.17783456 0.082880452 1.7448744e-38
0.94614768 -0.17783456 0.08538045 1.7265073e-38
0.94364768 -0.18033455 0.087880455 1.7265073e-38
0.94364768 -0.18033455 0.090380453 1.7265073e-38
0.94364768 -0.17783456 0.087880455 1.7265073e-38
0.94364768 -0.17783456 0.090380453 1.7265073e-38
0.94614768 -0.18033455 0.090380453 1.6805896e-38
0.94614768 -0.17783456 0.090380453 1.7265073e-38
0.94864768 -0.18033455 0.090380453 1.7265073e-38
0.94864768 -0.17783456 0.087880455 1.7265073e-38
0.94864768 -0.17783456 0.090380453 1.7265073e-38
0.95114768 -0.18033455 0.090380453 1.6989567e-38
0.95114768 -0.17783456 0.090380453 1.6989567e-38
0.94364768 -0.18533456 0.09288045 1.754058e-38
0.94364768 -0.18283455 0.09288045 1.7356909e-38
0.94614768 -0.18533456 0.09288045 1.7448744e-38
0.94614768 -0.18283455 0.09288045 1.7448744e-38
0.94614768 -0.18283455 0.095380455 1.9193619e-38
0.94364768 -0.18533456 0.097880453 1.9009948e-38
0.94364768 -0.18533456 0.10038045 2.3368003e-38
0.94364768 -0.18283455 0.097880453 1.8826277e-38
0.94364768 -0.18283455 0.10038045 2.2074708e-38
0.94614768 -0.18283455 0.097880453 2.204773e-38
0.94614768 -0.18283455 0.10038045 2.2074339e-38
0.94364768 -0.18033455 0.09288045 1.7265073e-38
0.94364768 -0.17783456 0.09288045 1.754058e-38
0.94614768 -0.18033455 0.09288045 1.7448744e-38
0.94614768 -0.18033455 0.095380455 1.9101783e-38
0.94614768 -0.17783456 0.09288045 1.7173238e-38
0.94614768 -0.17783456 0.095380455 1.8826277e-38
0.94364768 -0.18033455 0.097880453 1.9009948e-38
0.94364768 -0.17783456 0.097880453 1.8826277e-38
0.94614768 -0.18033455 0.097880453 2.0846658e-38
0.94614768 -0.17783456 0.097880453 2.1489519e-38
0.94864768 -0.18283455 0.09288045 1.754058e-38
0.94864768 -0.18283455 0.095380455 1.9101783e-38
0.94864768 -0.18033455 0.09288045 1.7081402e-38
0.94864768 -0.18033455 0.095380455 1.8734441e-38
0.94864768 -0.17783456 0.09288045 1.6989567e-38
0.94864768 -0.17783456 0.095380455 2.139768e-38
0.95114768 -0.18033455 0.09288045 1.8734441e-38
0.95114768 -0.17783456 0.09288045 1.8734441e-38
0.94364768 -0.17533456 0.082880452 1.7265073e-38
0.94364768 -0.17533456 0.08538045 1.754058e-38
0.94364768 -0.17283456 0.082880452 1.7265073e-38
0.94364768 -0.17283456 0.08538045 1.7448744e-38
0.94614768 -0.17533456 0.082880452 1.7265073e-38
0.94614768 -0.17533456 0.08538045 1.7265073e-38
0.94614768 -0.17283456 0.082880452 1.7265073e-38
0.94614768 -0.17283456 0.08538045 1.7081402e-38
0.94364768 -0.17533456 0.087880455 1.7265073e-38
0.94364768 -0.17533456 0.090380453 1.7448744e-38
0.94364768 -0.17283456 0.087880455 1.7265073e-38
0.94364768 -0.17283456 0.090380453 1.7265073e-38
0.94614768 -0.17533456 0.090380453 1.7356909e-38
0.94614768 -0.17283456 0.090380453 1.7265073e-38
0.94364768 -0.17033456 0.082880452 1.7265073e-38
0.94364768 -0.17033456 0.08538045 1.7448744e-38
0.94364768 -0.16783455 0.082880452 1.7448744e-38
0.94364768 -0.16783455 0.08538045 1.7265073e-38
0.94614768 -0.17033456 0.082880452 1.7265073e-38
0.94614768 -0.17033456 0.08538045 1.7081402e-38
0.94614768 -0.16783455 0.082880452 1.7265073e-38
0.94614768 -0.16783455 0.08538045 1.7265073e-38
0.94364768 -0.17033456 0.087880455 1.7265073e-38
0.94364768 -0.17033456 0.090380453 1.7265073e-38
0.94364768 -0.16783455 0.087880455 1.7448744e-38
0.94364768 -0.16783455 0.090380453 1.7265073e-38
0.94614768 -0.17033456 0.090380453 1.7448744e-38
0.94614768 -0.16783455 0.090380453 1.7265073e-38
0.94864768 -0.17533456 0.087880455 1.7265073e-38
0.94864768 -0.17533456 0.090380453 1.7081402e-38
0.94864768 -0.17283456 0.087880455 1.7173238e-38
0.94864768 -0.17283456 0.090380453 1.7265073e-38
0.95114768 -0.17533456 0.090380453 1.6897731e-38
0.95114768 -0.17283456 0.090380453 1.6805896e-38
0.94864768 -0.17033456 0.087880455 1.7265073e-38
0.94864768 -0.17033456 0.090380453 1.7265073e-38
0.94864768 -0.16783455 0.087880455 1.7081402e-38
0.94864768 -0.16783455 0.090380453 1.7081402e-38
0.95114768 -0.17033456 0.090380453 1.6897731e-38
0.95114768 -0.16783455 0.090380453 1.6805896e-38
0.94364768 -0.17283456 0.09288045 1.754058e-38
0.94614768 -0.17533456 0.095380455 1.8734441e-38
0.94614768 -0.17283456 0.09288045 1.6989567e-38
0.94614768 -0.17283456 0.095380455 1.8734441e-38
0.94364768 -0.17533456 0.097880453 1.8734441e-38
0.94364768 -0.17283456 0.097880453 1.8734441e-38
0.94614768 -0.17533456 0.097880453 2.10343e-38
0.94614768 -0.17283456 0.097880453 2.1591068e-38
0.94364768 -0.17033456 0.09288045 1.7448744e-38
0.94364768 -0.16783455 0.09288045 1.7265073e-38
0.94614768 -0.17033456 0.09288045 1.6989567e-38
0.94614768 -0.17033456 0.095380455 1.8458935e-38
0.94614768 -0.16783455 0.09288045 1.6989567e-38
0.94614768 -0.16783455 0.095380455 1.8458935e-38
0.94614768 -0.17033456 0.097880453 2.1869097e-38
0.94614768 -0.16783455 0.097880453 2.1685081e-38
0.94864768 -0.17533456 0.09288045 1.6989567e-38
0.94864768 -0.17533456 0.095380455 1.855077e-38
0.94864768 -0.17283456 0.09288045 1.6989567e-38
0.94864768 -0.17283456 0.095380455 1.8367099e-38
0.95114768 -0.17283456 0.09288045 1.855077e-38
0.95114768 -0.17533456 0.097880453 2.0228663e-38
0.95114768 -0.17283456 0.097880453 2.0137498e-38
0.94864768 -0.17033456 0.09288045 1.6989567e-38
0.94864768 -0.17033456 0.095380455 1.8458935e-38
0.94864768 -0.16783455 0.09288045 1.6897731e-38
0.94864768 -0.16783455 0.095380455 1.8367099e-38
0.95114768 -0.17033456 0.09288045 1.8367099e-38
0.95114768 -0.16783455 0.09288045 1.8367099e-38
0.95364767 -0.17783456 0.095380455 2.0597057e-38
0.95364767 -0.17533456 0.095380455 2.0227921e-38
0.95364767 -0.17283456 0.095380455 2.0047108e-38
0.95364767 -0.17033456 0.095380455 2.1774383e-38
0.95364767 -0.16783455 0.095380455 2.1777277e-38
0.95614767 -0.17033456 0.095380455 2.0132171e-38
0.95614767 -0.16783455 0.095380455 1.9025823e-38
0.93614769 -0.16283455 0.067880452 1.8918112e-38
0.93614769 -0.16283455 0.070380449 1.8826277e-38
0.93614769 -0.16033456 0.067880452 1.937729e-38
0.93614769 -0.16033456 0.070380449 1.8918112e-38
0.93614769 -0.15783456 0.067880452 1.9193624e-38
0.93614769 -0.15783456 0.070380449 1.8458935e-38
0.93864769 -0.16283455 0.070380449 1.855077e-38
0.94114769 -0.16533455 0.067880452 1.8826277e-38
0.94114769 -0.16533455 0.070380449 1.8458935e-38
0.94114769 -0.16283455 0.067880452 1.8642606e-38
0.94114769 -0.16283455 0.070380449 1.855077e-38
0.93864769 -0.16033456 0.070380449 1.855077e-38
0.93864769 -0.15783456 0.070380449 1.8367099e-38
0.94114769 -0.16033456 0.067880452 1.8458935e-38
0.94114769 -0.16033456 0.070380449 1.8458935e-38
0.94114769 -0.15783456 0.067880452 1.8183428e-38
0.94114769 -0.15783456 0.070380449 1.8275264e-38
0.93864769 -0.16533455 0.072880454 1.8458935e-38
0.93864769 -0.16533455 0.075380452 1.8183428e-38
0.93864769 -0.16283455 0.072880454 1.8458935e-38
0.93864769 -0.16283455 0.075380452 1.8183428e-38
0.94114769 -0.16533455 0.075380452 1.7816086e-38
0.94114769 -0.16283455 0.075380452 1.7907922e-38
0.94114769 -0.16533455 0.07788045 1.7632415e-38
0.94114769 -0.16283455 0.07788045 1.7632415e-38
0.93864769 -0.16033456 0.072880454 1.8275264e-38
0.93864769 -0.16033456 0.075380452 1.8183428e-38
0.93864769 -0.15783456 0.075380452 1.8183428e-38
0.94114769 -0.16033456 0.075380452 1.7907922e-38
0.94114769 -0.15783456 0.075380452 1.7907922e-38
0.94114769 -0.16033456 0.07788045 1.7632415e-38
0.94114769 -0.15783456 0.07788045 1.7816086e-38
0.93364769 -0.15533456 0.067880452 1.9469176e-38
0.93364769 -0.15533456 0.070380449 1.9469149e-38
0.93364769 -0.15283456 0.067880452 1.9561013e-38
0.93364769 -0.15283456 0.070380449 1.9469149e-38
0.93614769 -0.15533456 0.067880452 1.9469125e-38
0.93614769 -0.15283456 0.067880452 1.9193619e-38
0.93364769 -0.15033455 0.067880452 1.9377669e-38
0.93614769 -0.15033455 0.067880452 1.8918142e-38
0.94114769 -0.15533456 0.067880452 1.855077e-38
0.94114769 -0.15533456 0.070380449 1.8275264e-38
0.94114769 -0.15283456 0.067880452 1.8458935e-38
0.94114769 -0.15283456 0.070380449 1.8275264e-38
0.94114769 -0.15033455 0.067880452 1.8183428e-38
0.94114769 -0.15033455 0.070380449 1.8091593e-38
0.93864769 -0.15533456 0.075380452 1.8183428e-38
0.94114769 -0.15533456 0.075380452 1.7907922e-38
0.94114769 -0.15533456 0.07788045 1.7816086e-38
0.94114769 -0.16533455 0.082880452 1.7265073e-38
0.94114769 -0.16533455 0.08538045 1.7265073e-38
0.94114769 -0.16283455 0.082880452 1.7448744e-38
0.94114769 -0.16533455 0.087880455 1.6897731e-38
0.94114769 -0.16533455 0.090380453 1.7265073e-38
0.94114769 -0.16033456 0.10038045 2.1768648e-38
0.94114769 -0.15783456 0.097880453 1.8091593e-38
0.94114769 -0.15783456 0.10038045 2.0938528e-38
0.93614769 -0.15533456 0.10038045 1.7632415e-38
0.94114769 -0.15533456 0.09288045 1.7265073e-38
0.94114769 -0.15533456 0.095380455 1.6622225e-38
0.94114769 -0.15283456 0.09288045 1.7265073e-38
0.94114769 -0.15283456 0.095380455 1.6897731e-38
0.93864769 -0.15533456 0.10038045 2.176683e-38
0.94114769 -0.15533456 0.097880453 1.7632415e-38
0.94114769 -0.15533456 0.10038045 2.0295646e-38
0.94114769 -0.15283456 0.10038045 1.9469125e-38
0.94114769 -0.13033456 0.067880452 1.8183432e-38
0.94114769 -0.13033456 0.070380449 1.8091607e-38
0.94114769 -0.12783456 0.087880455 1.6438554e-38
0.94114769 -0.12783456 0.090380453 1.6346718e-38
0.94364768 -0.16533455 0.070380449 1.8367099e-38
0.94364768 -0.16283455 0.070380449 1.8275264e-38
0.94364768 -0.16033456 0.070380449 1.8183428e-38
0.94364768 -0.15783456 0.070380449 1.8183428e-38
0.94364768 -0.16533455 0.072880454 1.7907922e-38
0.94364768 -0.16283455 0.072880454 1.7907922e-38
0.94614768 -0.16533455 0.075380452 1.7816086e-38
0.94614768 -0.16283455 0.075380452 1.7632415e-38
0.94364768 -0.16533455 0.07788045 1.754058e-38
0.94364768 -0.16533455 0.080380455 1.7448744e-38
0.94364768 -0.16283455 0.07788045 1.754058e-38
0.94364768 -0.16283455 0.080380455 1.7448744e-38
0.94614768 -0.16283455 0.07788045 1.7448744e-38
0.94364768 -0.16033456 0.072880454 1.7907922e-38
0.94364768 -0.15783456 0.072880454 1.7907922e-38
0.94614768 -0.16033456 0.075380452 1.7632415e-38
0.94614768 -0.15783456 0.075380452 1.7632415e-38
0.94364768 -0.16033456 0.07788045 1.754058e-38
0.94364768 -0.16033456 0.080380455 1.7448744e-38
0.94364768 -0.15783456 0.07788045 1.7632415e-38
0.94364768 -0.15783456 0.080380455 1.754058e-38
0.94614768 -0.16033456 0.07788045 1.7448744e-38
0.94614768 -0.15783456 0.07788045 1.754058e-38
0.94864768 -0.16033456 0.080380455 1.7448744e-38
0.94864768 -0.15783456 0.080380455 1.7265073e-38
0.94364768 -0.15533456 0.070380449 1.8183428e-38
0.94364768 -0.15283456 0.070380449 1.8183428e-38
0.94614768 -0.15533456 0.070380449 1.8183428e-38
0.94614768 -0.15283456 0.070380449 1.8183428e-38
0.94364768 -0.15033455 0.067880452 1.8275264e-38
0.94364768 -0.15033455 0.070380449 1.8183428e-38
0.94614768 -0.15033455 0.070380449 1.8091593e-38
0.94614768 -0.14783455 0.070380449 1.7907922e-38
0.94864768 -0.15033455 0.067880452 1.7999757e-38
0.94864768 -0.15033455 0.070380449 1.7907922e-38
0.94864768 -0.14783455 0.067880452 1.7907922e-38
0.94864768 -0.14783455 0.070380449 1.7907922e-38
0.94364768 -0.15533456 0.072880454 1.7907922e-38
0.94364768 -0.15283456 0.072880454 1.7907922e-38
0.94614768 -0.15533456 0.075380452 1.7632415e-38
0.94614768 -0.15283456 0.072880454 1.7907922e-38
0.94614768 -0.15283456 0.075380452 1.7816086e-38
0.94364768 -0.15533456 0.07788045 1.7632415e-38
0.94364768 -0.15533456 0.080380455 1.7448744e-38
0.94364768 -0.15283456 0.080380455 1.7448744e-38
0.94614768 -0.15533456 0.07788045 1.7448744e-38
0.94614768 -0.15283456 0.07788045 1.7632415e-38
0.94364768 -0.15033455 0.072880454 1.7999757e-38
0.94614768 -0.15033455 0.072880454 1.7816086e-38
0.94614768 -0.15033455 0.075380452 1.7816086e-38
0.94614768 -0.14783455 0.072880454 1.7907922e-38
0.94614768 -0.15033455 0.07788045 1.7448744e-38
0.94614768 -0.14783455 0.07788045 1.7448744e-38
0.94864768 -0.15533456 0.075380452 1.7632415e-38
0.94864768 -0.15283456 0.075380452 1.7632415e-38
0.94864768 -0.15533456 0.080380455 1.7265073e-38
0.94864768 -0.15283456 0.080380455 1.7265073e-38
0.95114768 -0.15283456 0.07788045 1.7448744e-38
0.94864768 -0.15033455 0.075380452 1.7632415e-38
0.94864768 -0.14783455 0.075380452 1.7632415e-38
0.95114768 -0.15033455 0.072880454 1.7816086e-38
0.95114768 -0.15033455 0.075380452 1.7448744e-38
0.95114768 -0.14783455 0.072880454 1.7816086e-38
0.95114768 -0.14783455 0.075380452 1.7448744e-38
0.94864768 -0.15033455 0.080380455 1.7265073e-38
0.94864768 -0.14783455 0.080380455 1.7265073e-38
0.95114768 -0.15033455 0.07788045 1.7265073e-38
0.95114768 -0.14783455 0.07788045 1.754058e-38
0.94364768 -0.16533455 0.082880452 1.7448744e-38
0.94364768 -0.16533455 0.08538045 1.6989567e-38
0.94364768 -0.16283455 0.082880452 1.7448744e-38
0.94364768 -0.16283455 0.08538045 1.7448744e-38
0.94614768 -0.16533455 0.082880452 1.7265073e-38
0.94614768 -0.16533455 0.08538045 1.7265073e-38
0.94614768 -0.16283455 0.082880452 1.7265073e-38
0.94614768 -0.16283455 0.08538045 1.7265073e-38
0.94364768 -0.16533455 0.087880455 1.7265073e-38
0.94364768 -0.16533455 0.090380453 1.7265073e-38
0.94364768 -0.16283455 0.087880455 1.7265073e-38
0.94364768 -0.16283455 0.090380453 1.7265073e-38
0.94614768 -0.16533455 0.090380453 1.7081402e-38
0.94614768 -0.16283455 0.090380453 1.7081402e-38
0.94364768 -0.16033456 0.082880452 1.7265073e-38
0.94364768 -0.16033456 0.08538045 1.754058e-38
0.94364768 -0.15783456 0.082880452 1.7448744e-38
0.94364768 -0.15783456 0.08538045 1.7265073e-38
0.94614768 -0.16033456 0.082880452 1.7265073e-38
0.94614768 -0.16033456 0.08538045 1.7265073e-38
0.94614768 -0.15783456 0.082880452 1.7265073e-38
0.94614768 -0.15783456 0.08538045 1.7081402e-38
0.94364768 -0.16033456 0.087880455 1.7265073e-38
0.94364768 -0.16033456 0.090380453 1.7265073e-38
0.94364768 -0.15783456 0.087880455 1.7265073e-38
0.94364768 -0.15783456 0.090380453 1.7265073e-38
0.94614768 -0.16033456 0.090380453 1.6989567e-38
0.94614768 -0.15783456 0.090380453 1.6805896e-38
0.94864768 -0.16533455 0.087880455 1.6989567e-38
0.94864768 -0.16533455 0.090380453 1.7081402e-38
0.94864768 -0.16283455 0.087880455 1.7081402e-38
0.94864768 -0.16283455 0.090380453 1.7081402e-38
0.95114768 -0.16533455 0.090380453 1.6897731e-38
0.95114768 -0.16283455 0.090380453 1.6897731e-38
0.94864768 -0.15783456 0.082880452 1.7265073e-38
0.94864768 -0.16033456 0.087880455 1.7081402e-38
0.94864768 -0.15783456 0.087880455 1.6989567e-38
0.94364768 -0.16533455 0.09288045 1.7265073e-38
0.94364768 -0.16283455 0.09288045 1.7265073e-38
0.94614768 -0.16533455 0.09288045 1.6989567e-38
0.94614768 -0.16533455 0.095380455 1.8183428e-38
0.94614768 -0.16283455 0.09288045 1.6989567e-38
0.94614768 -0.16283455 0.095380455 1.8367099e-38
0.94614768 -0.16533455 0.097880453 2.1588592e-38
0.94614768 -0.16283455 0.097880453 2.1588219e-38
0.94364768 -0.16033456 0.09288045 1.6897731e-38
0.94364768 -0.15783456 0.09288045 1.698957e-38
0.94614768 -0.16033456 0.09288045 1.6438554e-38
0.94614768 -0.16033456 0.095380455 1.7907922e-38
0.94614768 -0.15783456 0.09288045 1.6805896e-38
0.94614768 -0.15783456 0.095380455 1.7632415e-38
0.94364768 -0.16033456 0.097880453 2.0667689e-38
0.94364768 -0.16033456 0.10038045 1.9298074e-38
0.94364768 -0.15783456 0.097880453 2.0667689e-38
0.94364768 -0.15783456 0.10038045 1.939027e-38
0.94614768 -0.16033456 0.097880453 2.1590718e-38
0.94614768 -0.16033456 0.10038045 1.9298425e-38
0.94614768 -0.15783456 0.097880453 2.1491317e-38
0.94614768 -0.15783456 0.10038045 1.939062e-38
0.94864768 -0.16533455 0.09288045 1.6805896e-38
0.94864768 -0.16533455 0.095380455 2.1956656e-38
0.94864768 -0.16283455 0.09288045 1.6897731e-38
0.94864768 -0.16283455 0.095380455 1.8091593e-38
0.95114768 -0.16533455 0.09288045 1.8091593e-38
0.95114768 -0.16533455 0.097880453 2.0128208e-38
0.95114768 -0.16283455 0.097880453 1.9206251e-38
0.94864768 -0.16033456 0.09288045 1.6897731e-38
0.94864768 -0.15783456 0.09288045 1.6622225e-38
0.94864768 -0.15783456 0.095380455 1.7907922e-38
0.94864768 -0.16033456 0.097880453 1.9576456e-38
0.94364768 -0.15533456 0.082880452 1.754058e-38
0.94364768 -0.15283456 0.082880452 1.7448744e-38
0.94614768 -0.15533456 0.082880452 1.7265073e-38
0.94614768 -0.15533456 0.08538045 1.7081402e-38
0.94614768 -0.15283456 0.082880452 1.7265073e-38
0.94614768 -0.15283456 0.08538045 1.7448744e-38
0.94364768 -0.15533456 0.087880455 1.7081402e-38
0.94364768 -0.15533456 0.090380453 1.7081402e-38
0.94364768 -0.15283456 0.087880455 1.6989567e-38
0.94364768 -0.15283456 0.090380453 1.7265073e-38
0.94614768 -0.15533456 0.090380453 1.6897731e-38
0.94614768 -0.15283456 0.090380453 1.6897731e-38
0.94364768 -0.15033455 0.082880452 1.7448744e-38
0.94364768 -0.14783455 0.082880452 1.7448744e-38
0.94614768 -0.15033455 0.082880452 1.7081402e-38
0.94614768 -0.15033455 0.08538045 1.7081402e-38
0.94614768 -0.14783455 0.082880452 1.7081402e-38
0.94614768 -0.14783455 0.08538045 1.6989567e-38
0.94614768 -0.15033455 0.090380453 1.6989567e-38
0.94614768 -0.14783455 0.090380453 1.7081402e-38
0.94864768 -0.15533456 0.082880452 1.7265073e-38
0.94864768 -0.15283456 0.082880452 1.7265073e-38
0.95114768 -0.15533456 0.082880452 1.7081402e-38
0.95114768 -0.15283456 0.082880452 1.6989567e-38
0.94864768 -0.15533456 0.087880455 1.6989567e-38
0.94864768 -0.15283456 0.087880455 1.6989567e-38
0.94864768 -0.15033455 0.082880452 1.7081402e-38
0.94864768 -0.14783455 0.082880452 1.7081402e-38
0.95114768 -0.15033455 0.082880452 1.7081402e-38
0.95114768 -0.15033455 0.08538045 1.6897731e-38
0.95114768 -0.14783455 0.082880452 1.6989567e-38
0.95114768 -0.14783455 0.08538045 1.7081402e-38
0.94864768 -0.15033455 0.087880455 1.6897731e-38
0.94864768 -0.15033455 0.090380453 1.7265073e-38
0.94864768 -0.14783455 0.087880455 1.6897731e-38
0.94864768 -0.14783455 0.090380453 1.7081402e-38
0.95114768 -0.15033455 0.090380453 1.6989567e-38
0.95114768 -0.14783455 0.090380453 1.6989567e-38
0.94364768 -0.15533456 0.09288045 1.6897731e-38
0.94364768 -0.15283456 0.09288045 1.7081402e-38
0.94614768 -0.15533456 0.09288045 1.6622225e-38
0.94614768 -0.15533456 0.095380455 1.7632415e-38
0.94614768 -0.15283456 0.09288045 1.6622225e-38
0.94614768 -0.15283456 0.095380455 1.754058e-38
0.94364768 -0.15533456 0.097880453 2.0020138e-38
0.94364768 -0.15533456 0.10038045 2.0121355e-38
0.94364768 -0.15283456 0.097880453 1.9193619e-38
0.94364768 -0.15283456 0.10038045 2.1953389e-38
0.94614768 -0.15533456 0.097880453 1.9836467e-38
0.94614768 -0.15533456 0.10038045 2.0029859e-38
0.94614768 -0.15283456 0.097880453 1.9009948e-38
0.94614768 -0.15283456 0.10038045 2.1033596e-38
0.94364768 -0.15033455 0.09288045 1.7081402e-38
0.94614768 -0.15033455 0.09288045 1.6989567e-38
0.94614768 -0.15033455 0.095380455 1.7448744e-38
0.94614768 -0.14783455 0.095380455 1.754058e-38
0.94364768 -0.15033455 0.097880453 1.754058e-38
0.94614768 -0.15033455 0.097880453 1.8734441e-38
0.94614768 -0.14783455 0.097880453 1.8458935e-38
0.94864768 -0.15533456 0.09288045 1.6622225e-38
0.94864768 -0.15533456 0.095380455 1.7816086e-38
0.94864768 -0.15283456 0.09288045 1.6622225e-38
0.94864768 -0.15283456 0.095380455 1.7632415e-38
0.94864768 -0.15283456 0.097880453 2.0665174e-38
0.94864768 -0.15033455 0.09288045 1.6897731e-38
0.94864768 -0.15033455 0.095380455 1.754058e-38
0.94864768 -0.14783455 0.09288045 1.6989567e-38
0.94864768 -0.14783455 0.095380455 1.754058e-38
0.95114768 -0.15033455 0.09288045 1.7448744e-38
0.95114768 -0.14783455 0.09288045 1.754058e-38
0.94864768 -0.15033455 0.097880453 2.1214018e-38
0.95364767 -0.16533455 0.095380455 2.1041511e-38
0.95364767 -0.16283455 0.095380455 1.9114759e-38
0.95614767 -0.16533455 0.095380455 1.9299886e-38
0.95864767 -0.16533455 0.09288045 1.9393138e-38
0.95864767 -0.16283455 0.09288045 1.9853031e-38
0.95364767 -0.15033455 0.095380455 1.8734441e-38
0.95364767 -0.14783455 0.095380455 1.7999757e-38
0.94614768 -0.13783456 0.070380449 1.7999757e-38
0.94864768 -0.14533456 0.067880452 1.7999757e-38
0.94864768 -0.14533456 0.070380449 1.7907922e-38
0.94864768 -0.14283456 0.067880452 1.8183428e-38
0.94864768 -0.14283456 0.070380449 1.7907922e-38
0.95114768 -0.14533456 0.067880452 1.7907922e-38
0.95114768 -0.14283456 0.067880452 1.7999757e-38
0.94864768 -0.14033456 0.067880452 1.8183428e-38
0.94864768 -0.14033456 0.070380449 1.8183428e-38
0.94864768 -0.13783456 0.067880452 1.7999757e-38
0.94864768 -0.13783456 0.070380449 1.7907922e-38
0.95114768 -0.14033456 0.067880452 1.7907922e-38
0.94364768 -0.14283456 0.072880454 1.7907922e-38
0.94614768 -0.14283456 0.075380452 1.7907922e-38
0.94614768 -0.14533456 0.07788045 1.7448744e-38
0.94614768 -0.14283456 0.07788045 1.7448744e-38
0.94364768 -0.14033456 0.072880454 1.7907922e-38
0.94614768 -0.14033456 0.075380452 1.7907922e-38
0.94614768 -0.13783456 0.072880454 1.7999757e-38
0.94614768 -0.14033456 0.07788045 1.7632415e-38
0.94614768 -0.13783456 0.07788045 1.754058e-38
0.94864768 -0.14533456 0.075380452 1.754058e-38
0.94864768 -0.14283456 0.075380452 1.754058e-38
0.95114768 -0.14533456 0.072880454 1.7816086e-38
0.95114768 -0.14533456 0.075380452 1.754058e-38
0.95114768 -0.14283456 0.072880454 1.7816086e-38
0.95114768 -0.14283456 0.075380452 1.7632415e-38
0.94864768 -0.14533456 0.080380455 1.7265073e-38
0.94864768 -0.14283456 0.080380455 1.7265073e-38
0.95114768 -0.14533456 0.07788045 1.7448744e-38
0.95114768 -0.14283456 0.07788045 1.7448744e-38
0.95114768 -0.14283456 0.080380455 1.6989567e-38
0.94864768 -0.14033456 0.075380452 1.7632415e-38
0.94864768 -0.13783456 0.075380452 1.7632415e-38
0.95114768 -0.14033456 0.072880454 1.7907922e-38
0.95114768 -0.14033456 0.075380452 1.7632415e-38
0.95114768 -0.13783456 0.072880454 1.7632415e-38
0.95114768 -0.13783456 0.075380452 1.754058e-38
0.94864768 -0.14033456 0.080380455 1.7265073e-38
0.94864768 -0.13783456 0.080380455 1.7265073e-38
0.95114768 -0.14033456 0.07788045 1.754058e-38
0.95114768 -0.14033456 0.080380455 1.6897731e-38
0.95114768 -0.13783456 0.07788045 1.754058e-38
0.95114768 -0.13783456 0.080380455 1.6897731e-38
0.94614768 -0.13533455 0.070380449 1.7999757e-38
0.94614768 -0.13283455 0.070380449 1.7907922e-38
0.94364768 -0.13033456 0.067880452 1.7540613e-38
0.94364768 -0.13033456 0.070380449 1.7999767e-38
0.94364768 -0.12783456 0.067880452 1.8550819e-38
0.94614768 -0.13033456 0.070380449 1.7907922e-38
0.94614768 -0.12783456 0.070380449 1.8275264e-38
0.94864768 -0.13533455 0.067880452 1.7999757e-38
0.94864768 -0.13533455 0.070380449 1.7907922e-38
0.94864768 -0.13283455 0.067880452 1.7907922e-38
0.94864768 -0.13283455 0.070380449 1.7816086e-38
0.94864768 -0.13033456 0.067880452 1.7907922e-38
0.94864768 -0.13033456 0.070380449 1.7816086e-38
0.94864768 -0.12783456 0.070380449 1.7724251e-38
0.94614768 -0.13533455 0.072880454 1.7907922e-38
0.94614768 -0.13283455 0.072880454 1.7907922e-38
0.94614768 -0.13533455 0.07788045 1.7356909e-38
0.94614768 -0.13283455 0.07788045 1.7356909e-38
0.94364768 -0.13033456 0.072880454 1.7907922e-38
0.94364768 -0.12783456 0.072880454 1.7907922e-38
0.94614768 -0.13033456 0.072880454 1.7816086e-38
0.94614768 -0.13033456 0.075380452 1.7632415e-38
0.94614768 -0.12783456 0.072880454 1.7816086e-38
0.94614768 -0.12783456 0.075380452 1.7632415e-38
0.94614768 -0.13033456 0.07788045 1.754058e-38
0.94614768 -0.12783456 0.07788045 1.754058e-38
0.94864768 -0.13533455 0.075380452 1.7632415e-38
0.94864768 -0.13283455 0.075380452 1.7816086e-38
0.95114768 -0.13533455 0.072880454 1.7632415e-38
0.95114768 -0.13533455 0.075380452 1.754058e-38
0.95114768 -0.13283455 0.072880454 1.7816086e-38
0.95114768 -0.13283455 0.075380452 1.754058e-38
0.94864768 -0.13533455 0.080380455 1.6989567e-38
0.94864768 -0.13283455 0.080380455 1.6989567e-38
0.95114768 -0.13533455 0.07788045 1.7356909e-38
0.95114768 -0.13533455 0.080380455 1.7081402e-38
0.95114768 -0.13283455 0.07788045 1.7356909e-38
0.95114768 -0.13283455 0.080380455 1.6805896e-38
0.94864768 -0.13033456 0.075380452 1.754058e-38
0.94864768 -0.12783456 0.075380452 1.754058e-38
0.95114768 -0.13033456 0.072880454 1.7632415e-38
0.95114768 -0.13033456 0.075380452 1.7448744e-38
0.95114768 -0.12783456 0.072880454 1.7632415e-38
0.95114768 -0.12783456 0.075380452 1.7448744e-38
0.94864768 -0.13033456 0.080380455 1.6989567e-38
0.94864768 -0.12783456 0.080380455 1.6897731e-38
0.95114768 -0.13033456 0.07788045 1.7265073e-38
0.95114768 -0.13033456 0.080380455 1.7081402e-38
0.95114768 -0.12783456 0.07788045 1.7081402e-38
0.95364767 -0.14533456 0.070380449 1.8091593e-38
0.95364767 -0.14283456 0.070380449 1.8183428e-38
0.95364767 -0.14033456 0.070380449 1.7907922e-38
0.95364767 -0.13783456 0.070380449 1.7632415e-38
0.95364767 -0.14533456 0.072880454 1.754058e-38
0.95364767 -0.14533456 0.075380452 1.7265073e-38
0.95364767 -0.14283456 0.072880454 1.754058e-38
0.95364767 -0.14283456 0.075380452 1.754058e-38
0.95364767 -0.14033456 0.072880454 1.754058e-38
0.95364767 -0.14033456 0.075380452 1.754058e-38
0.95364767 -0.13783456 0.075380452 1.754058e-38
0.95364767 -0.14033456 0.07788045 1.7081402e-38
0.95364767 -0.13783456 0.07788045 1.7265073e-38
0.95364767 -0.13533455 0.070380449 1.7632415e-38
0.95364767 -0.13283455 0.070380449 1.754058e-38
0.95364767 -0.13533455 0.072880454 1.7632415e-38
0.95364767 -0.13533455 0.075380452 1.7265073e-38
0.95364767 -0.13283455 0.072880454 1.754058e-38
0.95364767 -0.13283455 0.075380452 1.7265073e-38
0.95364767 -0.13533455 0.07788045 1.7265073e-38
0.95364767 -0.13533455 0.080380455 1.7081402e-38
0.95364767 -0.13283455 0.07788045 1.7081402e-38
0.95364767 -0.13283455 0.080380455 1.6989567e-38
0.95614767 -0.13533455 0.080380455 1.7081402e-38
0.95614767 -0.13283455 0.080380455 1.671406e-38
0.95364767 -0.13033456 0.075380452 1.7265073e-38
0.95364767 -0.13033456 0.07788045 1.7081402e-38
0.95364767 -0.13033456 0.080380455 1.7081402e-38
0.95614767 -0.13033456 0.080380455 1.6897731e-38
0.95864767 -0.13283455 0.080380455 1.6805896e-38
0.94614768 -0.14533456 0.082880452 1.7265073e-38
0.94614768 -0.14533456 0.08538045 1.6897731e-38
0.94614768 -0.14283456 0.08538045 1.7265073e-38
0.94614768 -0.14533456 0.090380453 1.7265073e-38
0.94614768 -0.14283456 0.090380453 1.7265073e-38
0.94614768 -0.14033456 0.08538045 1.7081402e-38
0.94614768 -0.14033456 0.090380453 1.7265073e-38
0.94864768 -0.14533456 0.082880452 1.7081402e-38
0.94864768 -0.14283456 0.082880452 1.7081402e-38
0.95114768 -0.14533456 0.082880452 1.6897731e-38
0.95114768 -0.14533456 0.08538045 1.7081402e-38
0.95114768 -0.14283456 0.082880452 1.6897731e-38
0.95114768 -0.14283456 0.08538045 1.7081402e-38
0.94864768 -0.14533456 0.087880455 1.7081402e-38
0.94864768 -0.14533456 0.090380453 1.7081402e-38
0.94864768 -0.14283456 0.087880455 1.7173238e-38
0.94864768 -0.14283456 0.090380453 1.7265073e-38
0.95114768 -0.14533456 0.090380453 1.7265073e-38
0.95114768 -0.14283456 0.090380453 1.7356909e-38
0.94864768 -0.14033456 0.082880452 1.7081402e-38
0.94864768 -0.13783456 0.082880452 1.7081402e-38
0.95114768 -0.14033456 0.082880452 1.6897731e-38
0.95114768 -0.14033456 0.08538045 1.7081402e-38
0.95114768 -0.13783456 0.082880452 1.6897731e-38
0.95114768 -0.13783456 0.08538045 1.6897731e-38
0.94864768 -0.14033456 0.087880455 1.6897731e-38
0.94864768 -0.14033456 0.090380453 1.7265073e-38
0.94864768 -0.13783456 0.087880455 1.6897731e-38
0.94864768 -0.13783456 0.090380453 1.7265073e-38
0.95114768 -0.14033456 0.090380453 1.7265073e-38
0.95114768 -0.13783456 0.090380453 1.7265073e-38
0.94614768 -0.14533456 0.095380455 1.754058e-38
0.94614768 -0.14533456 0.097880453 1.8091593e-38
0.94864768 -0.14533456 0.09288045 1.6622225e-38
0.94864768 -0.14533456 0.095380455 1.754058e-38
0.94864768 -0.14283456 0.09288045 1.7173238e-38
0.94864768 -0.14283456 0.095380455 1.754058e-38
0.95114768 -0.14533456 0.09288045 1.754058e-38
0.95114768 -0.14283456 0.09288045 1.7356909e-38
0.95114768 -0.14283456 0.097880453 1.9744632e-38
0.94864768 -0.14033456 0.09288045 1.7265073e-38
0.94864768 -0.14033456 0.095380455 1.7448744e-38
0.94864768 -0.13783456 0.09288045 1.7265073e-38
0.94864768 -0.13783456 0.095380455 1.7265073e-38
0.95114768 -0.14033456 0.09288045 1.7081402e-38
0.95114768 -0.13783456 0.09288045 1.7081402e-38
0.95114768 -0.14033456 0.097880453 1.9560961e-38
0.94614768 -0.13283455 0.082880452 1.6989567e-38
0.94614768 -0.13283455 0.08538045 1.6805896e-38
0.94364768 -0.12783456 0.082880452 1.6989567e-38
0.94614768 -0.13033456 0.082880452 1.671406e-38
0.94614768 -0.13033456 0.08538045 1.671406e-38
0.94614768 -0.12783456 0.082880452 1.671406e-38
0.94614768 -0.12783456 0.08538045 1.6530389e-38
0.94364768 -0.12783456 0.090380453 1.6438554e-38
0.94614768 -0.13033456 0.090380453 1.6622225e-38
0.94614768 -0.12783456 0.090380453 1.6254883e-38
0.94864768 -0.13533455 0.082880452 1.6897731e-38
0.94864768 -0.13283455 0.082880452 1.671406e-38
0.95114768 -0.13533455 0.082880452 1.6897731e-38
0.95114768 -0.13533455 0.08538045 1.6897731e-38
0.95114768 -0.13283455 0.082880452 1.671406e-38
0.95114768 -0.13283455 0.08538045 1.671406e-38
0.94864768 -0.13533455 0.087880455 1.6622225e-38
0.94864768 -0.13533455 0.090380453 1.671406e-38
0.94864768 -0.13283455 0.087880455 1.6622225e-38
0.94864768 -0.13283455 0.090380453 1.6622225e-38
0.95114768 -0.13533455 0.090380453 1.6897731e-38
0.95114768 -0.13283455 0.090380453 1.6438554e-38
0.94864768 -0.13033456 0.082880452 1.6897731e-38
0.94864768 -0.12783456 0.082880452 1.671406e-38
0.95114768 -0.13033456 0.082880452 1.6897731e-38
0.95114768 -0.13033456 0.08538045 1.671406e-38
0.95114768 -0.12783456 0.082880452 1.6438554e-38
0.95114768 -0.12783456 0.08538045 1.6622225e-38
0.94864768 -0.13033456 0.087880455 1.6622225e-38
0.94864768 -0.13033456 0.090380453 1.6438554e-38
0.94864768 -0.12783456 0.087880455 1.6530389e-38
0.94864768 -0.12783456 0.090380453 1.6346718e-38
0.95114768 -0.13033456 0.090380453 1.6622225e-38
0.95114768 -0.12783456 0.090380453 1.6530389e-38
0.94614768 -0.12783456 0.09288045 1.6254883e-38
0.94614768 -0.12783456 0.095380455 1.6254883e-38
0.94614768 -0.12783456 0.097880453 1.6346718e-38
0.94614768 -0.12783456 0.10038045 1.855077e-38
0.94864768 -0.13283455 0.09288045 1.6438554e-38
0.94864768 -0.13283455 0.095380455 1.671406e-38
0.95114768 -0.13533455 0.09288045 1.6989567e-38
0.95114768 -0.13283455 0.09288045 1.6530389e-38
0.94864768 -0.13283455 0.10038045 2.3431798e-38
0.95114768 -0.13283455 0.097880453 1.7907922e-38
0.94864768 -0.13033456 0.09288045 1.6438554e-38
0.94864768 -0.13033456 0.095380455 1.6622225e-38
0.94864768 -0.12783456 0.09288045 1.6071212e-38
0.94864768 -0.12783456 0.095380455 1.6438554e-38
0.95114768 -0.13033456 0.09288045 1.6622225e-38
0.95114768 -0.12783456 0.09288045 1.6438554e-38
0.94864768 -0.13033456 0.10038045 2.0204231e-38
0.94864768 -0.12783456 0.097880453 1.6989567e-38
0.94864768 -0.12783456 0.10038045 1.8734441e-38
0.95114768 -0.13033456 0.097880453 1.7816086e-38
0.95114768 -0.12783456 0.097880453 1.6989567e-38
0.95364767 -0.13783456 0.082880452 1.7081402e-38
0.95364767 -0.14533456 0.095380455 1.7816086e-38
0.95364767 -0.14283456 0.095380455 1.754058e-38
0.95614767 -0.14533456 0.095380455 2.0295645e-38
0.95614767 -0.14283456 0.095380455 1.9560961e-38
0.95364767 -0.14033456 0.095380455 1.7081402e-38
0.95364767 -0.13783456 0.095380455 1.6989567e-38
0.95614767 -0.14033456 0.095380455 1.937729e-38
0.95614767 -0.13783456 0.095380455 1.9101783e-38
0.95864767 -0.14033456 0.095380455 2.2887227e-38
0.95864767 -0.13783456 0.09288045 1.8826277e-38
0.95864767 -0.13783456 0.095380455 2.2702477e-38
0.96114773 -0.13783456 0.095380455 2.2056015e-38
0.95364767 -0.13533455 0.082880452 1.7081402e-38
0.95364767 -0.13533455 0.08538045 1.6897731e-38
0.95364767 -0.13283455 0.082880452 1.671406e-38
0.95364767 -0.13283455 0.08538045 1.671406e-38
0.95614767 -0.13533455 0.082880452 1.6897731e-38
0.95614767 -0.13283455 0.082880452 1.6989567e-38
0.95364767 -0.13533455 0.087880455 1.6897731e-38
0.95364767 -0.13533455 0.090380453 1.6622225e-38
0.95364767 -0.13283455 0.087880455 1.671406e-38
0.95364767 -0.13283455 0.090380453 1.6530389e-38
0.95614767 -0.13533455 0.090380453 1.6897731e-38
0.95614767 -0.13283455 0.090380453 1.6530389e-38
0.95364767 -0.13033456 0.082880452 1.671406e-38
0.95364767 -0.13033456 0.08538045 1.6622225e-38
0.95364767 -0.12783456 0.082880452 1.671406e-38
0.95364767 -0.12783456 0.08538045 1.671406e-38
0.95614767 -0.13033456 0.082880452 1.6897731e-38
0.95364767 -0.13033456 0.087880455 1.671406e-38
0.95364767 -0.13033456 0.090380453 1.6438554e-38
0.95364767 -0.12783456 0.087880455 1.6438554e-38
0.95364767 -0.12783456 0.090380453 1.6254883e-38
0.95614767 -0.13033456 0.090380453 1.6530389e-38
0.95614767 -0.12783456 0.087880455 1.6622225e-38
0.95614767 -0.12783456 0.090380453 1.6346718e-38
0.95364767 -0.13533455 0.095380455 1.671406e-38
0.95364767 -0.13283455 0.095380455 1.6346718e-38
0.95614767 -0.13533455 0.09288045 1.6897731e-38
0.95614767 -0.13533455 0.095380455 1.8826277e-38
0.95614767 -0.13283455 0.09288045 1.6346718e-38
0.95614767 -0.13283455 0.095380455 1.8091593e-38
0.95364767 -0.13533455 0.097880453 2.1963819e-38
0.95364767 -0.13283455 0.097880453 2.2881852e-38
0.95364767 -0.13283455 0.10038045 1.9952041e-38
0.95614767 -0.13533455 0.10038045 2.0687097e-38
0.95614767 -0.13283455 0.10038045 2.2147899e-38
0.95364767 -0.13033456 0.095380455 1.6254883e-38
0.95364767 -0.12783456 0.095380455 1.6897731e-38
0.95614767 -0.13033456 0.09288045 1.6254883e-38
0.95614767 -0.13033456 0.095380455 1.6989567e-38
0.95614767 -0.12783456 0.09288045 1.6438554e-38
0.95614767 -0.12783456 0.095380455 1.6989567e-38
0.95364767 -0.13033456 0.097880453 2.0113465e-38
0.95364767 -0.13033456 0.10038045 1.836749e-38
0.95364767 -0.12783456 0.097880453 1.9009949e-38
0.95614767 -0.13033456 0.10038045 1.8828857e-38
0.95864767 -0.13533455 0.095380455 2.2332603e-38
0.95864767 -0.13283455 0.095380455 2.3063715e-38
0.95864767 -0.13533455 0.097880453 2.0317946e-38
0.95864767 -0.13283455 0.097880453 2.2610983e-38
0.95864767 -0.13033456 0.095380455 1.855077e-38
0.95864767 -0.12783456 0.09288045 1.6897731e-38
0.95864767 -0.13033456 0.097880453 1.8554376e-38
0.96364772 -0.16533455 0.09288045 1.9024015e-38
0.96364772 -0.16283455 0.09288045 1.9482833e-38
0.96364772 -0.13283455 0.10038045 1.6091751e-38
0.96364772 -0.13033456 0.10038045 1.4616981e-38
0.94114769 -0.12283456 0.067880452 1.9652817e-38
0.94114769 -0.12283456 0.070380449 1.8091605e-38
0.94114769 -0.12033456 0.067880452 1.9469143e-38
0.94114769 -0.12033456 0.070380449 1.8367115e-38
0.94114769 -0.11783456 0.070380449 1.7540599e-38
0.94114769 -0.12533456 0.082880452 1.6897731e-38
0.94114769 -0.12533456 0.08538045 1.671406e-38
0.94114769 -0.12283456 0.082880452 1.6897731e-38
0.94114769 -0.12283456 0.08538045 1.671406e-38
0.93864769 -0.12533456 0.087880455 1.6897731e-38
0.93864769 -0.12533456 0.090380453 1.6622225e-38
0.93864769 -0.12283456 0.087880455 1.6897731e-38
0.93864769 -0.12283456 0.090380453 1.6622225e-38
0.94114769 -0.12533456 0.087880455 1.6530389e-38
0.94114769 -0.12533456 0.090380453 1.6530392e-38
0.94114769 -0.12283456 0.090380453 1.6897731e-38
0.94114769 -0.12033456 0.082880452 1.6989567e-38
0.94114769 -0.12033456 0.08538045 1.6989567e-38
0.93864769 -0.12033456 0.090380453 1.6897731e-38
0.93864769 -0.11783456 0.087880455 1.7081402e-38
0.93864769 -0.11783456 0.090380453 1.6989567e-38
0.94114769 -0.12033456 0.087880455 1.6989567e-38
0.93614769 -0.12033456 0.09288045 1.6897731e-38
0.93614769 -0.11783456 0.09288045 1.6989567e-38
0.94114769 -0.12533456 0.09288045 1.6438554e-38
0.94114769 -0.12533456 0.095380455 1.6254883e-38
0.94114769 -0.12283456 0.09288045 1.6438554e-38
0.94114769 -0.12283456 0.095380455 1.6438554e-38
0.93864769 -0.12533456 0.097880453 1.6438554e-38
0.93864769 -0.12283456 0.097880453 1.6438554e-38
0.94114769 -0.12533456 0.097880453 1.6622225e-38
0.94114769 -0.12533456 0.10038045 1.6438554e-38
0.94114769 -0.12283456 0.097880453 1.6622225e-38
0.94114769 -0.12283456 0.10038045 1.6346718e-38
0.93864769 -0.12033456 0.09288045 1.6897731e-38
0.93864769 -0.11783456 0.09288045 1.6989567e-38
0.94114769 -0.12033456 0.09288045 1.671406e-38
0.94114769 -0.11783456 0.09288045 1.6989567e-38
0.93864769 -0.12033456 0.097880453 1.671406e-38
0.93864769 -0.11783456 0.097880453 1.671406e-38
0.94114769 -0.12033456 0.097880453 1.6805896e-38
0.94114769 -0.12033456 0.10038045 1.6622225e-38
0.94114769 -0.11783456 0.097880453 1.6897731e-38
0.94114769 -0.11783456 0.10038045 1.671406e-38
0.94364768 -0.12533456 0.067880452 1.9285472e-38
0.94364768 -0.12283456 0.067880452 1.8367103e-38
0.94364768 -0.12283456 0.070380449 1.7265073e-38
0.94614768 -0.12533456 0.070380449 1.7907922e-38
0.94614768 -0.12283456 0.070380449 1.7632415e-38
0.94364768 -0.12033456 0.067880452 1.8275278e-38
0.94364768 -0.12033456 0.070380449 1.7448744e-38
0.94364768 -0.11783456 0.067880452 1.7816109e-38
0.94364768 -0.11783456 0.070380449 1.7448764e-38
0.94614768 -0.12033456 0.070380449 1.7724255e-38
0.94614768 -0.11783456 0.070380449 1.7999781e-38
0.94864768 -0.12533456 0.070380449 1.7356909e-38
0.94864768 -0.12283456 0.067880452 1.7448744e-38
0.94864768 -0.12283456 0.070380449 1.7356909e-38
0.94864768 -0.12033456 0.067880452 1.7265073e-38
0.95114768 -0.12033456 0.067880452 1.7632415e-38
0.94364768 -0.12533456 0.072880454 1.7907922e-38
0.94364768 -0.12283456 0.072880454 1.7816086e-38
0.94614768 -0.12533456 0.072880454 1.7632415e-38
0.94614768 -0.12533456 0.075380452 1.7448744e-38
0.94614768 -0.12283456 0.072880454 1.754058e-38
0.94614768 -0.12283456 0.075380452 1.7265073e-38
0.94364768 -0.12533456 0.080380455 1.7081402e-38
0.94364768 -0.12283456 0.080380455 1.7081402e-38
0.94614768 -0.12533456 0.07788045 1.7356909e-38
0.94614768 -0.12283456 0.07788045 1.7356909e-38
0.94364768 -0.12033456 0.072880454 1.7448744e-38
0.94364768 -0.11783456 0.072880454 1.7724258e-38
0.94614768 -0.12033456 0.072880454 1.7173238e-38
0.94364768 -0.12033456 0.080380455 1.7173238e-38
0.94364768 -0.11783456 0.080380455 1.7632415e-38
0.94614768 -0.12033456 0.07788045 1.7356909e-38
0.94864768 -0.12533456 0.075380452 1.7356909e-38
0.94864768 -0.12283456 0.075380452 1.7265073e-38
0.95114768 -0.12533456 0.072880454 1.7173238e-38
0.95114768 -0.12533456 0.075380452 1.7356909e-38
0.95114768 -0.12283456 0.072880454 1.6989567e-38
0.95114768 -0.12283456 0.075380452 1.7356909e-38
0.94864768 -0.12533456 0.080380455 1.6989567e-38
0.94864768 -0.12283456 0.080380455 1.6989567e-38
0.95364767 -0.12033456 0.070380449 1.7724251e-38
0.94364768 -0.12533456 0.082880452 1.6897731e-38
0.94364768 -0.12283456 0.082880452 1.6989567e-38
0.94614768 -0.12533456 0.082880452 1.6897731e-38
0.94614768 -0.12533456 0.08538045 1.671406e-38
0.94614768 -0.12283456 0.082880452 1.6989567e-38
0.94614768 -0.12283456 0.08538045 1.6897731e-38
0.94364768 -0.12533456 0.090380453 1.6530389e-38
0.94364768 -0.12283456 0.090380453 1.6897731e-38
0.94364768 -0.12033456 0.082880452 1.7081402e-38
0.94364768 -0.11783456 0.082880452 1.754058e-38
0.94614768 -0.12033456 0.082880452 1.6989567e-38
0.94614768 -0.12033456 0.08538045 1.7081402e-38
0.94364768 -0.12033456 0.090380453 1.6897731e-38
0.94864768 -0.12533456 0.082880452 1.6897731e-38
0.94864768 -0.12283456 0.082880452 1.6805896e-38
0.95114768 -0.12533456 0.082880452 1.671406e-38
0.95114768 -0.12533456 0.08538045 1.671406e-38
0.95114768 -0.12283456 0.082880452 1.6897731e-38
0.95114768 -0.12283456 0.08538045 1.671406e-38
0.94864768 -0.12283456 0.087880455 1.671406e-38
0.94864768 -0.12033456 0.087880455 1.6989567e-38
0.94364768 -0.12533456 0.09288045 1.6254883e-38
0.94364768 -0.12283456 0.09288045 1.671406e-38
0.94614768 -0.12533456 0.09288045 1.6346718e-38
0.94614768 -0.12533456 0.095380455 1.6438554e-38
0.94364768 -0.12533456 0.097880453 1.6254883e-38
0.94364768 -0.12533456 0.10038045 1.7081402e-38
0.94364768 -0.12283456 0.097880453 1.6622225e-38
0.94364768 -0.12283456 0.10038045 1.6622225e-38
0.94614768 -0.12533456 0.097880453 1.6438554e-38
0.94614768 -0.12533456 0.10038045 1.6622225e-38
0.94614768 -0.12283456 0.10038045 1.6438554e-38
0.94364768 -0.12033456 0.097880453 1.6805896e-38
0.94364768 -0.12033456 0.10038045 1.6622225e-38
0.94364768 -0.11783456 0.097880453 1.6897731e-38
0.94364768 -0.11783456 0.10038045 1.671406e-38
0.94614768 -0.12033456 0.10038045 1.6438554e-38
0.94864768 -0.12533456 0.09288045 1.6622225e-38
0.94864768 -0.12533456 0.097880453 1.6897731e-38
0.95364767 -0.12533456 0.082880452 1.6622225e-38
0.95364767 -0.12533456 0.08538045 1.671406e-38
0.95364767 -0.12283456 0.08538045 1.671406e-38
0.95364767 -0.12533456 0.087880455 1.671406e-38
0.95364767 -0.12533456 0.090380453 1.6346718e-38
0.95614767 -0.12533456 0.087880455 1.671406e-38
0.95614767 -0.12283456 0.087880455 1.671406e-38
0.95864767 -0.12283456 0.082880452 1.6897731e-38
0.95864767 -0.12283456 0.08538045 1.6622225e-38
0.95864767 -0.12533456 0.090380453 1.6438554e-38
0.77614772 -0.21533456 0.13038045 2.2386602e-38
0.77614772 -0.21283455 0.13038045 2.2571353e-38
0.77864772 -0.21533456 0.13288045 2.2846864e-38
0.77864772 -0.21283455 0.13288045 2.293906e-38
0.79114771 -0.21283455 0.11538045 2.3469559e-38
0.79114771 -0.21533456 0.12038045 2.3304965e-38
0.79114771 -0.21283455 0.11788045 2.3026914e-38
0.79114771 -0.21283455 0.12038045 2.2936163e-38
0.79114771 -0.21033455 0.11538045 1.5443497e-38
0.79114771 -0.20783456 0.11538045 1.5795745e-38
0.78864771 -0.21033455 0.11788045 1.516439e-38
0.78864771 -0.20783456 0.11788045 1.6071252e-38
0.79114771 -0.21033455 0.11788045 1.4978925e-38
0.79114771 -0.21033455 0.12038045 2.346489e-38
0.79114771 -0.20783456 0.11788045 1.5244704e-38
0.79114771 -0.20783456 0.12038045 1.5244702e-38
0.79364771 -0.21283455 0.10538045 2.3479999e-38
0.7961477 -0.21533456 0.10538045 2.1831986e-38
0.7961477 -0.21283455 0.10288045 2.3480708e-38
0.7961477 -0.21283455 0.10538045 2.3480016e-38
0.79364771 -0.21533456 0.10788045 2.1832705e-38
0.79364771 -0.21283455 0.10788045 2.3480021e-38
0.7961477 -0.21533456 0.10788045 2.1925984e-38
0.7961477 -0.21533456 0.11038045 2.229189e-38
0.7961477 -0.21283455 0.10788045 2.3479323e-38
0.7961477 -0.21283455 0.11038045 2.3474263e-38
0.79364771 -0.21033455 0.10538045 2.0124222e-38
0.79364771 -0.20783456 0.10538045 1.616305e-38
0.7961477 -0.21033455 0.10288045 1.9756882e-38
0.7961477 -0.21033455 0.10538045 1.9298778e-38
0.7961477 -0.20783456 0.10288045 1.6071212e-38
0.7961477 -0.20783456 0.10538045 1.6071931e-38
0.79364771 -0.21033455 0.10788045 1.8314904e-38
0.7961477 -0.21033455 0.10788045 1.8931071e-38
0.7961477 -0.21033455 0.11038045 1.5816984e-38
0.7961477 -0.20783456 0.10788045 1.6167016e-38
0.7961477 -0.20783456 0.11038045 1.5797884e-38
0.8011477 -0.21283455 0.10288045 1.9848359e-38
0.7986477 -0.21283455 0.11038045 2.3470282e-38
0.7986477 -0.21033455 0.10288045 1.9665412e-38
0.7986477 -0.21033455 0.10538045 1.9113665e-38
0.7986477 -0.20783456 0.10288045 1.6622979e-38
0.7986477 -0.20783456 0.10538045 1.5887541e-38
0.8011477 -0.21033455 0.10288045 1.6346718e-38
0.8011477 -0.20783456 0.10288045 1.6163052e-38
0.7986477 -0.21033455 0.11038045 1.681096e-38
0.7986477 -0.20783456 0.10788045 1.653041e-38
0.7986477 -0.20783456 0.11038045 1.6073395e-38
0.8011477 -0.20783456 0.10788045 1.6530417e-38
0.7961477 -0.21283455 0.11538045 2.346736e-38
0.79364771 -0.21533456 0.12038045 2.348862e-38
0.79364771 -0.21283455 0.11788045 2.346526e-38
0.79364771 -0.21283455 0.12038045 2.3464865e-38
0.7961477 -0.21283455 0.12038045 2.3462759e-38
0.79364771 -0.21033455 0.11288045 1.7088971e-38
0.79364771 -0.21033455 0.11538045 1.5254026e-38
0.79364771 -0.20783456 0.11288045 1.5890786e-38
0.79364771 -0.20783456 0.11538045 1.5705316e-38
0.7961477 -0.21033455 0.11288045 1.5797884e-38
0.7961477 -0.21033455 0.11538045 1.5071472e-38
0.7961477 -0.20783456 0.11288045 1.5887581e-38
0.7961477 -0.20783456 0.11538045 1.5703906e-38
0.79364771 -0.21033455 0.11788045 1.5344828e-38
0.79364771 -0.21033455 0.12038045 1.4880973e-38
0.79364771 -0.20783456 0.11788045 1.5244698e-38
0.79364771 -0.20783456 0.12038045 1.5152862e-38
0.7961477 -0.21033455 0.12038045 1.4785565e-38
0.7961477 -0.20783456 0.12038045 1.5244702e-38
0.7986477 -0.21283455 0.11288045 2.3467757e-38
0.7986477 -0.21033455 0.11288045 1.5703908e-38
0.7986477 -0.20783456 0.11288045 1.5888987e-38
0.7986477 -0.20783456 0.11538045 1.5888281e-38
0.78614771 -0.21283455 0.12538046 2.3399319e-38
0.78364772 -0.21533456 0.12788045 2.2387325e-38
0.78364772 -0.21283455 0.12788045 2.3490429e-38
0.78614771 -0.21283455 0.12788045 2.3490063e-38
0.78864771 -0.21283455 0.12288045 2.3306766e-38
0.78864771 -0.21283455 0.12538046 2.3490422e-38
0.79114771 -0.21533456 0.12288045 2.3306766e-38
0.79114771 -0.21533456 0.12538046 2.3490782e-38
0.79114771 -0.21283455 0.12288045 2.321457e-38
0.79114771 -0.21283455 0.12538046 2.348971e-38
0.78864771 -0.21283455 0.12788045 1.7664819e-38
0.79114771 -0.21533456 0.12788045 1.5542995e-38
0.79114771 -0.21283455 0.12788045 1.8652692e-38
0.78864771 -0.21033455 0.12288045 2.3466705e-38
0.78864771 -0.21033455 0.12538046 2.3467069e-38
0.79114771 -0.21033455 0.12288045 2.346777e-38
0.79114771 -0.21033455 0.12538046 2.3468141e-38
0.79114771 -0.20783456 0.12288045 1.4142682e-38
0.79114771 -0.20783456 0.12538046 1.4050849e-38
