# .PCD v0.7 - Point Cloud Data file format
VERSION 0.7
FIELDS x y z rgb
SIZE 4 4 4 4
TYPE F F F F
COUNT 1 1 1 1
WIDTH 1006
HEIGHT 1
VIEWPOINT 0 0 0 1 0 0 0
POINTS 1006
DATA ascii
0.94904244 -0.15185644 0.073022105 1.7907922e-38
0.94904244 -0.15185644 0.075522102 1.7632415e-38
0.94904244 -0.14935644 0.073022105 1.7907922e-38
0.94904244 -0.14935644 0.075522102 1.7632415e-38
0.95154244 -0.15185644 0.073022105 1.7632415e-38
0.95154244 -0.14935644 0.073022105 1.7816086e-38
0.95154244 -0.14935644 0.075522102 1.7632415e-38
0.94904244 -0.15185644 0.080522105 1.7265073e-38
0.94904244 -0.14935644 0.080522105 1.7265073e-38
0.94904244 -0.16685644 0.095522106 1.8367099e-38
0.95654249 -0.16685644 0.095522106 2.0037062e-38
0.95654249 -0.16435644 0.095522106 1.9576085e-38
0.95654249 -0.16185644 0.095522106 1.9851233e-38
0.94904244 -0.15685645 0.083022103 1.7448744e-38
0.94904244 -0.15435645 0.083022103 1.7265073e-38
0.94904244 -0.15185644 0.083022103 1.7265073e-38
0.94904244 -0.14935644 0.083022103 1.7265073e-38
0.95154244 -0.15185644 0.0855221 1.7265073e-38
0.95154244 -0.14935644 0.0855221 1.7356909e-38
0.94904244 -0.15185644 0.088022105 1.7081402e-38
0.94904244 -0.14935644 0.088022105 1.7081402e-38
0.94904244 -0.14935644 0.090522103 1.7173238e-38
0.95154244 -0.14935644 0.090522103 1.6989567e-38
0.94904244 -0.15185644 0.095522106 1.7632415e-38
0.94904244 -0.14935644 0.095522106 1.754058e-38
0.95154244 -0.14935644 0.093022101 1.754058e-38
0.95154244 -0.14935644 0.095522106 1.8826277e-38
0.94904244 -0.15185644 0.098022103 2.0941035e-38
0.94904244 -0.14935644 0.098022103 2.1765013e-38
0.94904244 -0.14685644 0.068022102 1.8183428e-38
0.94904244 -0.14685644 0.0705221 1.7907922e-38
0.94904244 -0.14435644 0.068022102 1.8275264e-38
0.94904244 -0.14435644 0.0705221 1.8091593e-38
0.95154244 -0.14685644 0.068022102 1.7907922e-38
0.95154244 -0.14685644 0.0705221 1.7907922e-38
0.95154244 -0.14435644 0.068022102 1.8091593e-38
0.95154244 -0.14435644 0.0705221 1.8091593e-38
0.94904244 -0.14185645 0.068022102 1.8275264e-38
0.94904244 -0.14185645 0.0705221 1.8091593e-38
0.94904244 -0.13935645 0.068022102 1.8367099e-38
0.94904244 -0.13935645 0.0705221 1.8183428e-38
0.95154244 -0.14185645 0.068022102 1.7999757e-38
0.95154244 -0.13935645 0.0705221 1.8183428e-38
0.95404243 -0.14685644 0.0705221 1.7816086e-38
0.94904244 -0.14685644 0.073022105 1.7816086e-38
0.94904244 -0.14685644 0.075522102 1.7632415e-38
0.94904244 -0.14435644 0.073022105 1.7907922e-38
0.94904244 -0.14435644 0.075522102 1.7632415e-38
0.95154244 -0.14685644 0.073022105 1.7816086e-38
0.95154244 -0.14685644 0.075522102 1.7632415e-38
0.95154244 -0.14435644 0.073022105 1.7907922e-38
0.95154244 -0.14435644 0.075522102 1.7632415e-38
0.94904244 -0.14685644 0.0780221 1.754058e-38
0.94904244 -0.14685644 0.080522105 1.7265073e-38
0.94904244 -0.14435644 0.0780221 1.754058e-38
0.94904244 -0.14435644 0.080522105 1.7081402e-38
0.95154244 -0.14435644 0.0780221 1.7265073e-38
0.94904244 -0.14185645 0.073022105 1.7907922e-38
0.94904244 -0.14185645 0.075522102 1.7632415e-38
0.94904244 -0.13935645 0.073022105 1.7907922e-38
0.94904244 -0.13935645 0.075522102 1.754058e-38
0.95154244 -0.14185645 0.073022105 1.7907922e-38
0.95154244 -0.14185645 0.075522102 1.7632415e-38
0.95154244 -0.13935645 0.073022105 1.7907922e-38
0.95154244 -0.13935645 0.075522102 1.754058e-38
0.94904244 -0.14185645 0.0780221 1.754058e-38
0.94904244 -0.14185645 0.080522105 1.7081402e-38
0.94904244 -0.13935645 0.0780221 1.754058e-38
0.94904244 -0.13935645 0.080522105 1.7265073e-38
0.95154244 -0.14185645 0.0780221 1.7265073e-38
0.95154244 -0.13935645 0.0780221 1.7265073e-38
0.95154244 -0.13935645 0.080522105 1.7265073e-38
0.94904244 -0.13685644 0.068022102 1.8458935e-38
0.94904244 -0.13685644 0.0705221 1.8183428e-38
0.94904244 -0.13435644 0.068022102 1.8367099e-38
0.94904244 -0.13435644 0.0705221 1.8091593e-38
0.95154244 -0.13685644 0.0705221 1.7999757e-38
0.95154244 -0.13435644 0.0705221 1.7907922e-38
0.94904244 -0.13185644 0.068022102 1.8091593e-38
0.94904244 -0.13185644 0.0705221 1.7999757e-38
0.94904244 -0.12935644 0.068022102 1.7907922e-38
0.94904244 -0.12935644 0.0705221 1.7907922e-38
0.95154244 -0.13185644 0.068022102 1.7999757e-38
0.95154244 -0.13185644 0.0705221 1.7907922e-38
0.95154244 -0.12935644 0.0705221 1.7907922e-38
0.95404243 -0.13685644 0.0705221 1.7907922e-38
0.95404243 -0.13435644 0.0705221 1.7816086e-38
0.95404243 -0.13185644 0.0705221 1.7816086e-38
0.94904244 -0.13685644 0.073022105 1.7907922e-38
0.94904244 -0.13685644 0.075522102 1.754058e-38
0.94904244 -0.13435644 0.073022105 1.7907922e-38
0.94904244 -0.13435644 0.075522102 1.754058e-38
0.95154244 -0.13685644 0.073022105 1.7632415e-38
0.95154244 -0.13685644 0.075522102 1.754058e-38
0.95154244 -0.13435644 0.073022105 1.7632415e-38
0.95154244 -0.13435644 0.075522102 1.754058e-38
0.94904244 -0.13685644 0.0780221 1.7356909e-38
0.94904244 -0.13685644 0.080522105 1.7265073e-38
0.94904244 -0.13435644 0.0780221 1.7265073e-38
0.94904244 -0.13435644 0.080522105 1.7265073e-38
0.95154244 -0.13685644 0.0780221 1.7265073e-38
0.95154244 -0.13685644 0.080522105 1.7081402e-38
0.95154244 -0.13435644 0.0780221 1.7265073e-38
0.95154244 -0.13435644 0.080522105 1.7081402e-38
0.94904244 -0.13185644 0.073022105 1.7632415e-38
0.94904244 -0.13185644 0.075522102 1.754058e-38
0.94904244 -0.12935644 0.073022105 1.754058e-38
0.94904244 -0.12935644 0.075522102 1.7356909e-38
0.95154244 -0.13185644 0.073022105 1.754058e-38
0.95154244 -0.13185644 0.075522102 1.754058e-38
0.95154244 -0.12935644 0.073022105 1.754058e-38
0.95154244 -0.12935644 0.075522102 1.7356909e-38
0.94904244 -0.13185644 0.0780221 1.7265073e-38
0.94904244 -0.13185644 0.080522105 1.6989567e-38
0.94904244 -0.12935644 0.0780221 1.7265073e-38
0.94904244 -0.12935644 0.080522105 1.6989567e-38
0.95154244 -0.13185644 0.0780221 1.6989567e-38
0.95154244 -0.13185644 0.080522105 1.7081402e-38
0.95154244 -0.12935644 0.0780221 1.6897731e-38
0.95154244 -0.12935644 0.080522105 1.6805896e-38
0.95404243 -0.13685644 0.073022105 1.7632415e-38
0.95404243 -0.13435644 0.073022105 1.754058e-38
0.95654249 -0.13435644 0.075522102 1.754058e-38
0.95404243 -0.13685644 0.0780221 1.7356909e-38
0.95404243 -0.13435644 0.0780221 1.7081402e-38
0.95654249 -0.13685644 0.080522105 1.6989567e-38
0.95654249 -0.13435644 0.080522105 1.7081402e-38
0.95404243 -0.13185644 0.073022105 1.754058e-38
0.95404243 -0.13185644 0.0780221 1.7265073e-38
0.94904244 -0.14685644 0.083022103 1.7081402e-38
0.94904244 -0.14435644 0.083022103 1.7081402e-38
0.95154244 -0.14685644 0.0855221 1.7081402e-38
0.95154244 -0.14435644 0.0855221 1.7081402e-38
0.94904244 -0.14685644 0.088022105 1.7081402e-38
0.94904244 -0.14685644 0.090522103 1.6989567e-38
0.94904244 -0.14435644 0.088022105 1.7081402e-38
0.94904244 -0.14435644 0.090522103 1.6989567e-38
0.95154244 -0.14685644 0.090522103 1.6897731e-38
0.95154244 -0.14435644 0.090522103 1.6989567e-38
0.94904244 -0.14185645 0.083022103 1.7265073e-38
0.94904244 -0.13935645 0.083022103 1.7265073e-38
0.95154244 -0.14185645 0.0855221 1.7081402e-38
0.95154244 -0.13935645 0.0855221 1.7081402e-38
0.94904244 -0.14185645 0.088022105 1.7081402e-38
0.94904244 -0.14185645 0.090522103 1.7081402e-38
0.94904244 -0.13935645 0.088022105 1.7081402e-38
0.94904244 -0.13935645 0.090522103 1.7081402e-38
0.95154244 -0.14185645 0.090522103 1.7081402e-38
0.95154244 -0.13935645 0.090522103 1.7081402e-38
0.95404243 -0.14685644 0.088022105 1.6989567e-38
0.95404243 -0.14685644 0.090522103 1.6989567e-38
0.95404243 -0.14435644 0.088022105 1.7081402e-38
0.95404243 -0.14435644 0.090522103 1.6897731e-38
0.95404243 -0.14185645 0.083022103 1.7081402e-38
0.95404243 -0.13935645 0.083022103 1.6897731e-38
0.95404243 -0.14185645 0.088022105 1.7081402e-38
0.95404243 -0.14185645 0.090522103 1.6989567e-38
0.95404243 -0.13935645 0.088022105 1.7081402e-38
0.95404243 -0.13935645 0.090522103 1.6989567e-38
0.94904244 -0.14685644 0.095522106 1.7632415e-38
0.94904244 -0.14435644 0.095522106 1.7632415e-38
0.95154244 -0.14685644 0.093022101 1.7448744e-38
0.95154244 -0.14685644 0.095522106 1.8458935e-38
0.95154244 -0.14435644 0.093022101 1.754058e-38
0.95154244 -0.14435644 0.095522106 1.7632415e-38
0.94904244 -0.14185645 0.095522106 1.7448744e-38
0.94904244 -0.13935645 0.095522106 1.7265073e-38
0.95154244 -0.14185645 0.093022101 1.754058e-38
0.95154244 -0.14185645 0.095522106 1.7448744e-38
0.95154244 -0.13935645 0.093022101 1.754058e-38
0.95154244 -0.13935645 0.095522106 1.7081402e-38
0.95154244 -0.14185645 0.098022103 1.9652796e-38
0.95154244 -0.13935645 0.098022103 1.9101783e-38
0.95404243 -0.14435644 0.095522106 2.0203809e-38
0.95404243 -0.14185645 0.095522106 1.9744632e-38
0.95404243 -0.13935645 0.095522106 1.937729e-38
0.95654249 -0.14185645 0.095522106 1.9560961e-38
0.95654249 -0.13935645 0.095522106 1.937729e-38
0.94904244 -0.13685644 0.083022103 1.7265073e-38
0.94904244 -0.13435644 0.083022103 1.7265073e-38
0.95154244 -0.13685644 0.0855221 1.7081402e-38
0.95154244 -0.13435644 0.0855221 1.7081402e-38
0.94904244 -0.13685644 0.088022105 1.7081402e-38
0.94904244 -0.13685644 0.090522103 1.7081402e-38
0.95154244 -0.13685644 0.090522103 1.7081402e-38
0.95154244 -0.13435644 0.090522103 1.6897731e-38
0.94904244 -0.13185644 0.083022103 1.6989567e-38
0.94904244 -0.12935644 0.083022103 1.671406e-38
0.95154244 -0.13185644 0.0855221 1.671406e-38
0.95154244 -0.12935644 0.0855221 1.671406e-38
0.94904244 -0.13185644 0.088022105 1.671406e-38
0.94904244 -0.13185644 0.090522103 1.6622225e-38
0.94904244 -0.12935644 0.088022105 1.6438554e-38
0.94904244 -0.12935644 0.090522103 1.6346718e-38
0.95154244 -0.13185644 0.090522103 1.6530389e-38
0.95154244 -0.12935644 0.090522103 1.6071212e-38
0.95404243 -0.13685644 0.083022103 1.7081402e-38
0.95404243 -0.13685644 0.0855221 1.6897731e-38
0.95404243 -0.13435644 0.083022103 1.7081402e-38
0.95404243 -0.13435644 0.0855221 1.6897731e-38
0.95654249 -0.13685644 0.083022103 1.6897731e-38
0.95654249 -0.13435644 0.083022103 1.6897731e-38
0.95404243 -0.13685644 0.088022105 1.6989567e-38
0.95404243 -0.13685644 0.090522103 1.6989567e-38
0.95404243 -0.13435644 0.088022105 1.6897731e-38
0.95404243 -0.13435644 0.090522103 1.6897731e-38
0.95654249 -0.13435644 0.088022105 1.6622225e-38
0.95404243 -0.13185644 0.083022103 1.6989567e-38
0.95404243 -0.13185644 0.0855221 1.6622225e-38
0.95404243 -0.12935644 0.083022103 1.671406e-38
0.95654249 -0.13185644 0.083022103 1.671406e-38
0.95654249 -0.12935644 0.083022103 1.6530389e-38
0.95404243 -0.13185644 0.088022105 1.671406e-38
0.95404243 -0.13185644 0.090522103 1.6622225e-38
0.95404243 -0.12935644 0.088022105 1.6438554e-38
0.95404243 -0.12935644 0.090522103 1.6438554e-38
0.95654249 -0.13185644 0.088022105 1.671406e-38
0.94904244 -0.13685644 0.095522106 1.7265073e-38
0.95154244 -0.13685644 0.093022101 1.7081402e-38
0.95154244 -0.13685644 0.095522106 1.6989567e-38
0.95154244 -0.13435644 0.093022101 1.6989567e-38
0.95154244 -0.13435644 0.095522106 1.6989567e-38
0.95154244 -0.13185644 0.093022101 1.671406e-38
0.95154244 -0.13185644 0.095522106 1.6438554e-38
0.95154244 -0.12935644 0.093022101 1.6346718e-38
0.95154244 -0.12935644 0.095522106 1.6346718e-38
0.95404243 -0.13685644 0.095522106 1.9009948e-38
0.95404243 -0.13435644 0.095522106 1.855077e-38
0.95654249 -0.13685644 0.093022101 1.6897731e-38
0.95654249 -0.13685644 0.095522106 1.8734441e-38
0.95654249 -0.13435644 0.093022101 1.6897731e-38
0.95654249 -0.13435644 0.095522106 1.8734441e-38
0.95404243 -0.13685644 0.098022103 1.9949185e-38
0.95404243 -0.13435644 0.098022103 1.9766217e-38
0.95404243 -0.13185644 0.095522106 1.7816086e-38
0.95404243 -0.12935644 0.095522106 1.6805896e-38
0.95654249 -0.13185644 0.093022101 1.6438554e-38
0.95654249 -0.13185644 0.095522106 1.7999757e-38
0.95654249 -0.12935644 0.093022101 1.6530389e-38
0.95654249 -0.12935644 0.095522106 1.7081402e-38
0.95404243 -0.13185644 0.098022103 2.3068037e-38
0.95404243 -0.12935644 0.098022103 1.9102145e-38
0.95904249 -0.13935645 0.095522106 2.2794673e-38
0.95904249 -0.13685644 0.095522106 2.1875215e-38
0.95904249 -0.13435644 0.095522106 2.1875215e-38
0.95904249 -0.13685644 0.098022103 2.0227902e-38
0.95904249 -0.12935644 0.095522106 1.9285463e-38
0.95904249 -0.12935644 0.098022103 1.8642618e-38
0.94154245 -0.12185644 0.0705221 1.754058e-38
0.94154245 -0.11935645 0.0705221 1.754058e-38
0.94404244 -0.12685645 0.068022102 1.8826341e-38
0.94404244 -0.12685645 0.0705221 1.781609e-38
0.94404244 -0.12435644 0.068022102 1.8367099e-38
0.94404244 -0.12435644 0.0705221 1.7632415e-38
0.94654244 -0.12685645 0.0705221 1.7907922e-38
0.94654244 -0.12435644 0.0705221 1.7448744e-38
0.94404244 -0.12185644 0.068022102 1.8275283e-38
0.94404244 -0.12185644 0.0705221 1.7265073e-38
0.94404244 -0.11935645 0.068022102 1.836712e-38
0.94404244 -0.11935645 0.0705221 1.7724251e-38
0.94654244 -0.12185644 0.0705221 1.7265073e-38
0.94654244 -0.11935645 0.0705221 1.7448747e-38
0.94404244 -0.12435644 0.073022105 1.7173238e-38
0.94654244 -0.12685645 0.073022105 1.7724251e-38
0.94654244 -0.12435644 0.073022105 1.754058e-38
0.94654244 -0.12435644 0.075522102 1.7173238e-38
0.94404244 -0.12435644 0.080522105 1.7265073e-38
0.94654244 -0.12685645 0.0780221 1.7265073e-38
0.94654244 -0.12435644 0.0780221 1.6897731e-38
0.94404244 -0.12185644 0.073022105 1.7265073e-38
0.94404244 -0.11935645 0.073022105 1.7448744e-38
0.94654244 -0.12185644 0.073022105 1.6805896e-38
0.94654244 -0.12185644 0.075522102 1.7081402e-38
0.94654244 -0.11935645 0.073022105 1.7173238e-38
0.94404244 -0.12185644 0.080522105 1.7081402e-38
0.94654244 -0.12185644 0.0780221 1.6989567e-38
0.94154245 -0.11685644 0.0705221 1.7816092e-38
0.94404244 -0.11685644 0.073022105 1.7632415e-38
0.93904245 -0.12435644 0.0855221 1.671406e-38
0.94154245 -0.12435644 0.083022103 1.6989567e-38
0.93904245 -0.12435644 0.090522103 1.6622225e-38
0.94154245 -0.12435644 0.088022105 1.671406e-38
0.94154245 -0.12435644 0.090522103 1.671406e-38
0.93904245 -0.12185644 0.0855221 1.671406e-38
0.94154245 -0.12185644 0.083022103 1.6897731e-38
0.93904245 -0.12185644 0.090522103 1.671406e-38
0.93904245 -0.11935645 0.090522103 1.6805896e-38
0.94154245 -0.12185644 0.088022105 1.671406e-38
0.94154245 -0.12185644 0.090522103 1.671406e-38
0.94404244 -0.12685645 0.0855221 1.671406e-38
0.94404244 -0.12435644 0.083022103 1.6989567e-38
0.94404244 -0.12435644 0.0855221 1.6897731e-38
0.94654244 -0.12685645 0.083022103 1.671406e-38
0.94654244 -0.12685645 0.0855221 1.6897731e-38
0.94654244 -0.12435644 0.083022103 1.671406e-38
0.94654244 -0.12435644 0.0855221 1.671406e-38
0.94404244 -0.12685645 0.088022105 1.6622225e-38
0.94404244 -0.12435644 0.090522103 1.6622225e-38
0.94654244 -0.12685645 0.090522103 1.6438554e-38
0.94654244 -0.12435644 0.090522103 1.671406e-38
0.94404244 -0.12185644 0.083022103 1.7081402e-38
0.94404244 -0.12185644 0.0855221 1.6897731e-38
0.94404244 -0.11935645 0.083022103 1.6989567e-38
0.94654244 -0.12185644 0.083022103 1.6989567e-38
0.94654244 -0.12185644 0.0855221 1.6989567e-38
0.94654244 -0.11935645 0.083022103 1.7081402e-38
0.94404244 -0.12185644 0.090522103 1.6438554e-38
0.94154245 -0.12435644 0.093022101 1.6897731e-38
0.94154245 -0.12185644 0.093022101 1.671406e-38
0.94154245 -0.11935645 0.093022101 1.6805896e-38
0.94404244 -0.12435644 0.093022101 1.6622225e-38
0.94404244 -0.12185644 0.093022101 1.671406e-38
0.93904245 -0.11685644 0.090522103 1.6897731e-38
0.94154245 -0.11685644 0.093022101 1.7173238e-38
0.94904244 -0.12685645 0.068022102 1.8091593e-38
0.94904244 -0.12685645 0.0705221 1.8091593e-38
0.94904244 -0.12435644 0.068022102 1.7632415e-38
0.94904244 -0.12435644 0.0705221 1.7632415e-38
0.94904244 -0.12185644 0.068022102 1.754058e-38
0.94904244 -0.12185644 0.0705221 1.754058e-38
0.94904244 -0.11935645 0.068022102 1.754058e-38
0.94904244 -0.11935645 0.0705221 1.7448747e-38
0.95154244 -0.12185644 0.068022102 1.7265073e-38
0.95154244 -0.12185644 0.0705221 1.6897731e-38
0.95154244 -0.11935645 0.068022102 1.7724251e-38
0.95154244 -0.11935645 0.0705221 1.7632415e-38
0.95404243 -0.12185644 0.0705221 1.6989567e-38
0.94904244 -0.12685645 0.073022105 1.7632415e-38
0.94904244 -0.12685645 0.075522102 1.7356909e-38
0.94904244 -0.12435644 0.073022105 1.7356909e-38
0.94904244 -0.12435644 0.075522102 1.6989567e-38
0.95154244 -0.12685645 0.073022105 1.7632415e-38
0.95154244 -0.12685645 0.075522102 1.7632415e-38
0.95154244 -0.12435644 0.073022105 1.7265073e-38
0.94904244 -0.12685645 0.0780221 1.7265073e-38
0.94904244 -0.12685645 0.080522105 1.6989567e-38
0.94904244 -0.12435644 0.080522105 1.6989567e-38
0.95154244 -0.12685645 0.0780221 1.6989567e-38
0.94904244 -0.12185644 0.073022105 1.7448744e-38
0.94904244 -0.12185644 0.075522102 1.6897731e-38
0.95154244 -0.12185644 0.073022105 1.7081402e-38
0.94904244 -0.12185644 0.080522105 1.6897731e-38
0.94904244 -0.11685644 0.068022102 1.8091614e-38
0.94904244 -0.11685644 0.0705221 1.8091593e-38
0.94904244 -0.12685645 0.083022103 1.671406e-38
0.94904244 -0.12435644 0.083022103 1.6897731e-38
0.95154244 -0.12685645 0.0855221 1.6622225e-38
0.95154244 -0.12435644 0.0855221 1.671406e-38
0.94904244 -0.12685645 0.088022105 1.6622225e-38
0.94904244 -0.12685645 0.090522103 1.6438554e-38
0.94904244 -0.12435644 0.088022105 1.6622225e-38
0.94904244 -0.12435644 0.090522103 1.6346718e-38
0.95154244 -0.12685645 0.090522103 1.6254883e-38
0.95154244 -0.12435644 0.090522103 1.6622225e-38
0.94904244 -0.12185644 0.083022103 1.6989567e-38
0.95404243 -0.12685645 0.083022103 1.671406e-38
0.95404243 -0.12685645 0.0855221 1.6622225e-38
0.95654249 -0.12685645 0.083022103 1.6530389e-38
0.95404243 -0.12685645 0.088022105 1.6438554e-38
0.95404243 -0.12685645 0.090522103 1.6438554e-38
0.95404243 -0.12435644 0.088022105 1.6622225e-38
0.95404243 -0.12435644 0.090522103 1.6622225e-38
0.94904244 -0.12685645 0.095522106 1.6438554e-38
0.94904244 -0.12435644 0.095522106 1.6438554e-38
0.95154244 -0.12685645 0.093022101 1.6438554e-38
0.95154244 -0.12685645 0.095522106 1.6438554e-38
0.95154244 -0.12435644 0.093022101 1.6438554e-38
0.95154244 -0.12435644 0.095522106 1.6438554e-38
0.95404243 -0.12685645 0.095522106 1.671406e-38
0.95404243 -0.12435644 0.095522106 1.6438554e-38
0.95654249 -0.12685645 0.093022101 1.6622225e-38
0.95654249 -0.12685645 0.095522106 1.6989567e-38
0.95654249 -0.12435644 0.093022101 1.6438554e-38
0.95654249 -0.12435644 0.095522106 1.6438554e-38
0.95404243 -0.12685645 0.098022103 1.7356909e-38
0.95904249 -0.12685645 0.095522106 1.7816086e-38
0.79154247 -0.21435644 0.1080221 2.1924548e-38
0.79154247 -0.21435644 0.1105221 2.2292611e-38
0.79154247 -0.21185644 0.1080221 2.3479295e-38
0.79154247 -0.21185644 0.1105221 2.3476804e-38
0.79154247 -0.20935644 0.1080221 1.9112611e-38
0.79154247 -0.20935644 0.1105221 1.9204804e-38
0.79404247 -0.21435644 0.1055221 2.3481436e-38
0.79654247 -0.21435644 0.1055221 2.2017098e-38
0.79404247 -0.21685645 0.1080221 2.2477353e-38
0.79404247 -0.21685645 0.1105221 2.2570258e-38
0.79404247 -0.21435644 0.1080221 2.2107847e-38
0.79404247 -0.21435644 0.1105221 2.2291873e-38
0.79654247 -0.21435644 0.1080221 2.1925981e-38
0.79654247 -0.21435644 0.1105221 2.2108928e-38
0.79404247 -0.21185644 0.1055221 1.8316322e-38
0.79404247 -0.20935644 0.1055221 1.9112238e-38
0.79654247 -0.21185644 0.1030221 1.9759753e-38
0.79654247 -0.21185644 0.1055221 1.813051e-38
0.79654247 -0.20935644 0.1030221 1.5887541e-38
0.79654247 -0.20935644 0.1055221 1.8837449e-38
0.79404247 -0.21185644 0.1080221 2.3479661e-38
0.79404247 -0.21185644 0.1105221 2.3473543e-38
0.79404247 -0.20935644 0.1080221 1.9206579e-38
0.79654247 -0.21185644 0.1080221 1.7205704e-38
0.79654247 -0.21185644 0.1105221 2.347355e-38
0.79654247 -0.20935644 0.1080221 1.8929646e-38
0.79654247 -0.20935644 0.1105221 1.7454529e-38
0.79154247 -0.21435644 0.1130221 2.2200043e-38
0.79154247 -0.21435644 0.1155221 2.3120201e-38
0.79154247 -0.21435644 0.1180221 2.2660653e-38
0.79154247 -0.21435644 0.1205221 2.3489334e-38
0.79154247 -0.21185644 0.1130221 2.3470645e-38
0.79154247 -0.21185644 0.1155221 2.3466696e-38
0.79154247 -0.20935644 0.1155221 1.4611228e-38
0.79154247 -0.21185644 0.1180221 2.3465986e-38
0.79154247 -0.21185644 0.1205221 2.3212027e-38
0.79154247 -0.20935644 0.1180221 1.5341594e-38
0.79404247 -0.21435644 0.1130221 2.2292592e-38
0.79404247 -0.21435644 0.1155221 2.2659581e-38
0.79654247 -0.21435644 0.1155221 2.2936163e-38
0.79404247 -0.21435644 0.1180221 2.3303867e-38
0.79404247 -0.21435644 0.1205221 2.3026558e-38
0.79404247 -0.21185644 0.1130221 2.3470641e-38
0.79404247 -0.21185644 0.1155221 2.3466337e-38
0.79404247 -0.20935644 0.1130221 1.7087204e-38
0.79404247 -0.20935644 0.1155221 1.5071122e-38
0.79654247 -0.21185644 0.1130221 1.488778e-38
0.79654247 -0.21185644 0.1155221 2.3467062e-38
0.79654247 -0.20935644 0.1130221 1.5520574e-38
0.79654247 -0.20935644 0.1155221 1.561277e-38
0.79404247 -0.21185644 0.1180221 2.3466339e-38
0.79404247 -0.21185644 0.1205221 2.3462753e-38
0.79404247 -0.20935644 0.1180221 1.4976418e-38
0.79404247 -0.20935644 0.1205221 1.4696594e-38
0.79904246 -0.21185644 0.1130221 1.4793064e-38
0.79904246 -0.20935644 0.1130221 1.5244743e-38
0.79904246 -0.20935644 0.1155221 1.5061066e-38
0.78904247 -0.21685645 0.12552211 2.2571353e-38
0.78904247 -0.21435644 0.1230221 2.3398963e-38
0.78904247 -0.21435644 0.12552211 2.2572788e-38
0.79154247 -0.21685645 0.1230221 2.2662114e-38
0.79154247 -0.21435644 0.1230221 2.3490796e-38
0.79154247 -0.21435644 0.12552211 2.2846861e-38
0.78904247 -0.21435644 0.1280221 2.1358405e-38
0.79154247 -0.21435644 0.1280221 1.8651986e-38
0.78904247 -0.21185644 0.1230221 2.321457e-38
0.78904247 -0.21185644 0.12552211 2.3488625e-38
0.79154247 -0.21185644 0.1230221 2.3491156e-38
0.79154247 -0.21185644 0.12552211 2.349005e-38
0.79154247 -0.20935644 0.1230221 1.5152895e-38
0.78904247 -0.21185644 0.1280221 1.7387146e-38
0.79154247 -0.21185644 0.1280221 1.4693679e-38
0.79154247 -0.20935644 0.1280221 1.6167016e-38
0.79404247 -0.21685645 0.12552211 2.1172943e-38
0.79404247 -0.21435644 0.12552211 1.6647423e-38
0.79654247 -0.21685645 0.12552211 1.5724891e-38
0.79654247 -0.21435644 0.12552211 1.8282493e-38
0.79404247 -0.21685645 0.1280221 1.5727758e-38
0.79404247 -0.21435644 0.1280221 1.8561213e-38
0.79404247 -0.21435644 0.1305221 1.579574e-38
0.79654247 -0.21685645 0.1280221 1.3778553e-38
0.79654247 -0.21685645 0.1305221 1.5069631e-38
0.79654247 -0.21435644 0.1280221 1.487735e-38
0.79654247 -0.21435644 0.1305221 1.6071255e-38
0.79404247 -0.21185644 0.12552211 2.1602632e-38
0.79404247 -0.20935644 0.1230221 1.4418198e-38
0.79404247 -0.20935644 0.12552211 1.5520237e-38
0.79654247 -0.21185644 0.12552211 1.5336566e-38
0.79654247 -0.20935644 0.1230221 1.5520237e-38
0.79654247 -0.20935644 0.12552211 1.6531875e-38
0.79404247 -0.21185644 0.1280221 1.4601844e-38
0.79404247 -0.21185644 0.1305221 1.7173294e-38
0.79404247 -0.20935644 0.1280221 1.5703924e-38
0.79404247 -0.20935644 0.1305221 1.72651e-38
0.79654247 -0.21185644 0.1280221 1.5520232e-38
0.79654247 -0.21185644 0.1305221 1.74488e-38
0.79654247 -0.20935644 0.1280221 1.6163073e-38
0.79654247 -0.20935644 0.1305221 1.7356941e-38
0.79654247 -0.20935644 0.1330221 1.8550777e-38
0.79904246 -0.21685645 0.1280221 1.5340833e-38
0.79904246 -0.21685645 0.1305221 1.7369491e-38
0.79904246 -0.21435644 0.1280221 1.6071252e-38
0.79904246 -0.21435644 0.1305221 2.0221119e-38
0.80154246 -0.21435644 0.1305221 1.8381163e-38
0.79904246 -0.21185644 0.1280221 1.7540606e-38
0.79904246 -0.21185644 0.1305221 2.2788908e-38
0.79904246 -0.20935644 0.1280221 1.7265106e-38
0.79904246 -0.20935644 0.1305221 1.8827742e-38
0.80154246 -0.21185644 0.1305221 2.2699554e-38
0.80154246 -0.20935644 0.1305221 1.8551488e-38
0.80404246 -0.21685645 0.1280221 1.8747071e-38
0.79154247 -0.20685644 0.1080221 1.5887558e-38
0.79154247 -0.20685644 0.1105221 1.5795718e-38
0.79404247 -0.20685644 0.1055221 1.6530783e-38
0.79404247 -0.20435645 0.1055221 1.6533638e-38
0.79654247 -0.20685644 0.1030221 1.6073398e-38
0.79654247 -0.20685644 0.1055221 1.5705336e-38
0.79654247 -0.20435645 0.1030221 1.6714443e-38
0.79654247 -0.20435645 0.1055221 1.6716244e-38
0.79404247 -0.20685644 0.1080221 1.6438573e-38
0.79654247 -0.20685644 0.1080221 1.6072676e-38
0.79654247 -0.20685644 0.1105221 1.5703892e-38
0.79654247 -0.20435645 0.1080221 1.6348903e-38
0.79654247 -0.20435645 0.1105221 1.6071261e-38
0.79404247 -0.19935644 0.1030221 1.6714086e-38
0.79654247 -0.20185645 0.1030221 1.6989592e-38
0.79654247 -0.19935644 0.1030221 1.6805917e-38
0.79654247 -0.19935644 0.1055221 1.6622584e-38
0.79654247 -0.20185645 0.1080221 1.6531118e-38
0.79654247 -0.19935644 0.1080221 1.6346718e-38
0.79404247 -0.20685644 0.1130221 1.5980496e-38
0.79654247 -0.20685644 0.1130221 1.6071252e-38
0.79654247 -0.20685644 0.1155221 1.5704966e-38
0.79654247 -0.20435645 0.1130221 1.6071252e-38
0.79654247 -0.20435645 0.1155221 1.5887581e-38
0.79404247 -0.20685644 0.1180221 1.5520211e-38
0.79404247 -0.20685644 0.1205221 1.5520572e-38
0.79404247 -0.20435645 0.1180221 1.5888268e-38
0.79404247 -0.20435645 0.1205221 1.5428376e-38
0.79654247 -0.20685644 0.1205221 1.5703884e-38
0.79654247 -0.20435645 0.1205221 1.5520211e-38
0.79654247 -0.20185645 0.1130221 1.6071223e-38
0.79654247 -0.20185645 0.1155221 1.607158e-38
0.79654247 -0.19935644 0.1155221 1.5612034e-38
0.79404247 -0.20185645 0.1180221 1.6072296e-38
0.79404247 -0.20185645 0.1205221 1.570424e-38
0.79404247 -0.19935644 0.1180221 1.5244692e-38
0.79404247 -0.19935644 0.1205221 1.5336535e-38
0.79654247 -0.20185645 0.1205221 1.5520209e-38
0.79654247 -0.19935644 0.1180221 1.5061021e-38
0.79654247 -0.19935644 0.1205221 1.487735e-38
0.79404247 -0.19685644 0.1030221 1.6805918e-38
0.79404247 -0.19685644 0.1055221 1.6622232e-38
0.79404247 -0.19435644 0.1030221 1.6897743e-38
0.79654247 -0.19685644 0.1030221 1.6622239e-38
0.79654247 -0.19685644 0.1080221 1.6254901e-38
0.79654247 -0.18935645 0.1105221 1.6163049e-38
0.79154247 -0.18935645 0.1155221 1.6071212e-38
0.79154247 -0.18935645 0.1180221 1.5520199e-38
0.79154247 -0.18935645 0.1205221 1.5428363e-38
0.79654247 -0.19685644 0.1155221 1.5336549e-38
0.79654247 -0.19435644 0.1130221 1.5887549e-38
0.79654247 -0.19435644 0.1155221 1.5612034e-38
0.79404247 -0.19685644 0.1180221 1.5152857e-38
0.79404247 -0.19685644 0.1205221 1.5152857e-38
0.79404247 -0.19435644 0.1180221 1.5336549e-38
0.79404247 -0.19435644 0.1205221 1.5244727e-38
0.79654247 -0.19685644 0.1180221 1.5061021e-38
0.79654247 -0.19685644 0.1205221 1.487735e-38
0.79654247 -0.19435644 0.1180221 1.5336549e-38
0.79654247 -0.19435644 0.1205221 1.5152857e-38
0.79404247 -0.19185644 0.1130221 1.5887549e-38
0.79404247 -0.19185644 0.1155221 1.5703895e-38
0.79404247 -0.18935645 0.1130221 1.6163047e-38
0.79404247 -0.18935645 0.1155221 1.570387e-38
0.79654247 -0.19185644 0.1130221 1.5887541e-38
0.79654247 -0.19185644 0.1155221 1.5428363e-38
0.79654247 -0.18935645 0.1130221 1.5979376e-38
0.79654247 -0.18935645 0.1155221 1.5795705e-38
0.79404247 -0.19185644 0.1180221 1.5244692e-38
0.79404247 -0.19185644 0.1205221 1.5428363e-38
0.79404247 -0.18935645 0.1180221 1.5244692e-38
0.79404247 -0.18935645 0.1205221 1.5428363e-38
0.79654247 -0.19185644 0.1180221 1.5244692e-38
0.79654247 -0.19185644 0.1205221 1.5428363e-38
0.79654247 -0.18935645 0.1180221 1.5061021e-38
0.79654247 -0.18935645 0.1205221 1.5336528e-38
0.79904246 -0.20685644 0.1030221 1.6809159e-38
0.79904246 -0.20685644 0.1055221 1.6350705e-38
0.79904246 -0.20435645 0.1030221 1.6714091e-38
0.79904246 -0.20435645 0.1055221 1.7175781e-38
0.79904246 -0.20685644 0.1080221 1.6348903e-38
0.79904246 -0.20435645 0.1080221 1.5795728e-38
0.79904246 -0.20435645 0.1105221 1.6163092e-38
0.79904246 -0.20185645 0.1030221 1.6530412e-38
0.79904246 -0.20185645 0.1055221 1.6530412e-38
0.79904246 -0.19935644 0.1030221 1.6530406e-38
0.79904246 -0.19935644 0.1055221 1.6254895e-38
0.80154246 -0.20185645 0.1055221 1.5979735e-38
0.80154246 -0.19935644 0.1030221 1.6438557e-38
0.80154246 -0.19935644 0.1055221 1.625489e-38
0.79904246 -0.20185645 0.1080221 1.6254904e-38
0.79904246 -0.20185645 0.1105221 1.6163779e-38
0.79904246 -0.19935644 0.1080221 1.6071231e-38
0.79904246 -0.19935644 0.1105221 1.5979393e-38
0.80154246 -0.20185645 0.1080221 1.5979395e-38
0.80154246 -0.19935644 0.1080221 1.5795714e-38
0.80404246 -0.19935644 0.1030221 1.6530412e-38
0.79904246 -0.20685644 0.1130221 1.625527e-38
0.79904246 -0.20435645 0.1130221 1.6071593e-38
0.79904246 -0.20435645 0.1155221 1.5980834e-38
0.79904246 -0.20185645 0.1130221 1.5887548e-38
0.79904246 -0.20185645 0.1155221 1.5520572e-38
0.79904246 -0.19935644 0.1130221 1.5612044e-38
0.79904246 -0.19935644 0.1155221 1.5428368e-38
0.80154246 -0.19935644 0.1155221 1.5703878e-38
0.79904246 -0.20185645 0.1180221 1.5613476e-38
0.79904246 -0.19935644 0.1180221 1.5336532e-38
0.79904246 -0.19685644 0.1030221 1.6530406e-38
0.79904246 -0.19685644 0.1055221 1.634673e-38
0.79904246 -0.19435644 0.1030221 1.6438565e-38
0.80154246 -0.19685644 0.1030221 1.6622229e-38
0.80154246 -0.19685644 0.1055221 1.625489e-38
0.80154246 -0.19435644 0.1030221 1.6438565e-38
0.80154246 -0.19435644 0.1055221 1.6438564e-38
0.79904246 -0.19685644 0.1080221 1.5979386e-38
0.79904246 -0.19685644 0.1105221 1.5887591e-38
0.79904246 -0.19435644 0.1080221 1.6071212e-38
0.79904246 -0.19435644 0.1105221 1.6071217e-38
0.80154246 -0.19685644 0.1080221 1.6163054e-38
0.80154246 -0.19685644 0.1105221 1.5979378e-38
0.80154246 -0.19435644 0.1080221 1.6346727e-38
0.80154246 -0.19185644 0.1030221 1.6622239e-38
0.80154246 -0.19185644 0.1055221 1.6530392e-38
0.80154246 -0.18935645 0.1030221 1.6622249e-38
0.80154246 -0.18935645 0.1055221 1.6346718e-38
0.79904246 -0.19185644 0.1080221 1.5887541e-38
0.79904246 -0.19185644 0.1105221 1.6071217e-38
0.79904246 -0.18935645 0.1080221 1.6530399e-38
0.79904246 -0.18935645 0.1105221 1.6071212e-38
0.80154246 -0.19185644 0.1080221 1.6163047e-38
0.80154246 -0.18935645 0.1080221 1.6254901e-38
0.80154246 -0.18935645 0.1105221 1.6163049e-38
0.80404246 -0.19685644 0.1030221 1.6163063e-38
0.80404246 -0.19435644 0.1030221 1.6438565e-38
0.80404246 -0.19685644 0.1105221 1.5795718e-38
0.80404246 -0.19185644 0.1030221 1.6438554e-38
0.80404246 -0.19185644 0.1055221 1.6438561e-38
0.80404246 -0.18935645 0.1030221 1.6622249e-38
0.80404246 -0.18935645 0.1055221 1.6622244e-38
0.80404246 -0.18935645 0.1105221 1.634672e-38
0.80654246 -0.18935645 0.1080221 1.6071213e-38
0.79904246 -0.19685644 0.1130221 1.5520199e-38
0.79904246 -0.19685644 0.1155221 1.5244712e-38
0.79904246 -0.19435644 0.1130221 1.5428363e-38
0.79904246 -0.19435644 0.1155221 1.5152857e-38
0.80154246 -0.19685644 0.1155221 1.5520206e-38
0.79904246 -0.19685644 0.1180221 1.5428382e-38
0.79904246 -0.19685644 0.1205221 1.5428365e-38
0.79904246 -0.19435644 0.1180221 1.5428363e-38
0.80154246 -0.19435644 0.1180221 1.4969198e-38
0.79904246 -0.19185644 0.1130221 1.5703875e-38
0.79904246 -0.19185644 0.1155221 1.5336528e-38
0.79904246 -0.18935645 0.1130221 1.5612037e-38
0.79904246 -0.18935645 0.1155221 1.5612034e-38
0.79904246 -0.19185644 0.1180221 1.5336529e-38
0.79904246 -0.18935645 0.1180221 1.5428363e-38
0.80154246 -0.18935645 0.1180221 1.5336528e-38
0.80404246 -0.19685644 0.1130221 1.5244695e-38
0.80404246 -0.18935645 0.1180221 1.5336528e-38
0.79154247 -0.20685644 0.1230221 1.4234527e-38
0.79154247 -0.20435645 0.1230221 1.5703874e-38
0.79154247 -0.20685644 0.1280221 1.5981184e-38
0.79154247 -0.20435645 0.1280221 1.6805942e-38
0.79154247 -0.20185645 0.1230221 1.5703881e-38
0.79154247 -0.19935644 0.1230221 1.5520206e-38
0.79154247 -0.20185645 0.1280221 1.6163084e-38
0.79404247 -0.20685644 0.1230221 1.5703915e-38
0.79404247 -0.20685644 0.12552211 1.5244726e-38
0.79404247 -0.20435645 0.1230221 1.5795742e-38
0.79404247 -0.20435645 0.12552211 1.6622243e-38
0.79654247 -0.20685644 0.1230221 1.6071976e-38
0.79654247 -0.20685644 0.12552211 1.6071255e-38
0.79654247 -0.20435645 0.1230221 1.6163426e-38
0.79654247 -0.20435645 0.12552211 1.6347088e-38
0.79404247 -0.20685644 0.1280221 1.6163073e-38
0.79404247 -0.20685644 0.1305221 1.717325e-38
0.79404247 -0.20435645 0.1280221 1.6714067e-38
0.79404247 -0.20435645 0.1305221 1.7265089e-38
0.79654247 -0.20685644 0.1280221 1.6438554e-38
0.79654247 -0.20685644 0.1305221 1.6897759e-38
0.79654247 -0.20435645 0.1305221 1.7173238e-38
0.79404247 -0.20185645 0.1230221 1.5612037e-38
0.79404247 -0.20185645 0.12552211 1.6163061e-38
0.79404247 -0.19935644 0.1230221 1.5612037e-38
0.79404247 -0.19935644 0.12552211 1.5612034e-38
0.79654247 -0.20185645 0.1230221 1.5887544e-38
0.79654247 -0.20185645 0.12552211 1.6071224e-38
0.79654247 -0.19935644 0.1230221 1.5795707e-38
0.79654247 -0.19935644 0.12552211 1.5887541e-38
0.79404247 -0.20185645 0.1280221 1.6071212e-38
0.79404247 -0.20185645 0.1305221 1.7173253e-38
0.79404247 -0.19935644 0.1280221 1.6071212e-38
0.79404247 -0.19935644 0.1305221 1.7265073e-38
0.79654247 -0.20185645 0.1305221 1.7081402e-38
0.79654247 -0.19935644 0.1305221 1.6989567e-38
0.79404247 -0.20685644 0.1330221 1.837395e-38
0.79404247 -0.20435645 0.1330221 1.8282846e-38
0.79654247 -0.20685644 0.1330221 1.7455215e-38
0.79654247 -0.20685644 0.1355221 1.6438554e-38
0.79654247 -0.20435645 0.1330221 1.8371058e-38
0.79404247 -0.20185645 0.1330221 1.8740938e-38
0.79404247 -0.19935644 0.1330221 1.9290884e-38
0.79654247 -0.20185645 0.1330221 1.837248e-38
0.79154247 -0.19685644 0.1230221 1.5244715e-38
0.79154247 -0.19685644 0.12552211 1.5612034e-38
0.79154247 -0.19435644 0.1230221 1.5152888e-38
0.79154247 -0.19435644 0.12552211 1.5428363e-38
0.78904247 -0.19685644 0.1305221 1.6163047e-38
0.78904247 -0.19435644 0.1305221 1.5887541e-38
0.79154247 -0.19685644 0.1280221 1.570387e-38
0.79154247 -0.19435644 0.1280221 1.5795708e-38
0.79154247 -0.19185644 0.1230221 1.5336529e-38
0.79154247 -0.19185644 0.12552211 1.5428363e-38
0.79154247 -0.18935645 0.1230221 1.5336529e-38
0.78904247 -0.19185644 0.1305221 1.5887541e-38
0.79154247 -0.19185644 0.1280221 1.5520214e-38
0.79154247 -0.18935645 0.1280221 1.5520214e-38
0.79404247 -0.19685644 0.1230221 1.5336529e-38
0.79404247 -0.19685644 0.12552211 1.5612034e-38
0.79404247 -0.19435644 0.1230221 1.5244695e-38
0.79404247 -0.19435644 0.12552211 1.5428363e-38
0.79654247 -0.19685644 0.1230221 1.5428363e-38
0.79654247 -0.19685644 0.12552211 1.5612037e-38
0.79654247 -0.19435644 0.1230221 1.5336529e-38
0.79654247 -0.19435644 0.12552211 1.5703871e-38
0.79404247 -0.19685644 0.1280221 1.5795705e-38
0.79404247 -0.19685644 0.1305221 1.6989567e-38
0.79404247 -0.19435644 0.1280221 1.5795705e-38
0.79404247 -0.19435644 0.1305221 1.6805896e-38
0.79654247 -0.19685644 0.1280221 1.6071212e-38
0.79654247 -0.19685644 0.1305221 1.7081402e-38
0.79654247 -0.19435644 0.1280221 1.5795705e-38
0.79654247 -0.19435644 0.1305221 1.6805896e-38
0.79404247 -0.19185644 0.1230221 1.5428363e-38
0.79404247 -0.19185644 0.12552211 1.5244708e-38
0.79404247 -0.18935645 0.1230221 1.5336528e-38
0.79404247 -0.18935645 0.12552211 1.5244692e-38
0.79654247 -0.19185644 0.1230221 1.5336528e-38
0.79654247 -0.18935645 0.1230221 1.5244692e-38
0.79654247 -0.18935645 0.12552211 1.5520199e-38
0.79404247 -0.19185644 0.1280221 1.5612034e-38
0.79404247 -0.18935645 0.1280221 1.5520199e-38
0.79404247 -0.18935645 0.1305221 1.6530389e-38
0.79654247 -0.19185644 0.1305221 1.6530389e-38
0.79654247 -0.18935645 0.1280221 1.5795705e-38
0.79654247 -0.18935645 0.1305221 1.6438554e-38
0.78904247 -0.19685644 0.1330221 1.754058e-38
0.78904247 -0.19685644 0.1355221 1.9745028e-38
0.78904247 -0.19435644 0.1330221 1.7081402e-38
0.78904247 -0.19435644 0.1355221 1.9560997e-38
0.79154247 -0.19685644 0.1355221 1.8187374e-38
0.79154247 -0.19435644 0.1355221 1.8185613e-38
0.78904247 -0.19185644 0.1330221 1.6897731e-38
0.78904247 -0.19185644 0.1355221 1.8826301e-38
0.78904247 -0.18935645 0.1355221 1.8183476e-38
0.79404247 -0.19685644 0.1330221 1.9290518e-38
0.79404247 -0.19435644 0.1330221 1.9010692e-38
0.79904246 -0.20685644 0.1280221 1.6989574e-38
0.79904246 -0.20685644 0.1305221 1.8468295e-38
0.80154246 -0.20685644 0.1305221 1.7910818e-38
0.79904246 -0.20185645 0.1305221 1.9290884e-38
0.79904246 -0.19935644 0.1305221 1.9200125e-38
0.80154246 -0.20685644 0.1330221 1.6346718e-38
0.79904246 -0.18935645 0.1280221 1.6438554e-38
0.79654247 -0.18685645 0.1105221 1.634673e-38
0.79154247 -0.18685645 0.1155221 1.6163054e-38
0.79154247 -0.18685645 0.1180221 1.5887549e-38
0.79154247 -0.18685645 0.1205221 1.5336528e-38
0.79154247 -0.18435644 0.1180221 1.5795712e-38
0.79154247 -0.18435644 0.1205221 1.5244708e-38
0.79404247 -0.18685645 0.1155221 1.6346718e-38
0.79404247 -0.18435644 0.1155221 1.6071212e-38
0.79654247 -0.18685645 0.1130221 1.6071213e-38
0.79654247 -0.18685645 0.1155221 1.5887541e-38
0.79654247 -0.18435644 0.1155221 1.5612037e-38
0.79404247 -0.18685645 0.1180221 1.5244692e-38
0.79404247 -0.18685645 0.1205221 1.5428363e-38
0.79404247 -0.18435644 0.1180221 1.5336528e-38
0.79404247 -0.18435644 0.1205221 1.5428363e-38
0.79654247 -0.18685645 0.1205221 1.5428384e-38
0.79654247 -0.18435644 0.1180221 1.5336528e-38
0.79654247 -0.18435644 0.1205221 1.5428384e-38
0.79654247 -0.18185644 0.1155221 1.5612037e-38
0.79404247 -0.18185644 0.1205221 1.4969186e-38
0.79654247 -0.18185644 0.1180221 1.5612034e-38
0.79654247 -0.17935644 0.1180221 1.5520218e-38
0.80154246 -0.18685645 0.1055221 1.6163049e-38
0.80154246 -0.18435644 0.1055221 1.5061026e-38
0.79904246 -0.18685645 0.1105221 1.6346737e-38
0.80154246 -0.18685645 0.1080221 1.634673e-38
0.80154246 -0.18685645 0.1105221 1.616305e-38
0.80154246 -0.18435644 0.1080221 1.5428363e-38
0.80154246 -0.18435644 0.1105221 1.6254883e-38
0.80404246 -0.18685645 0.1030221 1.6622249e-38
0.80404246 -0.18685645 0.1055221 1.6346732e-38
0.80404246 -0.18435644 0.1030221 1.6261014e-38
0.80404246 -0.18435644 0.1055221 1.6996758e-38
0.80654246 -0.18685645 0.1030221 1.662223e-38
0.80654246 -0.18685645 0.1055221 1.6346724e-38
0.80654246 -0.18435644 0.1030221 1.6810607e-38
0.80654246 -0.18435644 0.1055221 1.7087525e-38
0.80404246 -0.18685645 0.1105221 1.6254887e-38
0.80404246 -0.18435644 0.1105221 1.6346718e-38
0.80654246 -0.18685645 0.1080221 1.6254898e-38
0.80654246 -0.18435644 0.1080221 1.6346749e-38
0.80654246 -0.18435644 0.1105221 1.6071236e-38
0.80404246 -0.18185644 0.1030221 1.7200622e-38
0.80404246 -0.18185644 0.1055221 1.8116076e-38
0.80404246 -0.17935644 0.1030221 1.6193307e-38
0.80404246 -0.17935644 0.1055221 1.8849338e-38
0.80654246 -0.18185644 0.1030221 1.600099e-38
0.80654246 -0.18185644 0.1055221 1.6640945e-38
0.80654246 -0.17935644 0.1030221 1.8029657e-38
0.80654246 -0.17935644 0.1055221 1.8753552e-38
0.80404246 -0.18185644 0.1105221 1.6163112e-38
0.80404246 -0.17935644 0.1105221 1.5887541e-38
0.80654246 -0.18185644 0.1080221 1.6254922e-38
0.80654246 -0.18185644 0.1105221 1.6071212e-38
0.80654246 -0.17935644 0.1080221 1.5152857e-38
0.80654246 -0.17935644 0.1105221 1.5428363e-38
0.79904246 -0.18685645 0.1130221 1.5887541e-38
0.79904246 -0.18685645 0.1155221 1.5612034e-38
0.79904246 -0.18435644 0.1130221 1.6163054e-38
0.79904246 -0.18435644 0.1155221 1.5612037e-38
0.79904246 -0.18685645 0.1180221 1.5244692e-38
0.79904246 -0.18435644 0.1180221 1.5244692e-38
0.79904246 -0.18435644 0.1205221 1.5428365e-38
0.80154246 -0.18685645 0.1180221 1.5336528e-38
0.80154246 -0.18435644 0.1205221 1.5244692e-38
0.79904246 -0.18185644 0.1155221 1.5612037e-38
0.80154246 -0.18185644 0.1155221 1.5612037e-38
0.80154246 -0.17935644 0.1155221 1.570387e-38
0.79904246 -0.18185644 0.1180221 1.5336528e-38
0.79904246 -0.18185644 0.1205221 1.5428366e-38
0.79904246 -0.17935644 0.1180221 1.5336528e-38
0.80154246 -0.18185644 0.1180221 1.5061021e-38
0.80154246 -0.18185644 0.1205221 1.5244692e-38
0.80154246 -0.17935644 0.1180221 1.5152857e-38
0.80154246 -0.17935644 0.1205221 1.5336529e-38
0.80404246 -0.18435644 0.1130221 1.579571e-38
0.80404246 -0.18685645 0.1180221 1.5336528e-38
0.80404246 -0.18685645 0.1205221 1.5336528e-38
0.80404246 -0.18185644 0.1130221 1.6071212e-38
0.80404246 -0.18185644 0.1155221 1.5612034e-38
0.80404246 -0.17935644 0.1130221 1.5795705e-38
0.80404246 -0.17935644 0.1155221 1.5336528e-38
0.80404246 -0.17935644 0.1180221 1.5795707e-38
0.79904246 -0.17435645 0.1030221 1.2607383e-38
0.79904246 -0.17435645 0.1055221 1.1686534e-38
0.80154246 -0.17685644 0.1030221 1.2699231e-38
0.80154246 -0.17685644 0.1055221 1.3979886e-38
0.80154246 -0.17435645 0.1030221 1.2699231e-38
0.80154246 -0.17435645 0.1055221 1.0951823e-38
0.79904246 -0.17435645 0.1080221 7.8189708e-39
0.80154246 -0.17685644 0.1080221 1.2503328e-38
0.80154246 -0.17435645 0.1080221 1.2503328e-38
0.80154246 -0.17435645 0.1105221 1.5155013e-38
0.79904246 -0.17185645 0.1030221 1.1599348e-38
0.79904246 -0.17185645 0.1055221 1.012389e-38
0.79904246 -0.16935644 0.1030221 1.2704987e-38
0.79904246 -0.16935644 0.1055221 1.2612423e-38
0.80154246 -0.17185645 0.1030221 1.1506792e-38
0.80154246 -0.17185645 0.1055221 1.0030595e-38
0.80154246 -0.16935644 0.1030221 1.4456706e-38
0.80154246 -0.16935644 0.1055221 1.2704253e-38
0.79904246 -0.17185645 0.1080221 9.4767153e-39
0.79904246 -0.16935644 0.1080221 1.1687205e-38
0.80154246 -0.17185645 0.1080221 1.2601643e-38
0.80154246 -0.17185645 0.1105221 1.4145941e-38
0.80154246 -0.16935644 0.1080221 1.2513372e-38
0.80154246 -0.16935644 0.1105221 9.5581083e-39
0.80404246 -0.17685644 0.1030221 1.4163927e-38
0.80404246 -0.17685644 0.1055221 1.3051453e-38
0.80404246 -0.17435645 0.1030221 1.1042221e-38
0.80404246 -0.17435645 0.1055221 1.259373e-38
0.80654246 -0.17685644 0.1030221 1.360175e-38
0.80654246 -0.17685644 0.1055221 1.5250117e-38
0.80404246 -0.17685644 0.1105221 1.55202e-38
0.80404246 -0.17435645 0.1105221 1.487735e-38
0.80654246 -0.17685644 0.1080221 1.5795712e-38
0.80654246 -0.17685644 0.1105221 1.5979378e-38
0.80654246 -0.17435645 0.1080221 1.487735e-38
0.80654246 -0.17435645 0.1105221 1.5152857e-38
0.80404246 -0.16935644 0.1030221 1.1875206e-38
0.80404246 -0.16935644 0.1055221 9.3819426e-39
0.80404246 -0.17185645 0.1105221 1.4236338e-38
0.80404246 -0.16935644 0.1105221 1.0016568e-38
0.80654246 -0.17185645 0.1105221 1.6163052e-38
0.80154246 -0.17685644 0.1155221 1.5428363e-38
0.80154246 -0.17435645 0.1155221 1.6163047e-38
0.80154246 -0.17685644 0.1180221 1.5061021e-38
0.80154246 -0.17685644 0.1205221 1.5336529e-38
0.80154246 -0.17435645 0.1180221 1.5061021e-38
0.80154246 -0.17435645 0.1205221 1.5244692e-38
0.79904246 -0.17185645 0.1130221 1.4877364e-38
0.79904246 -0.16935644 0.1130221 1.4418179e-38
0.80154246 -0.17185645 0.1155221 1.6438554e-38
0.80154246 -0.16935644 0.1155221 1.6254883e-38
0.80154246 -0.17185645 0.1180221 1.5612034e-38
0.80154246 -0.17185645 0.1205221 1.5612034e-38
0.80154246 -0.16935644 0.1180221 1.5520199e-38
0.80154246 -0.16935644 0.1205221 1.5520199e-38
0.80404246 -0.17685644 0.1130221 1.5795705e-38
0.80404246 -0.17685644 0.1155221 1.570387e-38
0.80404246 -0.17435645 0.1130221 1.5612034e-38
0.80404246 -0.17435645 0.1155221 1.5979376e-38
0.80404246 -0.17685644 0.1180221 1.5612034e-38
0.80404246 -0.17685644 0.1205221 1.5428363e-38
0.80404246 -0.17435645 0.1180221 1.5612034e-38
0.80404246 -0.17435645 0.1205221 1.5428363e-38
0.80404246 -0.17185645 0.1130221 1.6254883e-38
0.80404246 -0.17185645 0.1155221 1.5979376e-38
0.80404246 -0.16935644 0.1130221 1.5612075e-38
0.80404246 -0.17185645 0.1180221 1.5612051e-38
0.80404246 -0.16935644 0.1180221 1.570387e-38
0.80404246 -0.16935644 0.1205221 1.5336528e-38
0.79154247 -0.18685645 0.1230221 1.5428363e-38
0.79154247 -0.18435644 0.1230221 1.5428363e-38
0.79154247 -0.18185644 0.1230221 1.5336528e-38
0.79404247 -0.18685645 0.1230221 1.5336528e-38
0.79404247 -0.18685645 0.12552211 1.5061021e-38
0.79404247 -0.18435644 0.1230221 1.54284e-38
0.79404247 -0.18435644 0.12552211 1.5428363e-38
0.79654247 -0.18685645 0.1230221 1.5244692e-38
0.79654247 -0.18685645 0.12552211 1.5520199e-38
0.79654247 -0.18435644 0.1230221 1.5244695e-38
0.79654247 -0.18435644 0.12552211 1.5520199e-38
0.79404247 -0.18685645 0.1280221 1.5612034e-38
0.79404247 -0.18435644 0.1280221 1.5520199e-38
0.79654247 -0.18685645 0.1280221 1.5887541e-38
0.79654247 -0.18685645 0.1305221 1.6438554e-38
0.79654247 -0.18435644 0.1280221 1.5887541e-38
0.79404247 -0.18185644 0.1230221 1.5612034e-38
0.79404247 -0.18185644 0.12552211 1.5336528e-38
0.79404247 -0.17935644 0.1230221 1.5244712e-38
0.79654247 -0.18185644 0.1230221 1.5336529e-38
0.79654247 -0.18185644 0.12552211 1.5612034e-38
0.79654247 -0.17935644 0.1230221 1.5428363e-38
0.79654247 -0.17935644 0.12552211 1.5336528e-38
0.79404247 -0.18185644 0.1280221 1.570387e-38
0.79654247 -0.18185644 0.1280221 1.6163047e-38
0.79654247 -0.17935644 0.1280221 1.5887541e-38
0.79404247 -0.17685644 0.1230221 1.5336528e-38
0.79654247 -0.17685644 0.1230221 1.5336528e-38
0.79654247 -0.17685644 0.12552211 1.5612034e-38
0.79654247 -0.17435645 0.1230221 1.5428363e-38
0.79654247 -0.17435645 0.12552211 1.5612034e-38
0.79654247 -0.17685644 0.1280221 1.5887541e-38
0.79654247 -0.17435645 0.1280221 1.5979376e-38
0.79654247 -0.17185645 0.1230221 1.5428363e-38
0.79904246 -0.18435644 0.12552211 1.5520199e-38
0.79904246 -0.18685645 0.1280221 1.6438554e-38
0.79904246 -0.18685645 0.1305221 1.7081402e-38
0.79904246 -0.18435644 0.1280221 1.6346718e-38
0.79904246 -0.18435644 0.1305221 1.754058e-38
0.80154246 -0.18685645 0.1280221 1.7448744e-38
0.80154246 -0.18435644 0.1280221 1.7265073e-38
0.79904246 -0.18185644 0.1230221 1.5244692e-38
0.79904246 -0.18185644 0.12552211 1.5520199e-38
0.79904246 -0.17935644 0.1230221 1.5336528e-38
0.79904246 -0.17935644 0.12552211 1.5428363e-38
0.80154246 -0.18185644 0.12552211 1.6163047e-38
0.80154246 -0.17935644 0.12552211 1.6254883e-38
0.79904246 -0.18185644 0.1280221 1.6346718e-38
0.79904246 -0.18185644 0.1305221 1.6622225e-38
0.79904246 -0.17935644 0.1280221 1.6254883e-38
0.79904246 -0.17935644 0.1305221 1.6438554e-38
0.80154246 -0.17935644 0.1280221 1.6438554e-38
0.80404246 -0.18435644 0.1280221 1.8091593e-38
0.80654246 -0.18685645 0.1280221 1.8183428e-38
0.80654246 -0.18435644 0.1280221 1.7632426e-38
0.80404246 -0.18185644 0.1280221 1.6622225e-38
0.80404246 -0.17935644 0.1280221 1.6254883e-38
0.80654246 -0.18185644 0.1280221 1.9752566e-38
0.80654246 -0.17935644 0.1280221 1.8183428e-38
0.79904246 -0.17685644 0.1230221 1.5428365e-38
0.79904246 -0.17685644 0.12552211 1.5612034e-38
0.79904246 -0.17435645 0.1230221 1.5336528e-38
0.79904246 -0.17435645 0.12552211 1.5612034e-38
0.80154246 -0.17685644 0.1230221 1.5612034e-38
0.80154246 -0.17685644 0.12552211 1.5979376e-38
0.80154246 -0.17435645 0.1230221 1.5612034e-38
0.80154246 -0.17435645 0.12552211 1.5979376e-38
0.79904246 -0.17685644 0.1280221 1.6071212e-38
0.79904246 -0.17435645 0.1280221 1.6163049e-38
0.80154246 -0.17685644 0.1280221 1.6071212e-38
0.80154246 -0.17685644 0.1305221 1.7724252e-38
0.80154246 -0.17435645 0.1280221 1.6071212e-38
0.80154246 -0.17435645 0.1305221 1.7724251e-38
0.79904246 -0.17185645 0.1230221 1.5336528e-38
0.79904246 -0.17185645 0.12552211 1.5428363e-38
0.79904246 -0.16935644 0.1230221 1.5520199e-38
0.79904246 -0.16935644 0.12552211 1.5428363e-38
0.80154246 -0.17185645 0.1230221 1.5520199e-38
0.80154246 -0.17185645 0.12552211 1.6163047e-38
0.80154246 -0.16935644 0.1230221 1.5428363e-38
0.80154246 -0.16935644 0.12552211 1.6163047e-38
0.79904246 -0.17185645 0.1280221 1.5979376e-38
0.79904246 -0.17185645 0.1305221 1.5887541e-38
0.79904246 -0.16935644 0.1280221 1.6163047e-38
0.79904246 -0.16935644 0.1305221 1.5795705e-38
0.80154246 -0.17185645 0.1280221 1.6071212e-38
0.80154246 -0.17185645 0.1305221 1.7632415e-38
0.80154246 -0.16935644 0.1280221 1.6071212e-38
0.80404246 -0.17685644 0.12552211 1.5887541e-38
0.80654246 -0.17685644 0.12552211 1.6071212e-38
0.80404246 -0.17685644 0.1280221 1.6071212e-38
0.80404246 -0.17685644 0.1305221 2.0115263e-38
0.80404246 -0.17435645 0.1280221 1.6071212e-38
0.80654246 -0.17685644 0.1280221 1.7724251e-38
0.80404246 -0.16935644 0.1230221 1.5612034e-38
0.80404246 -0.17185645 0.1280221 1.6163047e-38
0.80154246 -0.16685644 0.1030221 1.4920188e-38
0.80154246 -0.16685644 0.1055221 1.1782304e-38
0.80154246 -0.16435644 0.1030221 1.5841065e-38
0.80154246 -0.16685644 0.1080221 1.3250938e-38
0.80154246 -0.16685644 0.1105221 1.5827411e-38
0.80404246 -0.16685644 0.1030221 1.123273e-38
0.80404246 -0.16685644 0.1055221 1.0497334e-38
