# .PCD v0.7 - Point Cloud Data file format
VERSION 0.7
FIELDS x y z rgb
SIZE 4 4 4 4
TYPE F F F F
COUNT 1 1 1 1
WIDTH 988
HEIGHT 1
VIEWPOINT 0 0 0 1 0 0 0
POINTS 988
DATA ascii
0.9450047 -0.21053843 0.09459158 2.1214033e-38
0.9450047 -0.20803843 0.09459158 2.0755938e-38
0.9475047 -0.20803843 0.09459158 2.0663006e-38
0.9475047 -0.21053843 0.099591583 2.320014e-38
0.9500047 -0.22553843 0.097091585 2.2833556e-38
0.9500047 -0.22303843 0.097091585 2.3475297e-38
0.95250469 -0.22553843 0.09459158 2.2649891e-38
0.95250469 -0.22553843 0.097091585 2.3212054e-38
0.95250469 -0.22303843 0.09459158 2.2831024e-38
0.95250469 -0.22303843 0.097091585 2.3486798e-38
0.9500047 -0.22053844 0.097091585 2.2918526e-38
0.95250469 -0.22053844 0.09459158 2.3192609e-38
0.95250469 -0.22053844 0.097091585 2.3021172e-38
0.9500047 -0.21303843 0.099591583 2.3500504e-38
0.9500047 -0.20803843 0.099591583 2.3501591e-38
0.80000472 -0.19303843 0.064591579 1.717435e-38
0.80000472 -0.19053844 0.072091579 1.744876e-38
0.80000472 -0.18803842 0.077091582 1.698957e-38
0.80000472 -0.18803842 0.07959158 1.7173249e-38
0.80000472 -0.18803842 0.082091585 1.7173238e-38
0.80250472 -0.18803842 0.07959158 1.7081402e-38
0.80250472 -0.18803842 0.082091585 1.7173249e-38
0.80500472 -0.19053844 0.082091585 1.7081406e-38
0.80500472 -0.18803842 0.082091585 1.7081405e-38
0.80250472 -0.18303843 0.072091579 1.7728228e-38
0.80000472 -0.18053843 0.069591582 1.7357284e-38
0.80000472 -0.18053843 0.072091579 1.7265099e-38
0.80000472 -0.17803843 0.072091579 1.7265108e-38
0.80250472 -0.18053843 0.069591582 1.7265805e-38
0.80250472 -0.18053843 0.072091579 1.763748e-38
0.80250472 -0.17803843 0.072091579 1.7820774e-38
0.80500472 -0.17803843 0.072091579 1.5803623e-38
0.80750471 -0.18053843 0.072091579 1.5622108e-38
0.80750471 -0.17803843 0.072091579 1.6723784e-38
0.80000472 -0.18553843 0.074591585 1.7265086e-38
0.80000472 -0.18553843 0.077091582 1.7081406e-38
0.80000472 -0.18303843 0.074591585 1.7450918e-38
0.80000472 -0.18303843 0.077091582 1.4418173e-38
0.80250472 -0.18553843 0.074591585 1.6164845e-38
0.80250472 -0.18303843 0.074591585 1.6351039e-38
0.80250472 -0.18553843 0.07959158 1.671406e-38
0.80250472 -0.18553843 0.082091585 1.6163047e-38
0.80250472 -0.18303843 0.07959158 1.4327414e-38
0.80250472 -0.18303843 0.082091585 1.8317081e-38
0.80000472 -0.18053843 0.074591585 1.7545634e-38
0.80000472 -0.18053843 0.077091582 1.1754944e-38
0.80000472 -0.17803843 0.077091582 1.3136065e-38
0.80250472 -0.18053843 0.074591585 1.5160771e-38
0.80250472 -0.17803843 0.074591585 1.2950247e-38
0.80250472 -0.18053843 0.07959158 1.0652932e-38
0.80250472 -0.18053843 0.082091585 1.7682813e-38
0.80250472 -0.17803843 0.07959158 1.2243288e-38
0.80250472 -0.17803843 0.082091585 1.5381517e-38
0.80500472 -0.18553843 0.077091582 1.4971719e-38
0.80500472 -0.18303843 0.077091582 1.432635e-38
0.80500472 -0.18553843 0.082091585 1.6163047e-38
0.80500472 -0.18303843 0.082091585 1.7580246e-38
0.80500472 -0.18053843 0.077091582 1.1665291e-38
0.80500472 -0.17803843 0.074591585 1.3596335e-38
0.80500472 -0.17803843 0.077091582 1.1671035e-38
0.80500472 -0.18053843 0.082091585 1.3440036e-38
0.80500472 -0.17803843 0.082091585 1.2519509e-38
0.80500472 -0.17553844 0.072091579 1.6258505e-38
0.80500472 -0.17303842 0.072091579 1.6258505e-38
0.80750471 -0.17553844 0.072091579 1.644431e-38
0.80750471 -0.17303842 0.072091579 1.699211e-38
0.80500472 -0.17053843 0.067091584 1.7632417e-38
0.80500472 -0.16803843 0.064591579 1.7173238e-38
0.80500472 -0.16803843 0.067091584 1.754058e-38
0.80500472 -0.16803843 0.069591582 1.7356917e-38
0.80500472 -0.16803843 0.072091579 1.7356947e-38
0.80750471 -0.16803843 0.072091579 1.7081437e-38
0.80000472 -0.17553844 0.077091582 1.3960789e-38
0.80000472 -0.17303842 0.077091582 1.4698347e-38
0.80250472 -0.17553844 0.074591585 1.304352e-38
0.80250472 -0.17303842 0.074591585 1.4785515e-38
0.80250472 -0.17553844 0.07959158 1.2770187e-38
0.80250472 -0.17553844 0.082091585 1.4736147e-38
0.80250472 -0.17303842 0.07959158 1.249396e-38
0.80250472 -0.17303842 0.082091585 1.4638604e-38
0.80250472 -0.17053843 0.074591585 1.5979385e-38
0.80250472 -0.17053843 0.07959158 1.4355878e-38
0.80250472 -0.17053843 0.082091585 1.4452037e-38
0.80500472 -0.17553844 0.077091582 1.1855428e-38
0.80500472 -0.17303842 0.077091582 1.2587225e-38
0.80500472 -0.17553844 0.082091585 1.2058531e-38
0.80500472 -0.17303842 0.082091585 1.5013473e-38
0.80500472 -0.17053843 0.074591585 1.5890786e-38
0.80500472 -0.17053843 0.077091582 1.3410872e-38
0.80500472 -0.16803843 0.074591585 1.6622233e-38
0.80500472 -0.16803843 0.077091582 1.3225748e-38
0.80750471 -0.16803843 0.074591585 1.3594543e-38
0.80500472 -0.17053843 0.07959158 1.3986367e-38
0.80500472 -0.17053843 0.082091585 1.7404814e-38
0.80500472 -0.16803843 0.07959158 1.0669084e-38
0.80500472 -0.16803843 0.082091585 1.8420392e-38
0.80000472 -0.20553844 0.092091583 1.7265827e-38
0.80000472 -0.20303842 0.092091583 1.7081436e-38
0.80000472 -0.20553844 0.097091585 1.6901358e-38
0.80000472 -0.20303842 0.097091585 1.6899559e-38
0.80000472 -0.20553844 0.099591583 1.6809159e-38
0.80000472 -0.20553844 0.10209158 1.6443607e-38
0.80000472 -0.19803843 0.097091585 1.6989579e-38
0.80250472 -0.19053844 0.084591582 1.7448767e-38
0.80250472 -0.19053844 0.08709158 1.6897757e-38
0.80250472 -0.18803842 0.084591582 1.7356928e-38
0.80250472 -0.18803842 0.08709158 1.6897757e-38
0.80250472 -0.19053844 0.089591585 1.6989579e-38
0.80250472 -0.19053844 0.092091583 1.6897754e-38
0.80250472 -0.18803842 0.089591585 1.7081416e-38
0.80250472 -0.18803842 0.092091583 1.6805917e-38
0.80500472 -0.19053844 0.084591582 1.6989586e-38
0.80500472 -0.19053844 0.08709158 1.6989579e-38
0.80500472 -0.18803842 0.08709158 1.6989579e-38
0.80500472 -0.19053844 0.089591585 1.6989598e-38
0.80500472 -0.19053844 0.092091583 1.6989579e-38
0.80500472 -0.18803842 0.089591585 1.5245769e-38
0.80500472 -0.18803842 0.092091583 1.6989579e-38
0.80750471 -0.19053844 0.089591585 1.7081416e-38
0.80750471 -0.18803842 0.089591585 1.6805918e-38
0.80000472 -0.19303843 0.097091585 1.6989578e-38
0.80250472 -0.19303843 0.097091585 1.6897743e-38
0.80000472 -0.19303843 0.099591583 1.6805907e-38
0.80000472 -0.19303843 0.10209158 1.6714069e-38
0.80250472 -0.19303843 0.10209158 1.6805913e-38
0.80000472 -0.19053844 0.097091585 1.698957e-38
0.80000472 -0.18803842 0.097091585 1.7173238e-38
0.80250472 -0.19053844 0.09459158 1.7173238e-38
0.80250472 -0.19053844 0.097091585 1.6897743e-38
0.80250472 -0.18803842 0.09459158 1.6805896e-38
0.80250472 -0.18803842 0.097091585 1.6805896e-38
0.80000472 -0.19053844 0.099591583 1.6805907e-38
0.80000472 -0.19053844 0.10209158 1.6714069e-38
0.80000472 -0.18803842 0.099591583 1.6989567e-38
0.80000472 -0.18803842 0.10209158 1.6989596e-38
0.80250472 -0.19053844 0.10209158 1.6805913e-38
0.80250472 -0.18803842 0.10209158 1.6805921e-38
0.80500472 -0.18803842 0.09459158 1.3688884e-38
0.80500472 -0.19053844 0.10209158 1.6989593e-38
0.80500472 -0.18803842 0.10209158 1.6622247e-38
0.80000472 -0.20053843 0.10709158 1.6622233e-38
0.80000472 -0.19803843 0.10709158 1.6254893e-38
0.80000472 -0.20303842 0.11709158 1.5520206e-38
0.80000472 -0.20053843 0.11709158 1.5244713e-38
0.80000472 -0.19803843 0.11709158 1.5244695e-38
0.80000472 -0.20053843 0.11959158 1.5795718e-38
0.80000472 -0.20053843 0.12209158 1.5887544e-38
0.80000472 -0.19803843 0.11959158 1.5336528e-38
0.80000472 -0.19803843 0.12209158 1.5612034e-38
0.80000472 -0.19553843 0.10709158 1.625489e-38
0.80000472 -0.19053844 0.10459158 1.6438554e-38
0.80000472 -0.19053844 0.10709158 1.6622226e-38
0.80000472 -0.18803842 0.10459158 1.653041e-38
0.80000472 -0.18803842 0.10709158 1.6622239e-38
0.80250472 -0.19053844 0.10459158 1.6438554e-38
0.80250472 -0.19053844 0.10709158 1.6438554e-38
0.80250472 -0.18803842 0.10459158 1.6622239e-38
0.80250472 -0.18803842 0.10709158 1.6438559e-38
0.80000472 -0.19053844 0.10959158 1.6163047e-38
0.80000472 -0.18803842 0.10959158 1.6346732e-38
0.80000472 -0.18803842 0.11209158 1.5795705e-38
0.80000472 -0.18803842 0.11459158 1.5795705e-38
0.80000472 -0.18803842 0.11709158 1.5612034e-38
0.80250472 -0.18553843 0.084591582 1.5795707e-38
0.80250472 -0.18303843 0.084591582 1.2047785e-38
0.80250472 -0.18553843 0.089591585 1.5336559e-38
0.80250472 -0.18303843 0.089591585 1.2786027e-38
0.80250472 -0.18053843 0.084591582 1.6666883e-38
0.80250472 -0.17803843 0.084591582 1.3531531e-38
0.80500472 -0.18553843 0.084591582 1.5612034e-38
0.80500472 -0.18553843 0.08709158 1.5428365e-38
0.80500472 -0.18303843 0.08709158 1.305975e-38
0.80500472 -0.18553843 0.089591585 1.5617792e-38
0.80500472 -0.18553843 0.092091583 1.5618901e-38
0.80500472 -0.18303843 0.089591585 1.5091647e-38
0.80500472 -0.18303843 0.092091583 1.343283e-38
0.80500472 -0.18053843 0.08709158 1.6575763e-38
0.80500472 -0.17803843 0.08709158 1.5100633e-38
0.80500472 -0.18053843 0.089591585 1.4176155e-38
0.80500472 -0.18053843 0.092091583 1.4176885e-38
0.80500472 -0.17803843 0.089591585 1.3807374e-38
0.80750471 -0.18053843 0.089591585 1.3900288e-38
0.80750471 -0.18053843 0.092091583 1.4175446e-38
0.80750471 -0.17803843 0.089591585 1.3531866e-38
0.80750471 -0.17803843 0.092091583 1.3715897e-38
0.80250472 -0.18553843 0.09459158 1.6179598e-38
0.80250472 -0.18303843 0.09459158 1.3433199e-38
0.80000472 -0.18553843 0.099591583 1.3229729e-38
0.80250472 -0.18553843 0.099591583 1.3962626e-38
0.80250472 -0.18553843 0.10209158 1.4785553e-38
0.80500472 -0.18553843 0.09459158 1.6178166e-38
0.80500472 -0.18553843 0.097091585 1.3688534e-38
0.80500472 -0.18303843 0.09459158 1.3249158e-38
0.80500472 -0.18303843 0.097091585 1.3341707e-38
0.80750471 -0.18553843 0.097091585 1.5995246e-38
0.80750471 -0.18303843 0.097091585 1.4170761e-38
0.80500472 -0.18553843 0.099591583 1.599093e-38
0.80500472 -0.18553843 0.10209158 1.4510021e-38
0.80500472 -0.18303843 0.099591583 1.4535938e-38
0.80500472 -0.18303843 0.10209158 1.4987911e-38
0.80750471 -0.18553843 0.099591583 1.5433048e-38
0.80750471 -0.18303843 0.099591583 1.4621312e-38
0.80500472 -0.18053843 0.09459158 1.3808092e-38
0.80500472 -0.18053843 0.097091585 1.4816468e-38
0.80500472 -0.17803843 0.09459158 1.3256721e-38
0.80750471 -0.18053843 0.097091585 1.261207e-38
0.80750471 -0.17803843 0.09459158 1.3164172e-38
0.80750471 -0.17803843 0.097091585 1.2704266e-38
0.80500472 -0.18053843 0.099591583 1.4814319e-38
0.80500472 -0.18053843 0.10209158 1.7477192e-38
0.80500472 -0.17803843 0.099591583 1.352971e-38
0.80500472 -0.17803843 0.10209158 1.3984202e-38
0.80750471 -0.18053843 0.099591583 1.5358877e-38
0.80750471 -0.18053843 0.10209158 1.7016563e-38
0.80750471 -0.17803843 0.099591583 1.3798018e-38
0.80250472 -0.17553844 0.084591582 1.2061052e-38
0.80250472 -0.17303842 0.084591582 1.5564125e-38
0.80250472 -0.17053843 0.084591582 1.676158e-38
0.80500472 -0.17553844 0.08709158 1.5466522e-38
0.80500472 -0.17303842 0.08709158 1.7862536e-38
0.80500472 -0.17553844 0.089591585 1.6114057e-38
0.80500472 -0.17303842 0.089591585 1.657541e-38
0.80750471 -0.17553844 0.089591585 1.4641077e-38
0.80750471 -0.17553844 0.092091583 1.3998229e-38
0.80750471 -0.17303842 0.089591585 1.3534382e-38
0.80750471 -0.17303842 0.092091583 1.0952902e-38
0.80500472 -0.17053843 0.084591582 1.7775373e-38
0.80500472 -0.17053843 0.08709158 1.5194993e-38
0.80500472 -0.16803843 0.084591582 1.7867221e-38
0.80500472 -0.16803843 0.08709158 1.6391005e-38
0.80500472 -0.17053843 0.089591585 1.5840362e-38
0.80500472 -0.16803843 0.089591585 1.6852343e-38
0.80750471 -0.17053843 0.089591585 1.298267e-38
0.80750471 -0.17053843 0.092091583 1.1599738e-38
0.80750471 -0.16803843 0.089591585 1.7588466e-38
0.80750471 -0.16803843 0.092091583 1.6205907e-38
0.80250472 -0.17553844 0.10209158 1.2331167e-38
0.80250472 -0.17303842 0.099591583 1.4180808e-38
0.80250472 -0.17303842 0.10209158 1.132348e-38
0.80250472 -0.17053843 0.099591583 1.2797515e-38
0.80250472 -0.17053843 0.10209158 1.1784458e-38
0.80250472 -0.16803843 0.099591583 1.5197861e-38
0.80250472 -0.16803843 0.10209158 1.4181564e-38
0.80500472 -0.17553844 0.09459158 1.4088623e-38
0.80500472 -0.17303842 0.09459158 1.417867e-38
0.80500472 -0.17303842 0.097091585 1.4731828e-38
0.80750471 -0.17553844 0.09459158 1.4549232e-38
0.80750471 -0.17553844 0.097091585 1.4271596e-38
0.80750471 -0.17303842 0.097091585 1.4823305e-38
0.80500472 -0.17553844 0.099591583 1.4270868e-38
0.80500472 -0.17553844 0.10209158 1.2053861e-38
0.80500472 -0.17303842 0.099591583 1.4271925e-38
0.80500472 -0.17053843 0.09459158 1.2337657e-38
0.80500472 -0.17053843 0.097091585 1.2338024e-38
0.80500472 -0.16803843 0.09459158 1.4918781e-38
0.80500472 -0.16803843 0.097091585 1.5196795e-38
0.80750471 -0.17053843 0.09459158 1.2245108e-38
0.80750471 -0.17053843 0.097091585 1.2520983e-38
0.80750471 -0.16803843 0.097091585 1.5287211e-38
0.80500472 -0.17053843 0.099591583 1.2062509e-38
0.80500472 -0.16803843 0.099591583 1.5289356e-38
0.81000471 -0.17803843 0.09459158 1.3624793e-38
0.81000471 -0.17553844 0.09459158 1.4454914e-38
0.80000472 -0.18553843 0.10459158 1.5152876e-38
0.80000472 -0.18553843 0.10709158 1.6622239e-38
0.80250472 -0.18553843 0.10459158 1.4694397e-38
0.80250472 -0.18553843 0.10709158 1.4969191e-38
0.80250472 -0.18303843 0.10459158 1.6262067e-38
0.80250472 -0.18303843 0.10709158 1.6810607e-38
0.80000472 -0.18553843 0.10959158 1.6346732e-38
0.80000472 -0.18553843 0.11209158 1.5795705e-38
0.80000472 -0.18303843 0.10959158 1.6993154e-38
0.80000472 -0.18303843 0.11209158 1.6163074e-38
0.80250472 -0.18553843 0.10959158 1.6346724e-38
0.80250472 -0.18303843 0.10959158 1.6254883e-38
0.80250472 -0.18303843 0.11209158 1.6071236e-38
0.80250472 -0.17803843 0.10459158 1.3979536e-38
0.80000472 -0.18053843 0.11209158 1.6254888e-38
0.80250472 -0.18053843 0.10959158 1.6346776e-38
0.80250472 -0.18053843 0.11209158 1.6071217e-38
0.80250472 -0.17803843 0.10959158 1.6163054e-38
0.80250472 -0.17803843 0.11209158 1.5795708e-38
0.80500472 -0.18303843 0.10459158 1.699606e-38
0.80500472 -0.18303843 0.10709158 1.6451201e-38
0.80500472 -0.18053843 0.10459158 1.8673254e-38
0.80500472 -0.18053843 0.10709158 1.6438613e-38
0.80500472 -0.17803843 0.10459158 1.3599953e-38
0.80500472 -0.17803843 0.10709158 1.5066802e-38
0.80750471 -0.18053843 0.10459158 1.8295113e-38
0.80500472 -0.18053843 0.10959158 1.5887541e-38
0.80500472 -0.18053843 0.11209158 1.5795705e-38
0.80500472 -0.17803843 0.10959158 1.5795708e-38
0.80500472 -0.17803843 0.11209158 1.5887549e-38
0.80750471 -0.18053843 0.10959158 1.5795708e-38
0.80750471 -0.18053843 0.11209158 1.5612034e-38
0.80750471 -0.17803843 0.10959158 1.5612037e-38
0.80000472 -0.18553843 0.11459158 1.5612034e-38
0.80000472 -0.18553843 0.11709158 1.5336528e-38
0.80000472 -0.18303843 0.11459158 1.5795712e-38
0.80000472 -0.18303843 0.11709158 1.5428384e-38
0.80250472 -0.18303843 0.11709158 1.5244692e-38
0.80000472 -0.18303843 0.11959158 1.5520225e-38
0.80000472 -0.18053843 0.11459158 1.5612034e-38
0.80000472 -0.18053843 0.11709158 1.5428365e-38
0.80000472 -0.17803843 0.11459158 1.5612034e-38
0.80000472 -0.17803843 0.11709158 1.5428382e-38
0.80250472 -0.18053843 0.11709158 1.5061021e-38
0.80250472 -0.17803843 0.11709158 1.5612034e-38
0.80000472 -0.18053843 0.11959158 1.5244692e-38
0.80000472 -0.17803843 0.11959158 1.5336528e-38
0.80500472 -0.18053843 0.11459158 1.5795708e-38
0.80500472 -0.17803843 0.11459158 1.5612034e-38
0.80000472 -0.17553844 0.10459158 1.1319885e-38
0.80000472 -0.17553844 0.10709158 1.1042602e-38
0.80000472 -0.17303842 0.10459158 1.0031691e-38
0.80000472 -0.17303842 0.10709158 1.0950047e-38
0.80250472 -0.17553844 0.10459158 1.1043653e-38
0.80250472 -0.17553844 0.10709158 8.2792455e-39
0.80250472 -0.17303842 0.10459158 9.9401975e-39
0.80250472 -0.17303842 0.10709158 9.5678319e-39
0.80250472 -0.17553844 0.10959158 1.5061042e-38
0.80250472 -0.17553844 0.11209158 1.5795705e-38
0.80250472 -0.17303842 0.10959158 1.4235619e-38
0.80250472 -0.17303842 0.11209158 1.5336528e-38
0.80000472 -0.17053843 0.10459158 1.132243e-38
0.80000472 -0.17053843 0.10709158 1.1229158e-38
0.80000472 -0.16803843 0.10459158 1.178301e-38
0.80000472 -0.16803843 0.10709158 1.2427679e-38
0.80250472 -0.17053843 0.10709158 1.0950766e-38
0.80250472 -0.16803843 0.10459158 1.1967407e-38
0.80250472 -0.16803843 0.10709158 9.5641871e-39
0.80250472 -0.17053843 0.10959158 1.3683521e-38
0.80250472 -0.17053843 0.11209158 1.4601855e-38
0.80250472 -0.16803843 0.10959158 1.6287669e-38
0.80250472 -0.16803843 0.11209158 1.1024206e-38
0.80500472 -0.17553844 0.10459158 8.1877519e-39
0.80500472 -0.17553844 0.10709158 1.2503334e-38
0.80500472 -0.17303842 0.10459158 9.5703346e-39
0.80500472 -0.17303842 0.10709158 1.2875353e-38
0.80500472 -0.17553844 0.10959158 1.5428393e-38
0.80500472 -0.17553844 0.11209158 1.6071222e-38
0.80500472 -0.17303842 0.10959158 1.5152883e-38
0.80500472 -0.17303842 0.11209158 1.6438564e-38
0.80750471 -0.17553844 0.10959158 1.5336556e-38
0.80750471 -0.17553844 0.11209158 1.570387e-38
0.80750471 -0.17303842 0.10959158 1.496921e-38
0.80750471 -0.17303842 0.11209158 1.5979376e-38
0.80500472 -0.17053843 0.10709158 1.278459e-38
0.80500472 -0.16803843 0.10459158 8.9217016e-39
0.80500472 -0.16803843 0.10709158 1.3249861e-38
0.80500472 -0.17053843 0.10959158 1.4785536e-38
0.80500472 -0.17053843 0.11209158 1.6163054e-38
0.80500472 -0.16803843 0.10959158 1.7570809e-38
0.80500472 -0.16803843 0.11209158 1.6530447e-38
0.80750471 -0.16803843 0.11209158 1.5612034e-38
0.80000472 -0.17553844 0.11459158 1.6071217e-38
0.80000472 -0.17553844 0.11709158 1.5795708e-38
0.80000472 -0.17303842 0.11459158 1.6163047e-38
0.80000472 -0.17303842 0.11709158 1.5795708e-38
0.80250472 -0.17553844 0.11709158 1.5428363e-38
0.80250472 -0.17303842 0.11709158 1.5520199e-38
0.80000472 -0.17553844 0.11959158 1.5612034e-38
0.80000472 -0.17303842 0.11959158 1.5520199e-38
0.80250472 -0.17303842 0.11959158 1.5520214e-38
0.80000472 -0.17053843 0.11709158 1.5979376e-38
0.80250472 -0.17053843 0.11709158 1.5520199e-38
0.80250472 -0.16803843 0.11709158 1.5428363e-38
0.80000472 -0.17053843 0.11959158 1.5336528e-38
0.80000472 -0.17053843 0.12209158 1.5612034e-38
0.80000472 -0.16803843 0.11959158 1.5336528e-38
0.80000472 -0.16803843 0.12209158 1.5428363e-38
0.80250472 -0.17053843 0.11959158 1.5520214e-38
0.80250472 -0.17053843 0.12209158 1.5887541e-38
0.80250472 -0.16803843 0.11959158 1.5336545e-38
0.80250472 -0.16803843 0.12209158 1.5428363e-38
0.80500472 -0.17553844 0.11459158 1.5612037e-38
0.80500472 -0.17303842 0.11459158 1.5612037e-38
0.80500472 -0.17303842 0.11709158 1.5520199e-38
0.80500472 -0.17053843 0.11459158 1.6071212e-38
0.80500472 -0.17053843 0.11709158 1.5520199e-38
0.80500472 -0.16803843 0.11459158 1.5520199e-38
0.80500472 -0.16803843 0.11709158 1.5336528e-38
0.80750471 -0.17053843 0.11459158 1.5703871e-38
0.80750471 -0.17053843 0.11709158 1.5612034e-38
0.80750471 -0.16803843 0.11459158 1.5703871e-38
0.80750471 -0.16803843 0.11709158 1.5612034e-38
0.80500472 -0.16803843 0.12209158 1.5612034e-38
0.80750471 -0.17053843 0.11959158 1.5520199e-38
0.80750471 -0.16803843 0.11959158 1.5612034e-38
0.81000471 -0.17553844 0.11459158 1.5520199e-38
0.81000471 -0.17303842 0.11459158 1.5336528e-38
0.81000471 -0.16803843 0.11459158 1.5428363e-38
0.81000471 -0.16803843 0.11709158 1.5152857e-38
0.80250472 -0.16303843 0.067091584 1.7265117e-38
0.80250472 -0.16553843 0.069591582 1.7448746e-38
0.80250472 -0.16553843 0.072091579 1.7632432e-38
0.80250472 -0.16303843 0.069591582 1.7265096e-38
0.80250472 -0.16303843 0.072091579 1.7540595e-38
0.80250472 -0.16053843 0.067091584 1.717329e-38
0.80250472 -0.15803844 0.067091584 1.6714062e-38
0.80250472 -0.16053843 0.069591582 1.7265084e-38
0.80250472 -0.16053843 0.072091579 1.7540591e-38
0.80250472 -0.15803844 0.069591582 1.7173246e-38
0.80250472 -0.15803844 0.072091579 1.735692e-38
0.80500472 -0.16553843 0.064591579 1.717328e-38
0.80500472 -0.16553843 0.067091584 1.7356927e-38
0.80500472 -0.16303843 0.064591579 1.7081457e-38
0.80500472 -0.16303843 0.067091584 1.7540599e-38
0.80500472 -0.16553843 0.069591582 1.7540591e-38
0.80500472 -0.16553843 0.072091579 1.7448757e-38
0.80500472 -0.16303843 0.069591582 1.7356919e-38
0.80500472 -0.16303843 0.072091579 1.7265084e-38
0.80750471 -0.16553843 0.072091579 1.7265084e-38
0.80750471 -0.16303843 0.072091579 1.7632438e-38
0.80500472 -0.16053843 0.064591579 1.7173294e-38
0.80500472 -0.16053843 0.067091584 1.7448781e-38
0.80500472 -0.15803844 0.064591579 1.671406e-38
0.80500472 -0.15803844 0.067091584 1.7173249e-38
0.80500472 -0.16053843 0.069591582 1.7540599e-38
0.80500472 -0.15803844 0.069591582 1.7265084e-38
0.80750471 -0.16053843 0.069591582 1.7448767e-38
0.80750471 -0.16053843 0.072091579 1.7356927e-38
0.80750471 -0.15803844 0.069591582 1.7173238e-38
0.80750471 -0.15803844 0.072091579 1.7356927e-38
0.80500472 -0.16553843 0.074591585 1.7542759e-38
0.80500472 -0.16553843 0.077091582 1.3320111e-38
0.80500472 -0.16303843 0.074591585 1.7635313e-38
0.80500472 -0.16303843 0.077091582 1.3596338e-38
0.80750471 -0.16553843 0.074591585 1.3227916e-38
0.80750471 -0.16553843 0.077091582 8.7301119e-39
0.80750471 -0.16303843 0.074591585 1.3594931e-38
0.80750471 -0.16303843 0.077091582 7.4393927e-39
0.80500472 -0.16553843 0.07959158 1.4085039e-38
0.80500472 -0.16553843 0.082091585 1.8512588e-38
0.80500472 -0.16303843 0.07959158 1.3900629e-38
0.80750471 -0.16553843 0.07959158 1.4822225e-38
0.80750471 -0.16553843 0.082091585 1.8880647e-38
0.80750471 -0.16303843 0.07959158 1.3531866e-38
0.80750471 -0.16303843 0.082091585 1.8788451e-38
0.80500472 -0.16053843 0.074591585 1.7726803e-38
0.80500472 -0.16053843 0.077091582 1.433357e-38
0.80500472 -0.15803844 0.074591585 1.7909396e-38
0.80500472 -0.15803844 0.077091582 1.4793106e-38
0.80750471 -0.16053843 0.074591585 1.4333216e-38
0.80750471 -0.16053843 0.077091582 8.8219473e-39
0.80750471 -0.15803844 0.077091582 1.0840921e-38
0.80500472 -0.16053843 0.07959158 1.2145331e-38
0.80500472 -0.16053843 0.082091585 1.7589189e-38
0.80500472 -0.15803844 0.07959158 1.2507277e-38
0.80500472 -0.15803844 0.082091585 1.6483212e-38
0.80750471 -0.16053843 0.07959158 1.2695616e-38
0.80750471 -0.16053843 0.082091585 1.8140564e-38
0.80750471 -0.15803844 0.07959158 1.2045224e-38
0.80750471 -0.15803844 0.082091585 1.6759078e-38
0.80250472 -0.15553842 0.069591582 1.7265084e-38
0.80250472 -0.15553842 0.072091579 1.7724276e-38
0.80250472 -0.15303843 0.069591582 1.7265084e-38
0.80250472 -0.15303843 0.072091579 1.7632438e-38
0.80250472 -0.15053843 0.072091579 1.7540592e-38
0.80250472 -0.14803843 0.072091579 1.7540599e-38
0.80500472 -0.15553842 0.067091584 1.6990294e-38
0.80500472 -0.15303843 0.067091584 1.735765e-38
0.80750471 -0.15553842 0.064591579 1.7082121e-38
0.80750471 -0.15303843 0.064591579 1.735765e-38
0.80500472 -0.15553842 0.069591582 1.6990294e-38
0.80500472 -0.15553842 0.072091579 1.7265094e-38
0.80500472 -0.15303843 0.069591582 1.7173257e-38
0.80500472 -0.15303843 0.072091579 1.7448769e-38
0.80750471 -0.15553842 0.072091579 1.754059e-38
0.80750471 -0.15303843 0.072091579 1.7724268e-38
0.80500472 -0.15053843 0.067091584 1.7081435e-38
0.80750471 -0.15053843 0.064591579 1.7081423e-38
0.80750471 -0.14803843 0.064591579 1.7081402e-38
0.80750471 -0.14803843 0.067091584 1.7356917e-38
0.80500472 -0.15053843 0.069591582 1.7356928e-38
0.80500472 -0.15053843 0.072091579 1.754059e-38
0.80500472 -0.14803843 0.069591582 1.7356928e-38
0.80500472 -0.14803843 0.072091579 1.7540599e-38
0.80750471 -0.15053843 0.072091579 1.7632429e-38
0.80750471 -0.14803843 0.069591582 1.744876e-38
0.80750471 -0.14803843 0.072091579 1.7540947e-38
0.80250472 -0.15553842 0.074591585 1.7450214e-38
0.80250472 -0.15303843 0.074591585 1.7726803e-38
0.80250472 -0.15553842 0.082091585 1.1393018e-38
0.80250472 -0.15303843 0.082091585 1.1393018e-38
0.80250472 -0.15053843 0.082091585 1.1853976e-38
0.80250472 -0.14803843 0.082091585 1.2771591e-38
0.80500472 -0.15553842 0.074591585 1.772644e-38
0.80500472 -0.15553842 0.077091582 1.5527409e-38
0.80500472 -0.15303843 0.074591585 1.8003019e-38
0.80500472 -0.15303843 0.077091582 1.5619604e-38
0.80750471 -0.15553842 0.077091582 1.2399244e-38
0.80750471 -0.15303843 0.077091582 1.3224313e-38
0.80500472 -0.15553842 0.07959158 1.2493963e-38
0.80500472 -0.15553842 0.082091585 1.6759797e-38
0.80500472 -0.15303843 0.07959158 1.2032625e-38
0.80500472 -0.15303843 0.082091585 1.4915184e-38
0.80750471 -0.15303843 0.082091585 1.4638573e-38
0.80500472 -0.15053843 0.074591585 1.7726434e-38
0.80500472 -0.15053843 0.077091582 1.5710708e-38
0.80500472 -0.14803843 0.074591585 1.8000501e-38
0.80500472 -0.14803843 0.077091582 1.644431e-38
0.80750471 -0.15053843 0.077091582 1.2122285e-38
0.80750471 -0.14803843 0.077091582 1.3224311e-38
0.80500472 -0.15053843 0.07959158 1.2765134e-38
0.80500472 -0.15053843 0.082091585 1.3994989e-38
0.80500472 -0.14803843 0.07959158 1.3775324e-38
0.80500472 -0.14803843 0.082091585 1.3259938e-38
0.81000471 -0.16053843 0.072091579 1.7360521e-38
0.81000471 -0.15803844 0.072091579 1.7452717e-38
0.81000471 -0.16303843 0.077091582 8.1773052e-39
0.80250472 -0.14303844 0.069591582 1.7173238e-38
0.80250472 -0.14303844 0.072091579 1.7448769e-38
0.80250472 -0.14053842 0.069591582 1.7081402e-38
0.80250472 -0.14053842 0.072091579 1.7448769e-38
0.80250472 -0.13803843 0.069591582 1.7173257e-38
0.80250472 -0.13803843 0.072091579 1.744876e-38
0.80500472 -0.14553843 0.067091584 1.7082858e-38
0.80500472 -0.14303844 0.067091584 1.7265802e-38
0.80750471 -0.14553843 0.064591579 1.7265805e-38
0.80750471 -0.14553843 0.067091584 1.7173246e-38
0.80750471 -0.14303844 0.064591579 1.6714796e-38
0.80500472 -0.14553843 0.069591582 1.7265084e-38
0.80500472 -0.14553843 0.072091579 1.7265084e-38
0.80500472 -0.14303844 0.069591582 1.7173257e-38
0.80500472 -0.14303844 0.072091579 1.7265114e-38
0.80750471 -0.14553843 0.069591582 1.7356916e-38
0.80750471 -0.14553843 0.072091579 1.7448764e-38
0.80750471 -0.14303844 0.072091579 1.7265084e-38
0.80500472 -0.14053842 0.067091584 1.7081771e-38
0.80500472 -0.13803843 0.067091584 1.7176147e-38
0.80750471 -0.14053842 0.064591579 1.7265097e-38
0.80750471 -0.13803843 0.064591579 1.6992105e-38
0.80750471 -0.13803843 0.067091584 1.6989599e-38
0.80500472 -0.14053842 0.069591582 1.6989588e-38
0.80500472 -0.14053842 0.072091579 1.7540626e-38
0.80500472 -0.13803843 0.069591582 1.7081783e-38
0.80500472 -0.13803843 0.072091579 1.7448757e-38
0.80750471 -0.14053842 0.072091579 1.7265087e-38
0.80750471 -0.13803843 0.069591582 1.7448771e-38
0.80750471 -0.13803843 0.072091579 1.744876e-38
0.80250472 -0.14303844 0.074591585 1.7173257e-38
0.80250472 -0.14053842 0.074591585 1.7265096e-38
0.80500472 -0.14553843 0.074591585 1.7910088e-38
0.80500472 -0.14553843 0.077091582 1.6897768e-38
0.80500472 -0.14303844 0.074591585 1.7265108e-38
0.80500472 -0.14303844 0.077091582 1.6622256e-38
0.80750471 -0.14553843 0.074591585 1.6715875e-38
0.80750471 -0.14553843 0.077091582 1.4142686e-38
0.80750471 -0.14303844 0.077091582 1.5429838e-38
0.80500472 -0.14553843 0.07959158 1.129578e-38
0.80500472 -0.14303844 0.07959158 1.1846785e-38
0.80750471 -0.14553843 0.07959158 1.1295798e-38
0.80750471 -0.14553843 0.082091585 1.4452042e-38
0.80750471 -0.14303844 0.07959158 1.2123048e-38
0.80750471 -0.14303844 0.082091585 1.279824e-38
0.80500472 -0.14053842 0.074591585 1.7632457e-38
0.80500472 -0.14053842 0.077091582 1.7081436e-38
0.80500472 -0.13803843 0.074591585 1.7265086e-38
0.80750471 -0.14053842 0.074591585 1.7448744e-38
0.80750471 -0.14053842 0.077091582 1.6532581e-38
0.80750471 -0.13803843 0.074591585 1.6989567e-38
0.80750471 -0.13803843 0.077091582 1.744876e-38
0.80750471 -0.14053842 0.07959158 1.4710248e-38
0.80750471 -0.14053842 0.082091585 1.2337985e-38
0.80750471 -0.13803843 0.07959158 1.6363318e-38
0.80750471 -0.13803843 0.082091585 1.5193179e-38
0.80500472 -0.13553843 0.067091584 1.7266902e-38
0.80750471 -0.13553843 0.064591579 1.7082152e-38
0.80750471 -0.13553843 0.067091584 1.6989599e-38
0.80750471 -0.13303843 0.067091584 1.6897771e-38
0.80500472 -0.13553843 0.069591582 1.7265106e-38
0.80750471 -0.13553843 0.069591582 1.7448769e-38
0.80750471 -0.13553843 0.072091579 1.7540606e-38
0.80750471 -0.13303843 0.069591582 1.7265111e-38
0.80750471 -0.13303843 0.072091579 1.7265805e-38
0.80750471 -0.13053843 0.069591582 1.7448771e-38
0.80750471 -0.13053843 0.072091579 1.7358e-38
0.80750471 -0.12803844 0.069591582 1.7356937e-38
0.80750471 -0.13553843 0.074591585 1.7081432e-38
0.81000471 -0.13803843 0.072091579 1.7356909e-38
0.81000471 -0.14053842 0.077091582 1.7356926e-38
0.81000471 -0.13803843 0.077091582 1.6897738e-38
0.81000471 -0.13803843 0.082091585 1.5286097e-38
0.81250471 -0.13803843 0.07959158 2.062807e-38
0.81000471 -0.13303843 0.067091584 1.7265117e-38
0.81250471 -0.13303843 0.064591579 1.7356963e-38
0.81000471 -0.13553843 0.072091579 1.7540606e-38
0.81000471 -0.13303843 0.072091579 1.7540608e-38
0.81250471 -0.13303843 0.069591582 1.7540606e-38
0.81250471 -0.13303843 0.072091579 1.7450199e-38
0.81000471 -0.13053843 0.067091584 1.7356945e-38
0.81000471 -0.12803844 0.067091584 1.7356945e-38
0.81250471 -0.13053843 0.064591579 1.6989621e-38
0.81250471 -0.12803844 0.064591579 1.6805907e-38
0.81250471 -0.12803844 0.067091584 1.744983e-38
0.81000471 -0.13053843 0.072091579 1.7448774e-38
0.81000471 -0.12803844 0.072091579 1.744876e-38
0.81250471 -0.13053843 0.069591582 1.72651e-38
0.81250471 -0.13053843 0.072091579 1.7267247e-38
0.81250471 -0.12803844 0.069591582 1.7356937e-38
0.81250471 -0.12803844 0.072091579 1.7632432e-38
0.81500471 -0.12803844 0.067091584 1.7816104e-38
0.81500471 -0.12803844 0.069591582 1.7816106e-38
0.81000471 -0.13553843 0.074591585 1.7081432e-38
0.81000471 -0.13553843 0.077091582 1.6897731e-38
0.81000471 -0.13303843 0.074591585 1.7356937e-38
0.81250471 -0.13553843 0.074591585 1.6622225e-38
0.81250471 -0.13303843 0.074591585 1.6805896e-38
0.81250471 -0.13303843 0.077091582 1.5796438e-38
0.81000471 -0.13553843 0.082091585 1.2244714e-38
0.81000471 -0.13303843 0.082091585 1.325924e-38
0.81250471 -0.13553843 0.07959158 2.0626976e-38
0.81250471 -0.13303843 0.07959158 2.043936e-38
0.81000471 -0.13053843 0.074591585 1.7448774e-38
0.81000471 -0.12803844 0.074591585 1.7448774e-38
0.81250471 -0.13053843 0.074591585 1.7081402e-38
0.81250471 -0.13053843 0.077091582 1.5428375e-38
0.81250471 -0.12803844 0.074591585 1.6989568e-38
0.81250471 -0.12803844 0.077091582 1.5612034e-38
0.81000471 -0.13053843 0.082091585 1.390461e-38
0.81000471 -0.12803844 0.082091585 1.4918781e-38
0.81250471 -0.13053843 0.07959158 1.9978382e-38
0.81250471 -0.13053843 0.082091585 1.3996822e-38
0.81250471 -0.12803844 0.07959158 1.9238652e-38
0.81250471 -0.12803844 0.082091585 1.5009898e-38
0.80500472 -0.16553843 0.084591582 1.7959417e-38
0.80500472 -0.16553843 0.08709158 1.6575037e-38
0.80500472 -0.16303843 0.084591582 1.8143786e-38
0.80750471 -0.16553843 0.08709158 1.7496604e-38
0.80750471 -0.16303843 0.08709158 1.6021115e-38
0.80500472 -0.16553843 0.089591585 1.6852343e-38
0.80500472 -0.16303843 0.089591585 1.7496604e-38
0.80750471 -0.16553843 0.089591585 1.7035293e-38
0.80750471 -0.16553843 0.092091583 1.5928962e-38
0.80750471 -0.16303843 0.089591585 1.7128545e-38
0.80750471 -0.16303843 0.092091583 1.6853426e-38
0.80500472 -0.16053843 0.084591582 1.7222189e-38
0.80500472 -0.15803844 0.084591582 1.5748154e-38
0.80750471 -0.16053843 0.08709158 1.371266e-38
0.80750471 -0.15803844 0.084591582 1.5100633e-38
0.80750471 -0.15803844 0.08709158 1.3349285e-38
0.80500472 -0.16053843 0.089591585 1.7033109e-38
0.80500472 -0.15803844 0.089591585 1.4641093e-38
0.80750471 -0.16053843 0.089591585 1.6943795e-38
0.80750471 -0.16053843 0.092091583 1.611623e-38
0.80750471 -0.15803844 0.089591585 1.4367028e-38
0.80750471 -0.15803844 0.092091583 1.501347e-38
0.80250472 -0.16553843 0.099591583 1.5657756e-38
0.80250472 -0.16553843 0.10209158 1.5010598e-38
0.80500472 -0.16553843 0.09459158 1.6297372e-38
0.80500472 -0.16553843 0.097091585 1.5010954e-38
0.80500472 -0.16303843 0.09459158 1.6115857e-38
0.80750471 -0.16553843 0.097091585 1.5009882e-38
0.80750471 -0.16303843 0.097091585 1.5287911e-38
0.80500472 -0.16553843 0.099591583 1.5470855e-38
0.80500472 -0.16553843 0.10209158 1.5932915e-38
0.80500472 -0.16303843 0.099591583 1.5378305e-38
0.80500472 -0.16303843 0.10209158 1.6573967e-38
0.80750471 -0.16303843 0.099591583 1.5836396e-38
0.80500472 -0.16053843 0.09459158 1.6485012e-38
0.80750471 -0.16053843 0.09459158 1.7222247e-38
0.80750471 -0.16053843 0.097091585 1.5286109e-38
0.80750471 -0.15803844 0.09459158 1.8142729e-38
0.80750471 -0.15803844 0.097091585 1.5562688e-38
0.80500472 -0.16053843 0.099591583 1.408539e-38
0.80500472 -0.16053843 0.10209158 1.4823671e-38
0.80500472 -0.15803844 0.10209158 1.4822632e-38
0.80750471 -0.16053843 0.099591583 1.4913348e-38
0.80750471 -0.15803844 0.099591583 1.463928e-38
0.80750471 -0.15803844 0.10209158 1.4733291e-38
0.80250472 -0.15553842 0.084591582 1.6118391e-38
0.80250472 -0.15303843 0.084591582 1.6303142e-38
0.80250472 -0.15053843 0.084591582 1.7132157e-38
0.80250472 -0.14803843 0.084591582 1.7036344e-38
0.80500472 -0.15553842 0.084591582 1.6300969e-38
0.80500472 -0.15553842 0.08709158 1.4368128e-38
0.80500472 -0.15303843 0.084591582 1.6118375e-38
0.80500472 -0.15303843 0.08709158 1.4552159e-38
0.80750471 -0.15553842 0.08709158 1.4271243e-38
0.80500472 -0.15553842 0.089591585 1.399717e-38
0.80500472 -0.15303843 0.089591585 1.2338007e-38
0.80750471 -0.15553842 0.089591585 1.5197148e-38
0.80750471 -0.15553842 0.092091583 1.5105665e-38
0.80750471 -0.15303843 0.089591585 1.1326003e-38
0.80750471 -0.15303843 0.092091583 1.0860681e-38
0.80500472 -0.15053843 0.08709158 1.6301688e-38
0.80500472 -0.14803843 0.08709158 1.7955448e-38
0.80500472 -0.15053843 0.089591585 1.2704985e-38
0.80500472 -0.14803843 0.089591585 1.3257427e-38
0.80750471 -0.15053843 0.089591585 1.1505739e-38
0.80750471 -0.15053843 0.092091583 1.5105315e-38
0.80750471 -0.14803843 0.089591585 1.3991036e-38
0.80750471 -0.14803843 0.092091583 1.6391005e-38
0.80500472 -0.15553842 0.09459158 1.5562658e-38
0.80500472 -0.15303843 0.09459158 1.067665e-38
0.80750471 -0.15553842 0.09459158 1.6483568e-38
0.80750471 -0.15553842 0.097091585 1.9151826e-38
0.80750471 -0.15303843 0.097091585 1.9428415e-38
0.80500472 -0.15303843 0.10209158 1.3625146e-38
0.80750471 -0.15553842 0.099591583 1.3074143e-38
0.80750471 -0.15553842 0.10209158 1.408687e-38
0.80750471 -0.15303843 0.099591583 1.2889366e-38
0.80750471 -0.15303843 0.10209158 1.3625849e-38
0.80500472 -0.15053843 0.09459158 1.0403338e-38
0.80750471 -0.15053843 0.09459158 1.5744907e-38
0.80750471 -0.15053843 0.097091585 1.8320991e-38
0.80750471 -0.14803843 0.09459158 1.574528e-38
0.80750471 -0.14803843 0.097091585 1.325814e-38
0.80750471 -0.15053843 0.099591583 1.3813483e-38
0.80750471 -0.15053843 0.10209158 1.4916238e-38
0.80750471 -0.14803843 0.099591583 1.6484287e-38
0.80750471 -0.14803843 0.10209158 1.6119471e-38
0.81000471 -0.16053843 0.09459158 1.5013122e-38
0.81000471 -0.15803844 0.09459158 1.7679593e-38
0.81000471 -0.15803844 0.097091585 1.5838551e-38
0.81000471 -0.15553842 0.092091583 1.5288615e-38
0.81000471 -0.15553842 0.09459158 1.8232408e-38
0.81000471 -0.15553842 0.097091585 1.7129653e-38
0.81000471 -0.15553842 0.099591583 1.4269096e-38
0.81000471 -0.15553842 0.10209158 1.5378308e-38
0.81000471 -0.14803843 0.09459158 1.3443256e-38
0.81000471 -0.15053843 0.099591583 1.6483565e-38
0.81000471 -0.14803843 0.099591583 1.6671552e-38
0.80000472 -0.16553843 0.10459158 1.1509316e-38
0.80250472 -0.16553843 0.10459158 1.1231652e-38
0.80250472 -0.16553843 0.10709158 1.0681727e-38
0.80250472 -0.16553843 0.10959158 1.5922125e-38
0.80250472 -0.16553843 0.11209158 1.8306572e-38
0.80500472 -0.16553843 0.10459158 1.0219322e-38
0.80500472 -0.16553843 0.10709158 1.3255287e-38
0.80500472 -0.16303843 0.10459158 1.703748e-38
0.80500472 -0.16303843 0.10709158 1.7027036e-38
0.80750471 -0.16553843 0.10459158 1.7405517e-38
0.80750471 -0.16303843 0.10459158 1.8048045e-38
0.80750471 -0.16303843 0.10709158 1.5551547e-38
0.80500472 -0.16553843 0.10959158 1.8123265e-38
0.80500472 -0.16553843 0.11209158 1.6805896e-38
0.80750471 -0.16553843 0.10959158 1.7293145e-38
0.80750471 -0.16553843 0.11209158 1.5336528e-38
0.80750471 -0.16303843 0.10959158 1.6643485e-38
0.80750471 -0.16303843 0.11209158 1.6163047e-38
0.80500472 -0.16053843 0.10459158 1.5747445e-38
0.80500472 -0.16053843 0.10709158 1.5917086e-38
0.80500472 -0.15803844 0.10459158 1.4639658e-38
0.80750471 -0.16053843 0.10459158 1.7034221e-38
0.80750471 -0.16053843 0.10709158 1.6291984e-38
0.80750471 -0.15803844 0.10459158 1.6666514e-38
0.80750471 -0.15803844 0.10709158 1.6845156e-38
0.80750471 -0.16053843 0.10959158 1.6459094e-38
0.80750471 -0.16053843 0.11209158 1.6163047e-38
0.80750471 -0.15803844 0.10959158 1.6714063e-38
0.80750471 -0.15803844 0.11209158 1.6438554e-38
0.80250472 -0.15803844 0.11959158 1.6254883e-38
0.80250472 -0.15803844 0.12209158 1.6071212e-38
0.80500472 -0.16553843 0.11459158 1.5336528e-38
0.80500472 -0.16553843 0.11709158 1.5428363e-38
0.80500472 -0.16303843 0.11459158 1.6071212e-38
0.80750471 -0.16553843 0.11459158 1.6071212e-38
0.80750471 -0.16553843 0.11709158 1.5612034e-38
0.80750471 -0.16303843 0.11459158 1.5979376e-38
0.80750471 -0.16303843 0.11709158 1.5795705e-38
0.80500472 -0.16553843 0.12209158 1.570387e-38
0.80500472 -0.16303843 0.12209158 1.5887541e-38
0.80750471 -0.16553843 0.11959158 1.5428363e-38
0.80750471 -0.16553843 0.12209158 1.6254883e-38
0.80750471 -0.16303843 0.11959158 1.570387e-38
0.80750471 -0.16303843 0.12209158 1.5979376e-38
0.80500472 -0.16053843 0.11459158 1.6071212e-38
0.80750471 -0.16053843 0.11459158 1.6071212e-38
0.80750471 -0.16053843 0.11709158 1.570387e-38
0.80750471 -0.15803844 0.11709158 1.6346718e-38
0.80500472 -0.16053843 0.12209158 1.5887541e-38
0.80500472 -0.15803844 0.12209158 1.6163047e-38
0.80750471 -0.16053843 0.11959158 1.570387e-38
0.80750471 -0.16053843 0.12209158 1.5979376e-38
0.80750471 -0.15803844 0.11959158 1.6254883e-38
0.80250472 -0.15303843 0.11209158 1.6438554e-38
0.80250472 -0.15053843 0.11209158 1.6530389e-38
0.80250472 -0.14803843 0.11209158 1.5983701e-38
0.80500472 -0.15303843 0.10459158 1.5837087e-38
0.80500472 -0.15303843 0.10709158 1.5556554e-38
0.80750471 -0.15553842 0.10709158 1.7661597e-38
0.80750471 -0.15303843 0.10459158 1.6663266e-38
0.80750471 -0.15303843 0.10709158 1.7020547e-38
0.80500472 -0.15303843 0.10959158 1.7296408e-38
0.80500472 -0.15303843 0.11209158 1.6530389e-38
0.80750471 -0.15553842 0.10959158 1.6622226e-38
0.80750471 -0.15553842 0.11209158 1.6254883e-38
0.80750471 -0.15303843 0.10959158 1.7204939e-38
0.80750471 -0.15303843 0.11209158 1.6163047e-38
0.80500472 -0.15053843 0.10709158 1.427267e-38
0.80500472 -0.14803843 0.10709158 1.491804e-38
0.80750471 -0.15053843 0.10459158 1.2518803e-38
0.80750471 -0.15053843 0.10709158 1.4087566e-38
0.80750471 -0.14803843 0.10459158 1.4642539e-38
0.80750471 -0.14803843 0.10709158 1.4825491e-38
0.80500472 -0.15053843 0.10959158 1.7481159e-38
0.80500472 -0.15053843 0.11209158 1.6622229e-38
0.80750471 -0.15053843 0.10959158 1.6750076e-38
0.80750471 -0.15053843 0.11209158 1.6163047e-38
0.80750471 -0.14803843 0.10959158 1.7303247e-38
0.80000472 -0.15303843 0.11709158 1.6346718e-38
0.80250472 -0.15553842 0.11709158 1.6897731e-38
0.80250472 -0.15303843 0.11709158 1.6989568e-38
0.80000472 -0.15303843 0.11959158 1.6897731e-38
0.80000472 -0.15303843 0.12209158 1.6805896e-38
0.80250472 -0.15553842 0.11959158 1.6714066e-38
0.80250472 -0.15553842 0.12209158 1.6622225e-38
0.80250472 -0.15303843 0.11959158 1.68059e-38
0.80250472 -0.15303843 0.12209158 1.6622225e-38
0.80000472 -0.15053843 0.11709158 1.6346718e-38
0.80000472 -0.14803843 0.11709158 1.671407e-38
0.80250472 -0.15053843 0.11709158 1.6989568e-38
0.80000472 -0.15053843 0.11959158 1.6897731e-38
0.80000472 -0.15053843 0.12209158 1.6805896e-38
0.80000472 -0.14803843 0.11959158 1.662223e-38
0.80000472 -0.14803843 0.12209158 1.6530394e-38
0.80250472 -0.15053843 0.11959158 1.671406e-38
0.80250472 -0.15053843 0.12209158 1.6897731e-38
0.80250472 -0.14803843 0.12209158 1.6530389e-38
0.80500472 -0.15303843 0.11459158 1.6254883e-38
0.80500472 -0.15303843 0.11709158 1.671406e-38
0.80750471 -0.15553842 0.11709158 1.6438554e-38
0.80750471 -0.15303843 0.11459158 1.6897733e-38
0.80500472 -0.15553842 0.12209158 1.6438554e-38
0.80750471 -0.15553842 0.11959158 1.6438554e-38
0.80500472 -0.15053843 0.11459158 1.6163047e-38
0.80500472 -0.14803843 0.11459158 1.5887541e-38
0.81000471 -0.16303843 0.10959158 1.6163047e-38
0.81000471 -0.15803844 0.10459158 1.6849829e-38
0.81000471 -0.16053843 0.10959158 1.6530389e-38
0.81000471 -0.15803844 0.10959158 1.6622226e-38
0.81000471 -0.15803844 0.11209158 1.671406e-38
0.81000471 -0.16553843 0.11459158 1.5336528e-38
0.81000471 -0.16553843 0.11709158 1.5336528e-38
0.81000471 -0.16303843 0.11459158 1.6071212e-38
0.81000471 -0.16303843 0.11709158 1.570387e-38
0.81250471 -0.16553843 0.11459158 1.5428363e-38
0.81250471 -0.16553843 0.11709158 1.5428363e-38
0.81000471 -0.16553843 0.11959158 1.5612034e-38
0.81000471 -0.16553843 0.12209158 1.6254883e-38
0.81000471 -0.16303843 0.11959158 1.6071212e-38
0.81000471 -0.16303843 0.12209158 1.6254883e-38
0.81000471 -0.16053843 0.11459158 1.6163047e-38
0.81000471 -0.16053843 0.11709158 1.5612054e-38
0.81000471 -0.15803844 0.11459158 1.6438559e-38
0.81000471 -0.15803844 0.11709158 1.6346718e-38
0.81250471 -0.15803844 0.11459158 1.6622225e-38
0.81000471 -0.16053843 0.11959158 1.6163047e-38
0.81000471 -0.16053843 0.12209158 1.6254883e-38
0.81000471 -0.15553842 0.10459158 1.7034939e-38
0.81000471 -0.15303843 0.10459158 1.7215012e-38
0.81000471 -0.15553842 0.10959158 1.6622225e-38
0.81000471 -0.15053843 0.10459158 1.3161654e-38
0.81000471 -0.15053843 0.10709158 1.7302529e-38
0.81000471 -0.14803843 0.10459158 1.4919485e-38
0.81000471 -0.14803843 0.10709158 1.7029183e-38
0.81250471 -0.15053843 0.10709158 1.6445049e-38
0.81250471 -0.14803843 0.10459158 1.4368126e-38
0.81250471 -0.14803843 0.10709158 1.7122816e-38
0.81000471 -0.15053843 0.10959158 1.5613136e-38
0.81000471 -0.14803843 0.10959158 1.5891505e-38
0.81250471 -0.15053843 0.10959158 1.6254883e-38
0.81000471 -0.15553842 0.11459158 1.671406e-38
0.81000471 -0.15303843 0.11459158 1.6897733e-38
0.80250472 -0.14553843 0.084591582 1.7128539e-38
0.80500472 -0.14553843 0.084591582 1.5932532e-38
0.80500472 -0.14553843 0.08709158 1.8140198e-38
0.80500472 -0.14303844 0.084591582 1.3438215e-38
0.80750471 -0.14553843 0.08709158 1.5381574e-38
0.80750471 -0.14303844 0.084591582 1.3255988e-38
0.80750471 -0.14303844 0.08709158 1.0310814e-38
0.80500472 -0.14553843 0.089591585 1.3718045e-38
0.80750471 -0.14553843 0.089591585 1.4913351e-38
0.80750471 -0.14553843 0.092091583 1.7220407e-38
0.80750471 -0.14303844 0.089591585 1.0032804e-38
0.80750471 -0.14303844 0.092091583 1.1314183e-38
0.80750471 -0.14053842 0.084591582 1.040336e-38
0.80750471 -0.14053842 0.08709158 9.1176606e-39
0.80750471 -0.13803843 0.084591582 1.3165638e-38
0.80750471 -0.13803843 0.08709158 1.4917669e-38
0.80750471 -0.14053842 0.089591585 1.1972819e-38
0.80750471 -0.14053842 0.092091583 1.2984446e-38
0.80750471 -0.13803843 0.089591585 1.6945946e-38
0.80750471 -0.13803843 0.092091583 1.6850178e-38
0.80750471 -0.14553843 0.09459158 1.6759432e-38
0.80750471 -0.14553843 0.097091585 1.325814e-38
0.80750471 -0.14303844 0.09459158 9.9355648e-39
0.80750471 -0.14303844 0.097091585 7.9065211e-39
0.80500472 -0.14553843 0.099591583 1.4733623e-38
0.80750471 -0.14553843 0.099591583 1.7129656e-38
0.80750471 -0.14553843 0.10209158 1.6661844e-38
0.80750471 -0.14303844 0.099591583 7.5305107e-39
0.80750471 -0.14303844 0.10209158 6.4284889e-39
0.80750471 -0.14053842 0.09459158 1.3170251e-38
0.80750471 -0.14053842 0.097091585 5.2425336e-39
0.80750471 -0.13803843 0.09459158 1.5835677e-38
0.80750471 -0.13803843 0.097091585 1.7130738e-38
0.80750471 -0.14053842 0.099591583 4.5021113e-39
0.80750471 -0.14053842 0.10209158 4.9612972e-39
0.80750471 -0.13803843 0.099591583 1.6945991e-38
0.80750471 -0.13803843 0.10209158 1.206177e-38
0.80750471 -0.13553843 0.08709158 1.3629446e-38
0.80750471 -0.13303843 0.08709158 1.4090071e-38
0.80750471 -0.13553843 0.089591585 1.3995711e-38
0.80750471 -0.13553843 0.092091583 1.4546732e-38
0.80750471 -0.13303843 0.089591585 1.4272299e-38
0.80750471 -0.13303843 0.092091583 1.4731125e-38
0.80750471 -0.13053843 0.08709158 1.4546364e-38
0.80750471 -0.12803844 0.08709158 1.3715544e-38
0.80750471 -0.13053843 0.089591585 1.3532244e-38
0.80750471 -0.13053843 0.092091583 1.427015e-38
0.80750471 -0.12803844 0.089591585 1.3256736e-38
0.80750471 -0.12803844 0.092091583 1.3073774e-38
0.80750471 -0.13553843 0.09459158 1.417867e-38
0.80750471 -0.13553843 0.097091585 1.6392814e-38
0.80750471 -0.13303843 0.09459158 1.4824039e-38
0.80750471 -0.13303843 0.097091585 1.5841421e-38
0.80750471 -0.13553843 0.099591583 1.6208426e-38
0.80750471 -0.13553843 0.10209158 1.1323847e-38
0.80750471 -0.13303843 0.099591583 1.5933262e-38
0.80750471 -0.13053843 0.09459158 1.4640377e-38
0.80750471 -0.13053843 0.097091585 1.5657753e-38
0.80750471 -0.12803844 0.09459158 1.4455983e-38
0.80750471 -0.13053843 0.099591583 1.5565204e-38
0.81000471 -0.14303844 0.084591582 4.7841339e-39
0.81000471 -0.14303844 0.08709158 4.0469009e-39
0.81000471 -0.14303844 0.092091583 3.6734198e-39
0.81000471 -0.14053842 0.084591582 9.7626979e-39
0.81000471 -0.14053842 0.08709158 9.3913748e-39
0.81000471 -0.13803843 0.084591582 1.4733668e-38
0.81000471 -0.13803843 0.08709158 1.2704972e-38
0.81000471 -0.14553843 0.09459158 1.335106e-38
0.81000471 -0.14303844 0.09459158 9.1939949e-39
0.81000471 -0.14553843 0.099591583 1.6671552e-38
0.81000471 -0.14303844 0.099591583 6.336652e-39
0.81000471 -0.14053842 0.09459158 1.5014173e-38
0.81000471 -0.13803843 0.09459158 1.6391738e-38
0.81000471 -0.14053842 0.099591583 4.8730701e-39
0.81000471 -0.14053842 0.10209158 4.7769088e-39
0.81000471 -0.13803843 0.099591583 1.445743e-38
0.81000471 -0.13803843 0.10209158 1.2246162e-38
0.81000471 -0.13553843 0.084591582 1.3260308e-38
0.81000471 -0.13553843 0.08709158 1.3629093e-38
0.81000471 -0.13303843 0.084591582 1.3352504e-38
0.81000471 -0.13303843 0.08709158 1.3997157e-38
0.81000471 -0.13053843 0.084591582 1.344179e-38
0.81000471 -0.12803844 0.084591582 1.2517356e-38
0.81000471 -0.12803844 0.08709158 1.3715544e-38
0.81000471 -0.12803844 0.092091583 1.316597e-38
0.81000471 -0.13553843 0.09459158 1.5011305e-38
0.81000471 -0.13303843 0.09459158 1.5011305e-38
0.81000471 -0.13553843 0.099591583 1.445743e-38
0.81000471 -0.13553843 0.10209158 1.1323847e-38
0.81000471 -0.13303843 0.099591583 1.5656321e-38
0.81000471 -0.13303843 0.10209158 1.2885766e-38
0.81000471 -0.13053843 0.09459158 1.5932912e-38
0.81000471 -0.13053843 0.097091585 1.538081e-38
0.81000471 -0.12803844 0.09459158 1.5931832e-38
0.81000471 -0.12803844 0.097091585 1.5563757e-38
0.81000471 -0.13053843 0.099591583 1.6025458e-38
0.81000471 -0.13053843 0.10209158 1.3437497e-38
0.81000471 -0.12803844 0.099591583 1.6024757e-38
0.81000471 -0.12803844 0.10209158 1.4362342e-38
0.81250471 -0.12803844 0.099591583 1.5932562e-38
0.81250471 -0.12803844 0.10209158 1.344002e-38
0.80250472 -0.14553843 0.11209158 1.5712917e-38
0.80500472 -0.14553843 0.10709158 1.5380478e-38
0.80500472 -0.14303844 0.10459158 1.5735553e-38
0.80500472 -0.14303844 0.10709158 1.7199883e-38
0.80750471 -0.14553843 0.10459158 1.501133e-38
0.80750471 -0.14553843 0.10709158 1.5104614e-38
0.80750471 -0.14303844 0.10459158 1.4999083e-38
0.80750471 -0.14303844 0.10709158 1.6281531e-38
0.80500472 -0.14303844 0.11209158 1.4050831e-38
0.80750471 -0.14553843 0.10959158 1.749016e-38
0.80750471 -0.14303844 0.10959158 1.8574533e-38
0.80750471 -0.14053842 0.10459158 8.0065892e-39
0.80750471 -0.14053842 0.10709158 8.6491476e-39
0.80500472 -0.14053842 0.11209158 1.1302665e-38
0.80500472 -0.13803843 0.11209158 1.7756359e-38
0.80750471 -0.14053842 0.10959158 1.1302662e-38
0.80750471 -0.13803843 0.10959158 1.7664159e-38
0.80750471 -0.13803843 0.11209158 1.645261e-38
0.80000472 -0.14553843 0.11709158 1.5428363e-38
0.80000472 -0.14303844 0.11709158 1.5336549e-38
0.80000472 -0.14553843 0.11959158 1.6438558e-38
