# .PCD v0.7 - Point Cloud Data file format
VERSION 0.7
FIELDS x y z rgb
SIZE 4 4 4 4
TYPE F F F F
COUNT 1 1 1 1
WIDTH 665
HEIGHT 1
VIEWPOINT 0 0 0 1 0 0 0
POINTS 665
DATA ascii
-0.055293046 0.1145741 0.99725008 2.0225361e-39
-0.055293046 0.11707411 0.99475008 3.6734899e-40
-0.055293046 0.11707411 0.99725008 3.6734198e-40
-0.055293046 0.11707411 0.99975008 3.6734198e-40
-0.055293046 0.1220741 0.9797501 1.2896822e-39
-0.055293046 0.12707411 0.97725004 1.7474991e-39
-0.055293046 0.12457411 0.9797501 2.0254368e-39
-0.055293046 0.12707411 0.9797501 0
-0.055293046 0.12957411 0.97725004 3.9611905e-39
-0.055293046 0.1320741 0.97725004 1.0141853e-38
-0.055293046 0.12957411 0.9797501 0
-0.055293046 0.1320741 0.9797501 6.9982933e-39
-0.057793047 0.1345741 0.97725004 1.8492656e-39
-0.057793047 0.13707411 0.97725004 3.6868065e-39
-0.055293046 0.1345741 0.97725004 1.0331241e-38
-0.055293046 0.13707411 0.97725004 1.0693674e-38
-0.057793047 0.1345741 0.9797501 1.8492656e-39
-0.055293046 0.1345741 0.9797501 1.3360804e-38
-0.057793047 0.1220741 0.98725009 6.9938652e-39
-0.055293046 0.1220741 0.98725009 9.2160738e-40
-0.057793047 0.1220741 0.99225008 7.2675879e-39
-0.055293046 0.11957411 0.98975009 1.0109247e-39
-0.055293046 0.1220741 0.99225008 1.105291e-39
-0.055293046 0.12457411 0.98475009 8.3229982e-40
-0.055293046 0.12457411 0.98725009 1.8410441e-39
-0.055293046 0.12707411 0.98475009 3.7097275e-40
-0.055293046 0.12707411 0.98725009 5.5317378e-40
-0.055293046 0.12457411 0.98975009 2.0250809e-39
-0.055293046 0.12457411 0.99225008 1.2896822e-39
-0.055293046 0.12707411 0.98975009 1.6559466e-39
-0.055293046 0.12707411 0.99225008 2.3016636e-39
-0.057793047 0.11957411 0.99475008 1.1938615e-39
-0.057793047 0.11957411 0.99725008 2.1122164e-39
-0.057793047 0.1220741 0.99475008 3.2142424e-39
-0.057793047 0.1220741 0.99725008 1.8377861e-39
-0.055293046 0.11957411 0.99475008 4.5918589e-40
-0.055293046 0.11957411 0.99725008 7.3504691e-40
-0.055293046 0.1220741 0.99475008 3.7202933e-40
-0.055293046 0.1220741 0.99725008 8.2941034e-40
-0.057793047 0.11957411 0.99975008 1.6530389e-39
-0.057793047 0.1220741 0.99975008 1.7452332e-39
-0.055293046 0.11957411 0.99975008 7.3469798e-40
-0.055293046 0.1220741 0.99975008 1.1031204e-39
-0.057793047 0.12457411 0.99475008 2.0211306e-39
-0.057793047 0.12457411 0.99725008 2.0218397e-39
-0.057793047 0.12707411 0.99475008 2.026506e-39
-0.057793047 0.12707411 0.99725008 1.9346593e-39
-0.055293046 0.12457411 0.99475008 1.1974866e-39
-0.055293046 0.12457411 0.99725008 1.4747798e-39
-0.055293046 0.12707411 0.99475008 1.1038294e-39
-0.055293046 0.12707411 0.99725008 2.3938592e-39
-0.057793047 0.12457411 0.99975008 2.3888103e-39
-0.055293046 0.12457411 0.99975008 1.1056385e-39
-0.057793047 0.12957411 0.98475009 1.4840622e-38
-0.057793047 0.1320741 0.98475009 1.6770975e-38
-0.055293046 0.12957411 0.98475009 0
-0.055293046 0.12957411 0.98725009 0
-0.055293046 0.1320741 0.98475009 1.4012985e-45
-0.055293046 0.12957411 0.98975009 0
-0.055293046 0.12957411 0.99225008 1.1067932e-39
-0.055293046 0.1345741 0.98475009 1.0965494e-38
-0.055293046 0.1145741 1.00475 2.3909515e-39
-0.055293046 0.11707411 1.00475 0
-0.057793047 0.11957411 1.00475 2.1122164e-39
-0.057793047 0.1220741 1.00475 2.1140101e-39
-0.057793047 0.1220741 1.0072501 1.8367099e-39
-0.055293046 0.11957411 1.00475 1.3775465e-39
-0.055293046 0.1220741 1.00475 4.6026909e-40
-0.057793047 0.12457411 1.00475 3.3060779e-39
-0.055293046 0.12457411 1.00475 8.2941034e-40
-0.045293048 0.094574109 1.03725 3.9568717e-39
-0.045293048 0.097074106 1.03725 3.1321333e-39
-0.047793046 0.094574109 1.0397501 2.0221886e-39
-0.047793046 0.097074106 1.0397501 3.1285572e-39
-0.045293048 0.094574109 1.0397501 3.1288963e-39
-0.045293048 0.097074106 1.0397501 3.9586766e-39
-0.037793048 0.092074111 1.0297501 5.8775446e-39
-0.037793048 0.094574109 1.0297501 9.1840821e-40
-0.037793048 0.097074106 1.0297501 2.5764428e-39
-0.035293046 0.094574109 1.0297501 1.0101905e-39
-0.035293046 0.097074106 1.0297501 2.7572369e-39
-0.042793047 0.094574109 1.03725 1.7455919e-39
-0.042793047 0.097074106 1.03725 3.4980389e-39
-0.040293045 0.094574109 1.03725 1.0102577e-39
-0.040293045 0.097074106 1.03725 2.9448652e-39
-0.042793047 0.094574109 1.0397501 1.5612034e-39
-0.042793047 0.097074106 1.0397501 3.4980389e-39
-0.040293045 0.094574109 1.0397501 6.4284847e-40
-0.040293045 0.097074106 1.0397501 2.4867639e-39
-0.037793048 0.094574109 1.0347501 1.8371864e-40
-0.037793048 0.094574109 1.03725 4.5923634e-40
-0.037793048 0.097074106 1.0347501 1.6566445e-39
-0.037793048 0.097074106 1.03725 2.023269e-39
-0.035293046 0.094574109 1.0347501 1.2856969e-39
-0.035293046 0.094574109 1.03725 1.2856969e-39
-0.035293046 0.097074106 1.0347501 2.7572369e-39
-0.035293046 0.097074106 1.03725 2.7572369e-39
-0.037793048 0.094574109 1.0397501 4.5922653e-40
-0.037793048 0.097074106 1.0397501 1.7491988e-39
-0.035293046 0.097074106 1.0397501 2.7572369e-39
-0.032793045 0.097074106 1.0272501 8.2914928e-39
-0.032793045 0.094574109 1.0297501 2.9452001e-39
-0.032793045 0.097074106 1.0297501 1.3538407e-38
-0.032793045 0.094574109 1.0347501 3.3136253e-39
-0.032793045 0.094574109 1.03725 3.3139784e-39
-0.032793045 0.097074106 1.0347501 9.1187354e-39
-0.032793045 0.097074106 1.03725 1.3632028e-38
-0.032793045 0.097074106 1.0397501 8.6577572e-39
-0.045293048 0.1145741 0.99225008 2.3963773e-39
-0.045293048 0.11707411 0.99225008 2.3963773e-39
-0.052793048 0.11207411 0.99975008 1.6566445e-39
-0.050293047 0.11207411 0.99975008 1.472263e-39
-0.052793048 0.1145741 0.99725008 1.8435623e-39
-0.052793048 0.11707411 0.99475008 1.9335901e-39
-0.052793048 0.11707411 0.99725008 1.6562941e-39
-0.050293047 0.1145741 0.99725008 1.5669768e-39
-0.050293047 0.11707411 0.99475008 1.1981929e-39
-0.050293047 0.11707411 0.99725008 1.3825841e-39
-0.052793048 0.1145741 0.99975008 1.5666265e-39
-0.052793048 0.11707411 0.99975008 9.2484297e-40
-0.050293047 0.1145741 0.99975008 1.4744294e-39
-0.050293047 0.11707411 0.99975008 4.6422496e-40
-0.047793046 0.11207411 0.99975008 1.8413945e-39
-0.045293048 0.11207411 0.99975008 2.4867639e-39
-0.047793046 0.1145741 0.99725008 1.7484898e-39
-0.047793046 0.11707411 0.99475008 1.3825841e-39
-0.047793046 0.11707411 0.99725008 1.3825841e-39
-0.045293048 0.1145741 0.99475008 2.3016636e-39
-0.045293048 0.1145741 0.99725008 2.1176324e-39
-0.045293048 0.11707411 0.99475008 2.6708048e-39
-0.045293048 0.11707411 0.99725008 2.9473833e-39
-0.047793046 0.1145741 0.99975008 1.3825841e-39
-0.047793046 0.11707411 0.99975008 1.2903885e-39
-0.045293048 0.1145741 0.99975008 2.9473833e-39
-0.045293048 0.11707411 0.99975008 2.7630018e-39
-0.040293045 0.11207411 0.99225008 0
-0.042793047 0.1145741 0.99225008 1.1031204e-39
-0.042793047 0.11707411 0.99225008 6.4285968e-40
-0.040293045 0.1145741 0.99225008 1.6815582e-44
-0.040293045 0.11707411 0.99225008 1.5414283e-44
-0.037793048 0.11207411 0.99225008 8.3729111e-39
-0.042793047 0.11207411 0.99975008 2.7633522e-39
-0.040293045 0.11207411 0.99975008 0
-0.042793047 0.1145741 0.99475008 2.1179828e-39
-0.042793047 0.1145741 0.99725008 1.2903885e-39
-0.042793047 0.11707411 0.99475008 6.4285968e-40
-0.042793047 0.11707411 0.99725008 4.6026909e-40
-0.040293045 0.1145741 0.99725008 1.44614e-42
-0.040293045 0.11707411 0.99475008 1.5414283e-44
-0.040293045 0.11707411 0.99725008 9.8090893e-45
-0.042793047 0.1145741 0.99975008 2.0257857e-39
-0.042793047 0.11707411 0.99975008 1.1031204e-39
-0.040293045 0.1145741 0.99975008 1.460153e-42
-0.040293045 0.11707411 0.99975008 7.3753001e-39
-0.037793048 0.11207411 0.99975008 8.1899589e-39
-0.037793048 0.1145741 0.99725008 8.1864445e-39
-0.037793048 0.11707411 0.99725008 1.262145e-38
-0.037793048 0.1145741 0.99975008 8.3719119e-39
-0.052793048 0.1220741 0.9797501 1.105291e-39
-0.052793048 0.12707411 0.97725004 2.1565983e-42
-0.050293047 0.12707411 0.97725004 1.1038294e-39
-0.052793048 0.12457411 0.9797501 1.6562941e-39
-0.052793048 0.12707411 0.9797501 3.9642734e-42
-0.050293047 0.12707411 0.9797501 1.1960251e-39
-0.047793046 0.12707411 0.9797501 3.7835059e-43
-0.045293048 0.12707411 0.9797501 1.6815582e-44
-0.052793048 0.12957411 0.97725004 0
-0.052793048 0.1320741 0.97725004 4.9699895e-39
-0.050293047 0.12957411 0.97725004 1.2856997e-39
-0.050293047 0.1320741 0.97725004 7.453138e-39
-0.052793048 0.12957411 0.9797501 0
-0.052793048 0.1320741 0.9797501 4.8777938e-39
-0.050293047 0.12957411 0.9797501 1.7448758e-39
-0.050293047 0.1320741 0.9797501 7.3609424e-39
-0.052793048 0.1345741 0.97725004 1.2347012e-38
-0.052793048 0.13707411 0.97725004 1.4466414e-38
-0.050293047 0.1345741 0.97725004 1.2162983e-38
-0.050293047 0.13707411 0.97725004 1.2993492e-38
-0.052793048 0.1345741 0.9797501 1.2438126e-38
-0.050293047 0.1345741 0.9797501 1.2529252e-38
-0.047793046 0.1320741 0.97725004 1.5206091e-38
-0.045293048 0.1320741 0.97725004 1.6035493e-38
-0.047793046 0.12957411 0.9797501 1.2534292e-38
-0.047793046 0.1320741 0.9797501 1.5854036e-38
-0.045293048 0.12957411 0.9797501 1.2718684e-38
-0.045293048 0.1320741 0.9797501 1.5117187e-38
-0.047793046 0.1345741 0.97475004 1.2250102e-38
-0.047793046 0.1345741 0.97725004 1.2617087e-38
-0.047793046 0.13707411 0.97475004 0
-0.047793046 0.13707411 0.97725004 1.3775324e-39
-0.045293048 0.1345741 0.97475004 1.3446853e-38
-0.045293048 0.1345741 0.97725004 1.2895472e-38
-0.045293048 0.13707411 0.97475004 2.7550649e-40
-0.045293048 0.13707411 0.97725004 0
-0.042793047 0.12707411 0.9797501 4.7644148e-44
-0.042793047 0.12957411 0.9797501 8.853321e-39
-0.042793047 0.1320741 0.9797501 1.2999916e-38
-0.042793047 0.1345741 0.9797501 9.3120837e-39
-0.052793048 0.11957411 0.98975009 1.6562941e-39
-0.052793048 0.1220741 0.98975009 6.4501908e-40
-0.052793048 0.1220741 0.99225008 1.105291e-39
-0.050293047 0.1220741 0.99225008 8.2941034e-40
-0.052793048 0.12457411 0.98475009 4.635187e-40
-0.052793048 0.12457411 0.98725009 1.6570004e-39
-0.052793048 0.12707411 0.98475009 7.3939513e-40
-0.052793048 0.12707411 0.98725009 1.1985432e-39
-0.050293047 0.12457411 0.98475009 2.0254368e-39
-0.050293047 0.12457411 0.98725009 1.4747798e-39
-0.050293047 0.12707411 0.98475009 8.2941034e-40
-0.050293047 0.12707411 0.98725009 1.1981929e-39
-0.052793048 0.12457411 0.98975009 1.8410441e-39
-0.052793048 0.12457411 0.99225008 1.1974866e-39
-0.052793048 0.12707411 0.98975009 2.0247305e-39
-0.052793048 0.12707411 0.99225008 1.8413945e-39
-0.050293047 0.12457411 0.98975009 1.3829344e-39
-0.050293047 0.12457411 0.99225008 1.4747798e-39
-0.050293047 0.12707411 0.98975009 8.2689361e-40
-0.050293047 0.12707411 0.99225008 4.6097815e-40
-0.047793046 0.1220741 0.99225008 2.3938592e-39
-0.045293048 0.11957411 0.99225008 2.4885786e-39
-0.045293048 0.1220741 0.99225008 2.7630018e-39
-0.047793046 0.12707411 0.98475009 5.6051939e-45
-0.047793046 0.12707411 0.98725009 5.6051939e-45
-0.045293048 0.12707411 0.98475009 0
-0.045293048 0.12707411 0.98725009 0
-0.047793046 0.12457411 0.98975009 1.9357579e-39
-0.047793046 0.12457411 0.99225008 2.1176324e-39
-0.047793046 0.12707411 0.98975009 3.673602e-40
-0.047793046 0.12707411 0.99225008 2.3016636e-39
-0.045293048 0.12457411 0.98975009 6.4501908e-40
-0.045293048 0.12457411 0.99225008 1.1960251e-39
-0.045293048 0.12707411 0.98975009 0
-0.045293048 0.12707411 0.99225008 1.6534075e-39
-0.052793048 0.11957411 0.99475008 2.2065813e-39
-0.052793048 0.11957411 0.99725008 1.7491988e-39
-0.052793048 0.1220741 0.99475008 9.5082305e-41
-0.052793048 0.1220741 0.99725008 9.2266255e-40
-0.050293047 0.11957411 0.99475008 1.6566445e-39
-0.050293047 0.11957411 0.99725008 1.7491988e-39
-0.050293047 0.1220741 0.99475008 9.2160738e-40
-0.050293047 0.1220741 0.99725008 1.2907388e-39
-0.052793048 0.11957411 0.99975008 1.6566445e-39
-0.052793048 0.1220741 0.99975008 1.1985432e-39
-0.050293047 0.11957411 0.99975008 2.0257857e-39
-0.050293047 0.1220741 0.99975008 1.7520645e-39
-0.052793048 0.12457411 0.99475008 1.105291e-39
-0.052793048 0.12457411 0.99725008 1.751717e-39
-0.052793048 0.12707411 0.99475008 2.1176324e-39
-0.050293047 0.12457411 0.99475008 1.751717e-39
-0.050293047 0.12457411 0.99725008 1.751717e-39
-0.050293047 0.12707411 0.99475008 2.1176324e-39
-0.052793048 0.12457411 0.99975008 9.219563e-40
-0.047793046 0.11957411 0.99475008 1.5669768e-39
-0.047793046 0.11957411 0.99725008 2.3016636e-39
-0.047793046 0.1220741 0.99475008 2.1179828e-39
-0.047793046 0.1220741 0.99725008 2.0250809e-39
-0.045293048 0.11957411 0.99475008 2.9466798e-39
-0.045293048 0.11957411 0.99725008 2.3963773e-39
-0.045293048 0.1220741 0.99475008 5.5677091e-40
-0.045293048 0.1220741 0.99725008 2.1219246e-39
-0.047793046 0.11957411 0.99975008 2.0283039e-39
-0.047793046 0.1220741 0.99975008 2.1176324e-39
-0.045293048 0.11957411 0.99975008 1.8475097e-39
-0.045293048 0.1220741 0.99975008 1.751717e-39
-0.047793046 0.12457411 0.99475008 1.5669768e-39
-0.047793046 0.12457411 0.99725008 1.9357579e-39
-0.047793046 0.12707411 0.99475008 2.3938592e-39
-0.045293048 0.12457411 0.99475008 1.0109247e-39
-0.045293048 0.12457411 0.99725008 5.5571433e-40
-0.045293048 0.12707411 0.99475008 7.3468397e-40
-0.052793048 0.12957411 0.98475009 9.4713763e-41
-0.052793048 0.12957411 0.98725009 9.4363439e-41
-0.052793048 0.1320741 0.98475009 0
-0.050293047 0.12957411 0.98475009 1.170021e-38
-0.050293047 0.12957411 0.98725009 1.14265e-38
-0.050293047 0.1320741 0.98475009 1.4922003e-38
-0.052793048 0.12957411 0.98975009 1.8655907e-40
-0.050293047 0.12957411 0.98975009 1.1031204e-39
-0.047793046 0.12957411 0.98475009 1.3269691e-38
-0.047793046 0.12957411 0.98725009 1.2903421e-38
-0.047793046 0.1320741 0.98475009 1.5210822e-38
-0.045293048 0.12957411 0.98475009 1.308494e-38
-0.045293048 0.12957411 0.98725009 9.4043396e-39
-0.045293048 0.1320741 0.98475009 1.5208666e-38
-0.045293048 0.1320741 0.98725009 1.3090726e-38
-0.042793047 0.11957411 0.99225008 4.2038954e-45
-0.042793047 0.1220741 0.99225008 0
-0.040293045 0.11957411 0.99225008 7.0064923e-45
-0.040293045 0.1220741 0.99225008 5.1550646e-39
-0.042793047 0.12707411 0.98725009 3.7814656e-39
-0.042793047 0.12457411 0.98975009 6.6294505e-39
-0.042793047 0.12457411 0.99225008 3.6849483e-39
-0.042793047 0.12707411 0.98975009 3.8718661e-39
-0.042793047 0.12707411 0.99225008 6.1709933e-39
-0.040293045 0.12457411 0.99225008 9.9499576e-39
-0.040293045 0.12707411 0.99225008 1.0870455e-38
-0.037793048 0.11957411 0.98975009 1.7603938e-38
-0.037793048 0.1220741 0.98975009 1.7144071e-38
-0.037793048 0.12457411 0.98975009 1.8245747e-38
-0.042793047 0.11957411 0.99475008 1.4012985e-45
-0.042793047 0.11957411 0.99725008 0
-0.042793047 0.1220741 0.99475008 0
-0.042793047 0.1220741 0.99725008 0
-0.040293045 0.11957411 0.99475008 0
-0.040293045 0.11957411 0.99725008 0
-0.040293045 0.1220741 0.99475008 1.769367e-38
-0.040293045 0.1220741 0.99725008 1.3831884e-38
-0.042793047 0.11957411 0.99975008 0
-0.042793047 0.1220741 0.99975008 0
-0.040293045 0.11957411 0.99975008 1.2267432e-38
-0.040293045 0.1220741 0.99975008 1.456691e-38
-0.042793047 0.12457411 0.99475008 3.7767936e-39
-0.042793047 0.12457411 0.99725008 0
-0.042793047 0.12707411 0.99475008 6.0752104e-39
-0.042793047 0.12707411 0.99725008 6.263189e-39
-0.040293045 0.12457411 0.99475008 2.06443e-38
-0.040293045 0.12457411 0.99725008 2.0275515e-38
-0.040293045 0.12707411 0.99475008 1.9169508e-38
-0.040293045 0.12707411 0.99725008 1.9168425e-38
-0.040293045 0.12457411 0.99975008 1.9629836e-38
-0.037793048 0.1220741 0.99725008 1.7418835e-38
-0.037793048 0.11957411 0.99975008 1.4381799e-38
-0.037793048 0.1220741 0.99975008 1.7787979e-38
-0.035293046 0.1220741 0.99975008 1.7325922e-38
-0.037793048 0.12457411 0.99725008 1.8523411e-38
-0.037793048 0.12707411 0.99725008 1.8062062e-38
-0.037793048 0.12457411 0.99975008 1.8522336e-38
-0.035293046 0.12457411 0.99975008 1.6589821e-38
-0.042793047 0.12957411 0.98475009 8.761124e-39
-0.042793047 0.12957411 0.98725009 2.8025969e-45
-0.042793047 0.1320741 0.98475009 1.3090726e-38
-0.042793047 0.1320741 0.98725009 0
-0.042793047 0.12957411 0.98975009 4.3440252e-44
-0.042793047 0.1320741 0.98975009 2.8025969e-45
-0.040293045 0.12957411 0.98975009 1.0031593e-38
-0.040293045 0.12957411 0.99225008 9.8472046e-39
-0.040293045 0.1320741 0.98975009 2.9398121e-39
-0.042793047 0.1345741 0.98475009 1.3183584e-38
-0.052793048 0.11207411 1.0072501 9.219563e-40
-0.050293047 0.11207411 1.0072501 1.751717e-39
-0.052793048 0.11207411 1.0097501 6.4501908e-40
-0.052793048 0.11207411 1.0122501 6.4501908e-40
-0.050293047 0.10957411 1.0097501 1.3829344e-39
-0.050293047 0.10957411 1.0122501 1.9332398e-39
-0.050293047 0.11207411 1.0097501 9.2160738e-40
-0.050293047 0.11207411 1.0122501 1.5669768e-39
-0.052793048 0.1145741 1.00475 1.7510079e-39
-0.052793048 0.1145741 1.0072501 1.1981929e-39
-0.052793048 0.11707411 1.00475 1.2903885e-39
-0.050293047 0.1145741 1.00475 1.1056385e-39
-0.050293047 0.1145741 1.0072501 1.1981929e-39
-0.050293047 0.11707411 1.00475 9.2160738e-40
-0.052793048 0.1145741 1.0097501 1.2903885e-39
-0.052793048 0.1145741 1.0122501 2.7947356e-40
-0.050293047 0.1145741 1.0097501 1.7510079e-39
-0.050293047 0.1145741 1.0122501 1.8727793e-40
-0.047793046 0.10957411 1.0072501 1.6566445e-39
-0.047793046 0.11207411 1.00475 1.8410441e-39
-0.047793046 0.11207411 1.0072501 2.026492e-39
-0.045293048 0.11207411 1.0072501 2.3016636e-39
-0.047793046 0.10957411 1.0097501 2.1179828e-39
-0.047793046 0.10957411 1.0122501 1.7510079e-39
-0.047793046 0.11207411 1.0097501 1.841742e-39
-0.047793046 0.11207411 1.0122501 2.118689e-39
-0.045293048 0.11207411 1.0097501 2.3938592e-39
-0.045293048 0.11207411 1.0122501 2.7647773e-39
-0.047793046 0.1145741 1.00475 2.1201492e-39
-0.047793046 0.1145741 1.0072501 1.8439126e-39
-0.047793046 0.11707411 1.00475 2.2123448e-39
-0.045293048 0.1145741 1.00475 2.5786092e-39
-0.045293048 0.1145741 1.0072501 2.6711551e-39
-0.045293048 0.11707411 1.00475 2.2123448e-39
-0.047793046 0.1145741 1.0097501 2.2141216e-39
-0.047793046 0.1145741 1.0122501 1.4783671e-39
-0.045293048 0.1145741 1.0097501 2.5814776e-39
-0.045293048 0.1145741 1.0122501 2.6711551e-39
-0.052793048 0.11207411 1.0147501 1.8762826e-40
-0.050293047 0.11207411 1.0147501 2.8018262e-40
-0.050293047 0.10957411 1.0222501 1.7484898e-39
-0.050293047 0.11207411 1.0197501 1.7491988e-39
-0.050293047 0.11207411 1.0222501 1.6566445e-39
-0.050293047 0.1145741 1.0197501 6.4501908e-40
-0.050293047 0.1145741 1.0222501 6.4536941e-40
-0.047793046 0.11207411 1.0147501 1.6609479e-39
-0.045293048 0.10957411 1.0147501 1.8439126e-39
-0.045293048 0.11207411 1.0147501 2.4867639e-39
-0.047793046 0.10957411 1.0222501 2.0254368e-39
-0.047793046 0.11207411 1.0197501 2.1179828e-39
-0.047793046 0.11207411 1.0222501 2.1179828e-39
-0.045293048 0.11207411 1.0197501 2.3016636e-39
-0.045293048 0.11207411 1.0222501 2.1201492e-39
-0.045293048 0.1145741 1.0147501 2.3945654e-39
-0.047793046 0.1145741 1.0197501 2.1179828e-39
-0.047793046 0.1145741 1.0222501 1.8424496e-39
-0.045293048 0.1145741 1.0197501 2.3020139e-39
-0.045293048 0.1145741 1.0222501 2.5786092e-39
-0.042793047 0.11207411 1.0097501 2.6711523e-39
-0.042793047 0.11207411 1.0122501 3.1321333e-39
-0.042793047 0.1145741 1.00475 2.0254368e-39
-0.042793047 0.1145741 1.0072501 3.1296151e-39
-0.042793047 0.11707411 1.00475 6.4501908e-40
-0.040293045 0.1145741 1.00475 7.258726e-43
-0.040293045 0.1145741 1.0072501 3.657389e-43
-0.040293045 0.11707411 1.00475 4.2038954e-45
-0.040293045 0.11707411 1.0072501 7.4674971e-39
-0.042793047 0.1145741 1.0097501 2.7633522e-39
-0.042793047 0.1145741 1.0122501 2.3970864e-39
-0.042793047 0.11707411 1.0097501 2.5265411e-42
-0.042793047 0.11707411 1.0122501 1.44614e-42
-0.040293045 0.11707411 1.0097501 7.2856226e-39
-0.040293045 0.11707411 1.0122501 2.7687556e-39
-0.037793048 0.11707411 1.00475 1.289768e-38
-0.037793048 0.11707411 1.0072501 1.2989154e-38
-0.037793048 0.11707411 1.0097501 1.3449769e-38
-0.037793048 0.11707411 1.0122501 1.2807284e-38
-0.042793047 0.11207411 1.0147501 2.8569729e-39
-0.042793047 0.11207411 1.0222501 2.7630018e-39
-0.040293045 0.11207411 1.0222501 1.1056385e-39
-0.042793047 0.1145741 1.0147501 7.4045452e-40
-0.042793047 0.11707411 1.0147501 3.2369995e-42
-0.040293045 0.11707411 1.0147501 2.1230386e-39
-0.042793047 0.1145741 1.0197501 4.6422496e-40
-0.042793047 0.1145741 1.0222501 1.4783671e-39
-0.042793047 0.11707411 1.0197501 1.8104776e-42
-0.040293045 0.1145741 1.0197501 0
-0.040293045 0.1145741 1.0222501 0
-0.040293045 0.11707411 1.0197501 2.4003332e-39
-0.037793048 0.11207411 1.0222501 5.0556663e-39
-0.037793048 0.11707411 1.0147501 8.3729937e-39
-0.037793048 0.1145741 1.0197501 8.374353e-39
-0.037793048 0.1145741 1.0222501 2.0363365e-38
-0.037793048 0.11707411 1.0197501 8.5545039e-39
-0.035293046 0.1145741 1.0222501 1.9442863e-38
-0.050293047 0.1070741 1.0272501 1.3818779e-39
-0.050293047 0.10457411 1.0297501 1.2903885e-39
-0.050293047 0.1070741 1.0297501 1.5666265e-39
-0.047793046 0.1070741 1.0272501 1.1974866e-39
-0.045293048 0.1070741 1.0272501 1.3825841e-39
-0.047793046 0.10457411 1.0297501 1.8435623e-39
-0.047793046 0.1070741 1.0297501 1.5666265e-39
-0.045293048 0.10457411 1.0297501 2.118689e-39
-0.045293048 0.1070741 1.0297501 1.841742e-39
-0.050293047 0.10207411 1.03725 7.3504691e-40
-0.050293047 0.10207411 1.0397501 9.1835496e-41
-0.052793048 0.1070741 1.0347501 2.2090742e-39
-0.052793048 0.1070741 1.03725 2.391669e-39
-0.050293047 0.10457411 1.0347501 1.1960251e-39
-0.050293047 0.10457411 1.03725 7.3756504e-40
-0.050293047 0.1070741 1.0347501 8.3229982e-40
-0.050293047 0.1070741 1.03725 1.9357579e-39
-0.050293047 0.10457411 1.0397501 1.1038294e-39
-0.050293047 0.1070741 1.0397501 1.6562941e-39
-0.047793046 0.10207411 1.03725 2.4871114e-39
-0.045293048 0.099574104 1.03725 3.5902346e-39
-0.045293048 0.10207411 1.03725 3.12819e-39
-0.047793046 0.099574104 1.0397501 3.3136575e-39
-0.047793046 0.10207411 1.0397501 2.3020139e-39
-0.045293048 0.099574104 1.0397501 3.6820799e-39
-0.045293048 0.10207411 1.0397501 2.3020139e-39
-0.047793046 0.10457411 1.0347501 2.2126951e-39
-0.047793046 0.10457411 1.03725 1.4747798e-39
-0.047793046 0.1070741 1.0347501 5.5571433e-40
-0.047793046 0.1070741 1.03725 1.1056385e-39
-0.045293048 0.10457411 1.0347501 2.6722089e-39
-0.045293048 0.10457411 1.03725 2.393862e-39
-0.045293048 0.1070741 1.0347501 2.579307e-39
-0.045293048 0.1070741 1.03725 2.4867639e-39
-0.047793046 0.10457411 1.0397501 2.1179828e-39
-0.047793046 0.1070741 1.0397501 1.3829344e-39
-0.045293048 0.10457411 1.0397501 2.3945682e-39
-0.045293048 0.1070741 1.0397501 2.2126951e-39
-0.050293047 0.10957411 1.0247501 1.5666265e-39
-0.050293047 0.10957411 1.0272501 2.1176324e-39
-0.050293047 0.11207411 1.0247501 1.6566445e-39
-0.050293047 0.11207411 1.0272501 1.5669768e-39
-0.050293047 0.10957411 1.0297501 1.1092384e-39
-0.050293047 0.11207411 1.0297501 1.4747798e-39
-0.050293047 0.1145741 1.0247501 1.4733196e-39
-0.047793046 0.10957411 1.0247501 1.3822338e-39
-0.047793046 0.10957411 1.0272501 2.0254368e-39
-0.047793046 0.11207411 1.0247501 2.118689e-39
-0.047793046 0.11207411 1.0272501 1.7510079e-39
-0.045293048 0.10957411 1.0247501 2.0250809e-39
-0.045293048 0.10957411 1.0272501 1.9335873e-39
-0.045293048 0.11207411 1.0247501 2.0283039e-39
-0.045293048 0.11207411 1.0272501 2.0250809e-39
-0.047793046 0.10957411 1.0297501 7.4045452e-40
-0.047793046 0.11207411 1.0297501 1.5669768e-39
-0.045293048 0.10957411 1.0297501 2.3016636e-39
-0.045293048 0.11207411 1.0297501 2.5786092e-39
-0.047793046 0.1145741 1.0247501 2.3027201e-39
-0.045293048 0.1145741 1.0247501 2.3945654e-39
-0.050293047 0.10957411 1.0347501 1.4747798e-39
-0.047793046 0.10957411 1.0347501 1.3825841e-39
-0.045293048 0.10957411 1.0347501 2.3963773e-39
-0.042793047 0.1070741 1.0297501 2.5786092e-39
-0.040293045 0.1070741 1.0297501 2.6708048e-39
-0.037793048 0.1070741 1.0297501 3.6817267e-39
-0.042793047 0.099574104 1.03725 3.4980389e-39
-0.042793047 0.10207411 1.03725 3.2218122e-39
-0.040293045 0.099574104 1.03725 3.3172448e-39
-0.040293045 0.10207411 1.03725 3.0403132e-39
-0.042793047 0.099574104 1.0397501 3.4991179e-39
-0.042793047 0.10207411 1.0397501 2.9473833e-39
-0.040293045 0.099574104 1.0397501 3.5913136e-39
-0.040293045 0.10207411 1.0397501 3.3168917e-39
-0.042793047 0.10457411 1.0347501 2.7633522e-39
-0.042793047 0.10457411 1.03725 2.5786092e-39
-0.042793047 0.1070741 1.0347501 2.947033e-39
-0.042793047 0.1070741 1.03725 2.9473833e-39
-0.040293045 0.10457411 1.0347501 2.947033e-39
-0.040293045 0.10457411 1.03725 3.3168917e-39
-0.040293045 0.1070741 1.0347501 2.947033e-39
-0.040293045 0.1070741 1.03725 3.3165414e-39
-0.042793047 0.10457411 1.0397501 2.3938592e-39
-0.040293045 0.10457411 1.0397501 3.7753517e-39
-0.040293045 0.1070741 1.0397501 2.9481176e-39
-0.037793048 0.099574104 1.0347501 2.3005747e-39
-0.037793048 0.099574104 1.03725 2.026506e-39
-0.037793048 0.10207411 1.03725 2.9484623e-39
-0.035293046 0.099574104 1.0347501 3.03453e-39
-0.035293046 0.099574104 1.03725 4.0407857e-39
-0.035293046 0.10207411 1.03725 4.2273447e-39
-0.037793048 0.099574104 1.0397501 2.3030929e-39
-0.037793048 0.10207411 1.0397501 3.0406635e-39
-0.035293046 0.099574104 1.0397501 4.2258832e-39
-0.035293046 0.10207411 1.0397501 5.7986039e-39
-0.037793048 0.10457411 1.0347501 3.7753517e-39
-0.037793048 0.1070741 1.0347501 4.6076305e-39
-0.037793048 0.1070741 1.03725 4.6998261e-39
-0.035293046 0.10457411 1.03725 4.5122133e-39
-0.035293046 0.1070741 1.0347501 3.4097908e-39
-0.035293046 0.1070741 1.03725 3.5059577e-39
-0.037793048 0.10457411 1.0397501 4.6994758e-39
-0.037793048 0.1070741 1.0397501 4.7916714e-39
-0.035293046 0.10457411 1.0397501 4.6980114e-39
-0.035293046 0.1070741 1.0397501 3.8725668e-39
-0.042793047 0.10957411 1.0247501 2.2123448e-39
-0.042793047 0.10957411 1.0272501 2.7630018e-39
-0.042793047 0.11207411 1.0247501 2.5814776e-39
-0.042793047 0.11207411 1.0272501 2.7630018e-39
-0.040293045 0.10957411 1.0247501 2.6708048e-39
-0.040293045 0.10957411 1.0272501 2.947033e-39
-0.040293045 0.11207411 1.0247501 9.219563e-40
-0.040293045 0.11207411 1.0272501 2.3938592e-39
-0.042793047 0.10957411 1.0297501 3.1289061e-39
-0.042793047 0.11207411 1.0297501 3.0392286e-39
-0.040293045 0.10957411 1.0297501 3.3136575e-39
-0.040293045 0.11207411 1.0297501 2.7630018e-39
-0.042793047 0.1145741 1.0247501 2.7630018e-39
-0.040293045 0.1145741 1.0247501 0
-0.037793048 0.10957411 1.0247501 4.3235284e-39
-0.037793048 0.10957411 1.0272501 3.3165414e-39
-0.037793048 0.11207411 1.0247501 8.012406e-39
-0.037793048 0.11207411 1.0272501 3.0367525e-39
-0.035293046 0.10957411 1.0247501 3.6748548e-39
-0.035293046 0.10957411 1.0272501 1.7506141e-39
-0.035293046 0.11207411 1.0247501 9.1172906e-39
-0.035293046 0.11207411 1.0272501 9.115155e-39
-0.037793048 0.10957411 1.0297501 3.5916989e-39
-0.037793048 0.11207411 1.0297501 3.9533166e-39
-0.035293046 0.10957411 1.0297501 2.7658269e-39
-0.035293046 0.11207411 1.0297501 3.3982721e-39
-0.037793048 0.1145741 1.0247501 2.0912583e-38
-0.035293046 0.1145741 1.0247501 1.8984702e-38
-0.042793047 0.10957411 1.0347501 2.7630018e-39
-0.040293045 0.10957411 1.0347501 2.947033e-39
-0.037793048 0.10957411 1.0347501 3.0410433e-39
-0.035293046 0.10957411 1.0347501 1.6627247e-39
-0.050293047 0.11957411 1.00475 1.5669768e-39
-0.047793046 0.11957411 1.00475 1.9357579e-39
-0.042793047 0.11957411 1.0072501 7.0064923e-45
-0.040293045 0.11957411 1.00475 1.5414283e-44
-0.040293045 0.11957411 1.0072501 9.9596672e-39
-0.040293045 0.11957411 1.0097501 9.8667625e-39
-0.040293045 0.11957411 1.0122501 9.6827314e-39
-0.037793048 0.11957411 1.00475 1.511612e-38
-0.037793048 0.11957411 1.0072501 1.3451232e-38
-0.037793048 0.1220741 1.00475 1.7602866e-38
-0.037793048 0.1220741 1.0072501 1.484314e-38
-0.037793048 0.11957411 1.0097501 1.3727089e-38
-0.037793048 0.11957411 1.0122501 1.3451596e-38
-0.037793048 0.1220741 1.0097501 1.4840978e-38
-0.037793048 0.12457411 1.00475 1.7051159e-38
-0.040293045 0.11957411 1.0147501 6.9172128e-39
-0.037793048 0.11957411 1.0147501 1.3173188e-38
-0.032793045 0.099574104 1.0347501 1.4734369e-38
-0.032793045 0.099574104 1.03725 1.5101352e-38
-0.032793045 0.10207411 1.03725 7.5348715e-39
-0.032793045 0.099574104 1.0397501 1.4732938e-38
-0.032793045 0.10207411 1.0397501 6.5264187e-39
-0.032793045 0.10457411 1.03725 1.9307356e-39
-0.032793045 0.1070741 1.0347501 5.345899e-39
-0.032793045 0.1070741 1.03725 8.3228441e-40
-0.032793045 0.10457411 1.0397501 6.9917563e-39
-0.032793045 0.1070741 1.0397501 9.2266536e-40
-0.032793045 0.10957411 1.0247501 1.2065017e-38
-0.032793045 0.10957411 1.0272501 7.7433189e-39
-0.032793045 0.11207411 1.0247501 1.1882799e-38
-0.032793045 0.11207411 1.0272501 1.1423626e-38
-0.030293047 0.11207411 1.0272501 1.5385147e-38
-0.032793045 0.1145741 1.0247501 1.4098334e-38
-0.047793046 0.097074106 1.0447501 2.8526695e-39
-0.047793046 0.097074106 1.04725 2.2040519e-39
-0.045293048 0.097074106 1.0447501 3.9593772e-39
-0.045293048 0.097074106 1.04725 4.0472568e-39
-0.045293048 0.097074106 1.0497501 4.3234836e-39
-0.042793047 0.094574109 1.04725 9.7557278e-39
-0.042793047 0.097074106 1.0447501 2.6708048e-39
-0.042793047 0.097074106 1.04725 1.6530389e-39
-0.040293045 0.094574109 1.0447501 1.1131252e-38
-0.040293045 0.094574109 1.04725 1.1408215e-38
-0.040293045 0.097074106 1.0447501 2.6711551e-39
-0.040293045 0.097074106 1.04725 1.1020932e-39
-0.042793047 0.097074106 1.0497501 1.2871319e-39
-0.040293045 0.094574109 1.0497501 1.1040861e-38
-0.040293045 0.097074106 1.0497501 1.4694324e-39
-0.037793048 0.094574109 1.0447501 6.1544958e-39
-0.037793048 0.097074106 1.0447501 2.3020139e-39
-0.037793048 0.097074106 1.04725 3.6739103e-40
-0.035293046 0.097074106 1.0447501 2.7575844e-39
-0.035293046 0.097074106 1.04725 1.0101905e-39
-0.037793048 0.097074106 1.0497501 9.1840401e-40
-0.035293046 0.097074106 1.0497501 3.5905723e-39
-0.032793045 0.097074106 1.0447501 8.2896809e-39
-0.032793045 0.097074106 1.04725 9.0251132e-39
-0.050293047 0.10457411 1.0447501 0
-0.047793046 0.099574104 1.0447501 3.2218122e-39
-0.047793046 0.099574104 1.04725 6.4284847e-39
-0.047793046 0.10207411 1.0447501 3.1274459e-39
-0.047793046 0.10207411 1.04725 2.8519689e-39
-0.045293048 0.099574104 1.0447501 3.6824302e-39
-0.045293048 0.10207411 1.0447501 2.7633522e-39
-0.047793046 0.099574104 1.0497501 2.4795584e-39
-0.047793046 0.10457411 1.0447501 2.3949158e-39
-0.047793046 0.10457411 1.04725 1.751717e-39
-0.045293048 0.10457411 1.0447501 3.3132749e-39
-0.042793047 0.099574104 1.0447501 2.9484679e-39
-0.042793047 0.10207411 1.0447501 2.7633522e-39
-0.040293045 0.099574104 1.0447501 3.0410167e-39
-0.042793047 0.10457411 1.0447501 2.7633522e-39
-0.037793048 0.099574104 1.0447501 3.1303354e-39
-0.037793048 0.10207411 1.0447501 2.5793252e-39
-0.035293046 0.099574104 1.0447501 4.5946657e-39
-0.035293046 0.099574104 1.04725 3.7659938e-39
-0.035293046 0.10207411 1.0447501 3.6795631e-39
-0.035293046 0.10207411 1.04725 3.957578e-39
-0.035293046 0.099574104 1.0497501 5.979412e-39
-0.035293046 0.10207411 1.0497501 3.1271082e-39
-0.037793048 0.10457411 1.0447501 3.5938373e-39
-0.035293046 0.10457411 1.0447501 4.7923749e-39
-0.035293046 0.10457411 1.04725 4.971018e-39
-0.032793045 0.099574104 1.0447501 1.4825841e-38
-0.032793045 0.099574104 1.04725 1.5192476e-38
-0.032793045 0.10207411 1.0447501 3.6795631e-39
-0.032793045 0.10207411 1.04725 7.2568567e-39
-0.030293047 0.10207411 1.0447501 2.0903257e-38
-0.030293047 0.10207411 1.04725 2.0995075e-38
-0.032793045 0.099574104 1.0497501 1.4456706e-38
-0.032793045 0.10207411 1.0497501 7.2579259e-39
-0.030293047 0.10207411 1.0497501 2.126842e-38
-0.032793045 0.10457411 1.0447501 6.7162638e-39
-0.032793045 0.10457411 1.04725 5.7895823e-39
-0.030293047 0.10457411 1.0447501 1.842475e-38
-0.030293047 0.10457411 1.04725 1.9987316e-38
