# .PCD v0.7 - Point Cloud Data file format
VERSION 0.7
FIELDS x y z rgb
SIZE 4 4 4 4
TYPE F F F F
COUNT 1 1 1 1
WIDTH 396
HEIGHT 1
VIEWPOINT 0 0 0 1 0 0 0
POINTS 396
DATA ascii
0.14471842 0.081362478 1.07225 2.4867639e-39
0.13971843 0.081362478 1.07725 1.8367099e-40
0.13971843 0.081362478 1.0797501 0
0.14221843 0.081362478 1.07725 1.6562941e-39
0.14471842 0.081362478 1.07725 2.3020139e-39
0.14221843 0.081362478 1.0797501 1.472263e-39
0.14471842 0.081362478 1.0797501 1.6562941e-39
0.14721844 0.081362478 1.07225 2.7633522e-39
0.14971843 0.081362478 1.07225 1.1038294e-39
0.14721844 0.081362478 1.07725 2.6708048e-39
0.14971843 0.081362478 1.07725 6.4285968e-40
0.14721844 0.078862481 1.0797501 2.7583299e-39
0.14721844 0.081362478 1.0797501 2.4867611e-39
0.14971843 0.078862481 1.0797501 2.759755e-39
0.14971843 0.081362478 1.0797501 2.9473833e-39
0.15221843 0.081362478 1.07725 2.7582935e-39
0.14221843 0.081362478 1.0847501 1.7463094e-39
0.14471842 0.078862481 1.0847501 7.3469798e-40
0.14471842 0.081362478 1.0847501 1.011631e-39
0.14721844 0.078862481 1.0847501 1.7484898e-39
0.14721844 0.081362478 1.0847501 2.6711523e-39
0.14971843 0.078862481 1.0847501 2.5789595e-39
0.14971843 0.081362478 1.0847501 2.9491685e-39
0.15221843 0.078862481 1.0847501 2.6711551e-39
0.15221843 0.081362478 1.0847501 2.4867639e-39
0.14971843 0.078862481 1.09475 2.0250809e-39
0.14971843 0.081362478 1.09475 2.3938592e-39
0.15221843 0.078862481 1.09475 3.4051244e-39
0.15221843 0.078862481 1.09725 2.6711551e-39
0.15221843 0.081362478 1.09475 2.7633522e-39
0.15221843 0.081362478 1.09725 2.6718754e-39
0.15471843 0.078862481 1.09725 3.3140078e-39
0.15471843 0.081362478 1.09475 2.9426819e-39
0.15471843 0.081362478 1.09725 2.7582935e-39
0.15221843 0.078862481 1.09975 2.6725817e-39
0.15471843 0.078862481 1.09975 3.1289061e-39
0.12471843 0.091362476 1.05475 0
0.12471843 0.093862481 1.04725 0
0.12471843 0.093862481 1.04975 3.9601563e-39
0.12471843 0.093862481 1.05475 3.9236357e-44
0.12471843 0.096362479 1.05475 6.5380018e-39
0.12471843 0.098862477 1.05475 8.6570117e-39
0.12471843 0.098862477 1.05725 8.1970944e-39
0.12471843 0.10136248 1.05475 1.1326994e-38
0.12721843 0.091362476 1.04975 0
0.12971842 0.091362476 1.04975 3.6734198e-40
0.13221844 0.091362476 1.04975 6.4679453e-40
0.12721843 0.088862479 1.05725 0
0.12721843 0.091362476 1.05475 4.2038954e-45
0.12721843 0.091362476 1.05725 0
0.12971842 0.088862479 1.05475 7.3504691e-40
0.12971842 0.088862479 1.05725 1.0119841e-39
0.12971842 0.091362476 1.05475 3.6734198e-40
0.12971842 0.091362476 1.05725 1.4012985e-45
0.12721843 0.091362476 1.05975 0
0.12721843 0.091362476 1.06225 0
0.12971842 0.088862479 1.05975 2.7550649e-40
0.12971842 0.088862479 1.06225 7.3468397e-40
0.12971842 0.091362476 1.05975 7.0064923e-45
0.12971842 0.091362476 1.06225 0
0.13221844 0.088862479 1.05475 1.3804163e-39
0.13221844 0.088862479 1.05725 7.3576017e-40
0.13221844 0.091362476 1.05475 1.2882179e-39
0.13221844 0.091362476 1.05725 1.1985432e-39
0.13471843 0.091362476 1.05475 1.8435623e-39
0.13471843 0.091362476 1.05725 1.7491988e-39
0.13221844 0.088862479 1.06225 1.836766e-40
0.13221844 0.091362476 1.05975 8.2976067e-40
0.13221844 0.091362476 1.06225 1.2885682e-39
0.13471843 0.091362476 1.05975 1.4726133e-39
0.13471843 0.091362476 1.06225 1.7491988e-39
0.12971842 0.093862481 1.04725 1.1020862e-39
0.12971842 0.096362479 1.04725 4.5064147e-39
0.12721843 0.093862481 1.04975 0
0.12721843 0.096362479 1.04975 0
0.12971842 0.093862481 1.04975 1.4694338e-39
0.12971842 0.096362479 1.04975 4.596095e-39
0.12721843 0.098862477 1.04975 5.0446745e-44
0.12971842 0.098862477 1.04975 4.8687933e-39
0.13221844 0.093862481 1.04725 6.9093347e-39
0.13221844 0.096362479 1.04725 1.2066455e-38
0.13221844 0.093862481 1.04975 7.9198993e-39
0.13221844 0.096362479 1.04975 1.2801147e-38
0.13471843 0.093862481 1.04975 1.285739e-39
0.13471843 0.096362479 1.04975 8.2961788e-39
0.13221844 0.098862477 1.04975 1.5747876e-38
0.13471843 0.098862477 1.04975 1.4927741e-38
0.12721843 0.093862481 1.05475 0
0.12721843 0.093862481 1.05725 0
0.12721843 0.096362479 1.05475 0
0.12971842 0.093862481 1.05475 5.6051939e-45
0.12971842 0.093862481 1.05725 0
0.12971842 0.096362479 1.05475 4.6872116e-39
0.12721843 0.093862481 1.05975 0
0.12971842 0.093862481 1.05975 0
0.12721843 0.098862477 1.05475 4.3440252e-44
0.12721843 0.098862477 1.05725 2.2055821e-39
0.12721843 0.10136248 1.05475 8.7521234e-39
0.12971842 0.098862477 1.05475 4.6890543e-39
0.12971842 0.098862477 1.05725 5.8854536e-44
0.12971842 0.10136248 1.05475 8.9347168e-39
0.13221844 0.093862481 1.05475 1.0141715e-39
0.13221844 0.093862481 1.05725 8.2941034e-40
0.13221844 0.096362479 1.05475 1.252384e-38
0.13471843 0.093862481 1.05475 1.7484898e-39
0.13471843 0.093862481 1.05725 1.5666265e-39
0.13471843 0.096362479 1.05475 7.6508122e-39
0.13221844 0.098862477 1.05475 1.5107161e-38
0.13221844 0.10136248 1.05475 1.1147412e-38
0.13471843 0.098862477 1.05475 1.3911463e-38
0.13471843 0.10136248 1.05475 1.408902e-38
0.13721843 0.091362476 1.05725 2.1179828e-39
0.13721843 0.091362476 1.05975 2.0257857e-39
0.13721843 0.091362476 1.06225 2.0254368e-39
0.13971843 0.091362476 1.06225 1.65306e-39
0.14221843 0.091362476 1.06225 2.118689e-39
0.13721843 0.093862481 1.05725 1.1974838e-39
0.13721843 0.096362479 1.05475 2.935454e-40
0.13721843 0.096362479 1.05725 1.5880915e-41
0.13971843 0.096362479 1.05725 7.5810247e-43
0.13721843 0.093862481 1.05975 1.6559438e-39
0.13721843 0.093862481 1.06225 1.6559466e-39
0.13721843 0.096362479 1.05975 6.0255834e-44
0.13971843 0.093862481 1.05975 0
0.13971843 0.093862481 1.06225 9.8090893e-45
0.13971843 0.096362479 1.05975 3.9516617e-43
0.13971843 0.096362479 1.06225 3.7835059e-44
0.13721843 0.098862477 1.05475 9.3092419e-39
0.13721843 0.098862477 1.05725 9.309595e-39
0.13721843 0.10136248 1.05475 1.0869373e-38
0.13971843 0.098862477 1.05725 0
0.14221843 0.093862481 1.05975 4.5989817e-39
0.14221843 0.093862481 1.06225 4.5982628e-39
0.14221843 0.096362479 1.05975 3.7656141e-39
0.14221843 0.096362479 1.06225 3.7674232e-39
0.12971842 0.091362476 1.06725 0
0.12971842 0.088862479 1.07225 7.3468397e-40
0.12971842 0.091362476 1.07225 4.6025368e-40
0.13221844 0.091362476 1.06725 1.3775366e-39
0.13471843 0.088862479 1.06725 7.3470919e-40
0.13471843 0.091362476 1.06725 1.8381575e-39
0.13221844 0.088862479 1.07225 9.8090893e-45
0.13221844 0.091362476 1.0697501 8.2724394e-40
0.13221844 0.091362476 1.07225 1.1041783e-39
0.13471843 0.088862479 1.07225 1.8368641e-40
0.13471843 0.091362476 1.0697501 1.6566445e-39
0.13471843 0.091362476 1.07225 1.3811226e-39
0.13471843 0.086362481 1.0797501 9.1835496e-41
0.13221844 0.088862479 1.07725 6.4285968e-40
0.13471843 0.088862479 1.07725 3.6734899e-40
0.13221844 0.088862479 1.0797501 1.6530389e-39
0.13471843 0.088862479 1.0797501 1.0109247e-39
0.13471843 0.086362481 1.0847501 0
0.13721843 0.086362481 1.07225 1.0177477e-39
0.13971843 0.083862476 1.07225 6.4284847e-40
0.13971843 0.086362481 1.07225 1.751717e-39
0.13721843 0.088862479 1.06725 2.301316e-39
0.13721843 0.091362476 1.06725 2.1179828e-39
0.13971843 0.091362476 1.06725 2.8516031e-39
0.13721843 0.088862479 1.07225 1.3825841e-39
0.13721843 0.091362476 1.0697501 1.8439126e-39
0.13721843 0.091362476 1.07225 2.1179828e-39
0.13971843 0.088862479 1.0697501 2.8526695e-39
0.13971843 0.088862479 1.07225 2.4867639e-39
0.13971843 0.091362476 1.0697501 3.2218122e-39
0.13971843 0.091362476 1.07225 3.5877164e-39
0.14221843 0.083862476 1.07225 2.1183387e-39
0.14221843 0.086362481 1.07225 2.2126951e-39
0.14471842 0.083862476 1.07225 2.3020139e-39
0.14471842 0.086362481 1.0697501 2.7624357e-40
0.14471842 0.086362481 1.07225 1.3804163e-39
0.14221843 0.091362476 1.06725 2.2987769e-39
0.14471842 0.091362476 1.06725 1.0780775e-38
0.14221843 0.088862479 1.0697501 2.9448652e-39
0.14221843 0.088862479 1.07225 2.4867639e-39
0.14221843 0.091362476 1.0697501 2.7579558e-39
0.14221843 0.091362476 1.07225 3.0345441e-39
0.14471842 0.088862479 1.0697501 1.472263e-39
0.14471842 0.088862479 1.07225 1.5662761e-39
0.14471842 0.091362476 1.0697501 3.5931086e-39
0.14471842 0.091362476 1.07225 3.3179861e-39
0.13971843 0.083862476 1.07725 8.279544e-40
0.13971843 0.086362481 1.07725 8.3082425e-40
0.13721843 0.086362481 1.0797501 3.6734198e-40
0.13971843 0.083862476 1.0797501 0
0.13971843 0.086362481 1.0797501 2.7801762e-40
0.13721843 0.088862479 1.07725 2.7623797e-40
0.13971843 0.088862479 1.07725 1.2903885e-39
0.13721843 0.088862479 1.0797501 8.2689361e-40
0.13971843 0.088862479 1.0797501 1.2903885e-39
0.14221843 0.083862476 1.07725 2.1179828e-39
0.14221843 0.086362481 1.07725 2.7633522e-39
0.14471842 0.083862476 1.07725 2.2126951e-39
0.14471842 0.086362481 1.07725 3.3143553e-39
0.14221843 0.083862476 1.0797501 1.8435623e-39
0.14221843 0.086362481 1.0797501 2.6711551e-39
0.14471842 0.083862476 1.0797501 2.4871114e-39
0.14471842 0.086362481 1.0797501 2.9491685e-39
0.14221843 0.088862479 1.07725 2.489282e-39
0.14471842 0.088862479 1.07725 2.947033e-39
0.14221843 0.088862479 1.0797501 1.9361082e-39
0.14471842 0.088862479 1.0797501 2.9448652e-39
0.13721843 0.093862481 1.0697501 1.8435623e-39
0.13971843 0.093862481 1.0697501 2.7590488e-39
0.14221843 0.093862481 1.06725 4.2291202e-39
0.14471842 0.093862481 1.06725 1.5569184e-38
0.14221843 0.093862481 1.0697501 2.1136794e-39
0.14471842 0.093862481 1.0697501 2.4835269e-39
0.14471842 0.093862481 1.07225 1.0780775e-38
0.14721844 0.083862476 1.0697501 2.1179828e-39
0.14721844 0.086362481 1.0697501 1.2882179e-39
0.14721844 0.086362481 1.07225 1.6534075e-39
0.14971843 0.083862476 1.0697501 1.8367099e-40
0.14971843 0.086362481 1.0697501 5.9901964e-39
0.14971843 0.086362481 1.07225 9.3031266e-39
0.14721844 0.088862479 1.06725 3.0385251e-39
0.14721844 0.091362476 1.06725 1.391576e-38
0.14971843 0.088862479 1.06725 1.1520523e-38
0.14971843 0.091362476 1.06725 1.428274e-38
0.14721844 0.088862479 1.0697501 3.3097619e-39
0.14721844 0.088862479 1.07225 3.0342372e-39
0.14721844 0.091362476 1.0697501 7.4642531e-39
0.14721844 0.091362476 1.07225 7.4642531e-39
0.14971843 0.088862479 1.07225 1.1426558e-38
0.14971843 0.091362476 1.0697501 1.2442094e-38
0.14971843 0.091362476 1.07225 1.1981116e-38
0.14721844 0.083862476 1.07725 1.8410441e-39
0.14721844 0.086362481 1.07725 1.8413945e-39
0.14971843 0.083862476 1.07725 0
0.14971843 0.086362481 1.07725 5.8933485e-39
0.14721844 0.083862476 1.0797501 2.6718614e-39
0.14721844 0.086362481 1.0797501 1.5662341e-39
0.14971843 0.083862476 1.0797501 6.4284847e-40
0.14971843 0.086362481 1.0797501 1.2885682e-39
0.14721844 0.088862479 1.07725 2.6693993e-39
0.14971843 0.088862479 1.07725 1.22538e-38
0.14721844 0.088862479 1.0797501 1.9310734e-39
0.14971843 0.088862479 1.0797501 1.1976151e-38
0.15221843 0.088862479 1.0797501 1.298951e-38
0.14721844 0.093862481 1.06725 1.5115064e-38
0.14721844 0.093862481 1.0697501 1.4377794e-38
0.14721844 0.093862481 1.07225 1.4282021e-38
0.14971843 0.093862481 1.0697501 1.4007957e-38
0.14971843 0.093862481 1.07225 1.4191622e-38
0.13721843 0.083862476 1.0847501 1.8367099e-40
0.13721843 0.083862476 1.08725 3.3060779e-39
0.13721843 0.086362481 1.0847501 4.5917748e-40
0.13971843 0.083862476 1.0847501 9.1835496e-41
0.14221843 0.083862476 1.0847501 7.3469798e-40
0.14471842 0.083862476 1.0847501 2.0254368e-39
0.14721844 0.083862476 1.0847501 2.6708048e-39
0.14971843 0.083862476 1.0847501 1.7481423e-39
0.15221843 0.083862476 1.0847501 1.1210388e-44
0.15221843 0.086362481 1.08725 5.8058065e-39
0.15221843 0.083862476 1.0897501 1.2611686e-44
0.15471843 0.083862476 1.0897501 1.4744444e-38
0.15221843 0.083862476 1.09475 8.2724394e-40
0.15471843 0.083862476 1.09475 3.6762897e-39
0.15471843 0.071362481 1.10725 1.4726133e-39
0.15471843 0.068862483 1.11225 1.3797115e-39
0.15471843 0.071362481 1.11225 1.8413945e-39
0.15471843 0.066362478 1.11475 1.4740385e-39
0.15471843 0.068862483 1.11475 1.8410441e-39
0.15471843 0.071362481 1.11475 2.3030677e-39
0.14971843 0.076362483 1.10725 6.4715326e-40
0.15221843 0.076362483 1.10475 1.472263e-39
0.15221843 0.076362483 1.10725 1.8410441e-39
0.15471843 0.073862478 1.10475 2.4867639e-39
0.15471843 0.073862478 1.10725 2.4871114e-39
0.15471843 0.076362483 1.10475 2.3945682e-39
0.15471843 0.076362483 1.10725 2.3023698e-39
0.15221843 0.073862478 1.11225 8.279544e-40
0.15471843 0.073862478 1.11225 3.4036993e-39
0.15221843 0.078862481 1.10475 1.7491988e-39
0.15471843 0.078862481 1.10475 2.9484623e-39
0.15471843 0.073862478 1.11475 2.0254368e-39
0.15721843 0.078862481 1.09725 3.3140078e-39
0.15721843 0.081362478 1.09475 3.5880513e-39
0.15721843 0.081362478 1.09725 3.5880513e-39
0.15971842 0.081362478 1.09725 1.2904431e-39
0.15721843 0.078862481 1.09975 3.2214619e-39
0.15971842 0.078862481 1.09975 2.2987769e-39
0.16221844 0.076362483 1.09975 2.6711551e-39
0.16471843 0.076362483 1.09975 0
0.16221844 0.078862481 1.09975 8.2651947e-40
0.15721843 0.083862476 1.09475 1.1973888e-38
0.15721843 0.066362478 1.11225 9.4734783e-41
0.15971842 0.066362478 1.11225 0
0.15721843 0.071362481 1.10725 3.0399377e-39
0.15971842 0.071362481 1.10725 3.4991179e-39
0.15721843 0.068862483 1.11225 7.3722733e-40
0.15721843 0.071362481 1.11225 1.7491988e-39
0.15971842 0.068862483 1.11225 3.2218122e-39
0.15971842 0.071362481 1.11225 3.4991179e-39
0.16471843 0.06386248 1.10725 6.4338839e-39
0.16471843 0.066362478 1.10725 9.1835496e-40
0.16221844 0.06386248 1.11225 1.7226168e-38
0.16221844 0.066362478 1.11225 5.5101298e-40
0.16221844 0.068862483 1.10725 2.9448652e-39
0.16221844 0.071362481 1.10725 2.5771616e-39
0.16471843 0.068862483 1.10725 4.2291202e-39
0.16471843 0.071362481 1.10725 5.8818116e-39
0.16221844 0.068862483 1.11225 2.1187016e-39
0.16221844 0.071362481 1.11225 2.0272122e-39
0.16471843 0.071362481 1.11225 4.9616503e-39
0.15721843 0.066362478 1.11475 2.0221886e-39
0.15971842 0.066362478 1.11475 2.1804204e-42
0.15721843 0.06386248 1.12225 3.6734198e-39
0.15721843 0.066362478 1.11975 2.8469144e-39
0.15721843 0.066362478 1.12225 6.4284847e-40
0.15971842 0.06386248 1.11975 1.2521675e-38
0.15971842 0.06386248 1.12225 1.1878468e-38
0.15971842 0.066362478 1.11975 3.3060989e-39
0.15971842 0.066362478 1.12225 2.2959168e-39
0.15721843 0.068862483 1.11475 1.7484898e-39
0.15721843 0.071362481 1.11475 2.1179828e-39
0.15971842 0.068862483 1.11475 3.4047741e-39
0.15971842 0.071362481 1.11475 3.4051244e-39
0.15721843 0.068862483 1.11975 2.3906222e-39
0.15721843 0.068862483 1.12225 2.7946376e-40
0.15721843 0.071362481 1.11975 2.8519507e-39
0.15971842 0.068862483 1.11975 1.5612217e-39
0.15971842 0.068862483 1.12225 6.4431283e-40
0.15971842 0.071362481 1.11975 3.4051244e-39
0.16221844 0.06386248 1.11475 1.7503831e-38
0.16221844 0.066362478 1.11475 3.6734198e-40
0.16471843 0.066362478 1.11475 1.0101905e-39
0.16221844 0.06386248 1.11975 1.6121618e-38
0.16221844 0.06386248 1.12225 1.6397483e-38
0.16221844 0.066362478 1.11975 7.0749205e-39
0.16221844 0.066362478 1.12225 6.9827263e-39
0.16471843 0.06386248 1.12225 1.7319438e-38
0.16471843 0.066362478 1.11975 6.5264383e-39
0.16471843 0.066362478 1.12225 9.3794399e-39
0.16221844 0.068862483 1.11475 2.4835381e-39
0.16221844 0.071362481 1.11475 2.6686384e-39
0.16471843 0.068862483 1.11475 4.5028428e-39
0.16471843 0.071362481 1.11475 6.4335364e-39
0.16221844 0.068862483 1.11975 9.1835496e-41
0.16221844 0.068862483 1.12225 0
0.16221844 0.071362481 1.11975 3.4991179e-39
0.16471843 0.068862483 1.11975 8.2651947e-40
0.16471843 0.068862483 1.12225 2.8526695e-39
0.16471843 0.071362481 1.11975 5.8818116e-39
0.15721843 0.073862478 1.10725 3.2243289e-39
0.15721843 0.076362483 1.10475 2.9491685e-39
0.15721843 0.076362483 1.10725 2.9491685e-39
0.15971842 0.073862478 1.10475 3.4991179e-39
0.15971842 0.073862478 1.10725 3.4991179e-39
0.15971842 0.076362483 1.10475 3.4998242e-39
0.15971842 0.076362483 1.10725 3.5920226e-39
0.15721843 0.073862478 1.11225 2.6711551e-39
0.15971842 0.073862478 1.11225 3.3172448e-39
0.15721843 0.078862481 1.10475 3.3172448e-39
0.15971842 0.078862481 1.10475 4.1430398e-39
0.16221844 0.073862478 1.10475 3.8679005e-39
0.16221844 0.073862478 1.10725 2.856617e-39
0.16221844 0.076362483 1.10475 3.7760551e-39
0.16221844 0.076362483 1.10725 3.7757048e-39
0.16471843 0.073862478 1.10475 4.0501239e-39
0.16471843 0.073862478 1.10725 5.1521555e-39
0.16471843 0.076362483 1.10475 0
0.16471843 0.076362483 1.10725 2.6711551e-39
0.16221844 0.073862478 1.11225 3.4094404e-39
0.16471843 0.073862478 1.11225 5.0610388e-39
0.16221844 0.078862481 1.10475 2.0225389e-39
0.16471843 0.078862481 1.10475 0
0.15721843 0.073862478 1.11475 2.3020139e-39
0.15971842 0.073862478 1.11475 3.2218122e-39
0.16221844 0.073862478 1.11475 3.3136575e-39
0.16471843 0.073862478 1.11475 5.5191401e-39
0.16721843 0.06386248 1.10725 1.8367099e-39
0.16721843 0.066362478 1.10725 3.3979582e-39
0.16721843 0.068862483 1.10725 1.0956903e-38
0.16721843 0.071362481 1.10725 1.3532582e-38
0.16721843 0.071362481 1.11225 9.2916023e-39
0.16971843 0.068862483 1.11225 1.0956184e-38
0.16971843 0.071362481 1.11225 1.3532579e-38
0.16721843 0.066362478 1.11475 2.7550649e-40
0.16971843 0.066362478 1.11475 2.4795906e-39
0.16721843 0.06386248 1.12225 1.4829439e-38
0.16721843 0.066362478 1.11975 1.8367099e-39
0.16721843 0.066362478 1.12225 6.1590949e-39
0.16721843 0.068862483 1.11475 7.6392921e-39
0.16721843 0.071362481 1.11475 8.739516e-39
0.16721843 0.068862483 1.11975 0
0.16721843 0.068862483 1.12225 7.3468397e-40
0.16721843 0.071362481 1.11975 8.0048292e-39
0.16971843 0.068862483 1.11975 7.347204e-40
0.16971843 0.068862483 1.12225 1.0865789e-38
0.16721843 0.073862478 1.10725 0
0.16721843 0.076362483 1.10725 1.0101905e-39
0.16721843 0.073862478 1.11225 4.9684845e-39
0.16721843 0.073862478 1.11475 5.424439e-39
0.15971842 0.06386248 1.12725 2.1122164e-39
0.15971842 0.066362478 1.12725 1.3775479e-39
