# .PCD v0.7 - Point Cloud Data file format
VERSION 0.7
FIELDS x y z rgb
SIZE 4 4 4 4
TYPE F F F F
COUNT 1 1 1 1
WIDTH 623
HEIGHT 1
VIEWPOINT 0 0 0 1 0 0 0
POINTS 623
DATA ascii
0.12137312 0.17793982 0.86225003 4.5917748e-40
0.12137312 0.18043981 0.86225003 3.6734198e-40
0.12137312 0.18293981 0.86225003 9.1835496e-41
0.11137312 0.17293982 0.87225002 0
0.10887311 0.17293982 0.87475002 0
0.11137312 0.17293982 0.87475002 0
0.10637312 0.17543982 0.86975002 2.6689859e-39
0.10637312 0.17793982 0.86975002 1.9357579e-39
0.10637312 0.17793982 0.87225002 2.3967304e-39
0.10637312 0.18043981 0.87225002 8.9361392e-39
0.10637312 0.18293981 0.87225002 6.8163627e-39
0.10887311 0.17543982 0.86975002 0
0.10887311 0.17793982 0.86975002 0
0.10887311 0.17793982 0.87225002 0
0.11137312 0.17543982 0.86975002 9.8090893e-45
0.11137312 0.17543982 0.87225002 0
0.11137312 0.17793982 0.86975002 4.3440252e-44
0.11137312 0.17793982 0.87225002 3.7835059e-44
0.10887311 0.18043981 0.87225002 4.9724305e-39
0.10887311 0.18293981 0.87225002 1.0136459e-38
0.11137312 0.18043981 0.86975002 8.3232084e-40
0.11137312 0.18043981 0.87225002 7.0094266e-39
0.11137312 0.18293981 0.86975002 5.0625004e-39
0.11137312 0.18293981 0.87225002 1.1522661e-38
0.10387312 0.17793982 0.87475002 1.3369455e-38
0.10637312 0.17793982 0.87475002 1.5680614e-39
0.10387312 0.18043981 0.87475002 1.6037037e-38
0.10387312 0.18293981 0.87475002 1.5760415e-38
0.10637312 0.18043981 0.87475002 8.1085659e-39
0.10637312 0.18043981 0.87725002 1.6312901e-38
0.10637312 0.18293981 0.87475002 7.5499803e-39
0.10887311 0.17543982 0.87475002 0
0.10887311 0.17543982 0.87725002 0
0.10887311 0.17793982 0.87475002 0
0.10887311 0.17793982 0.87725002 0
0.11137312 0.17543982 0.87475002 0
0.11137312 0.17543982 0.87725002 0
0.11137312 0.17793982 0.87475002 3.7835059e-44
0.11137312 0.17543982 0.87975001 0
0.10887311 0.18043981 0.87475002 3.3229859e-39
0.10887311 0.18043981 0.87725002 0
0.10887311 0.18293981 0.87475002 1.2165122e-38
0.11137312 0.18043981 0.87475002 2.953542e-39
0.11137312 0.18293981 0.87475002 1.1522311e-38
0.11387312 0.17293982 0.87225002 0
0.11637311 0.17293982 0.87225002 4.2038954e-45
0.11887312 0.16793981 0.86975002 1.4373533e-38
0.12137312 0.16793981 0.86975002 1.317499e-38
0.12137312 0.16793981 0.87225002 1.3267542e-38
0.11887312 0.17043982 0.86975002 0
0.12137312 0.17043982 0.86975002 0
0.12137312 0.17043982 0.87225002 0
0.12137312 0.17293982 0.87225002 0
0.11387312 0.17293982 0.87475002 0
0.11387312 0.17293982 0.87725002 0
0.11637311 0.17043982 0.87725002 2.0203837e-39
0.11637311 0.17293982 0.87475002 0
0.11637311 0.17293982 0.87725002 0
0.11387312 0.17293982 0.87975001 0
0.11637311 0.17293982 0.87975001 1.9285524e-39
0.11887312 0.17043982 0.87475002 0
0.11887312 0.17043982 0.87725002 0
0.11887312 0.17293982 0.87475002 4.2038954e-45
0.11887312 0.17293982 0.87725002 0
0.12137312 0.17043982 0.87475002 0
0.12137312 0.17043982 0.87725002 0
0.12137312 0.17293982 0.87475002 0
0.12137312 0.17293982 0.87725002 0
0.11887312 0.17293982 0.87975001 0
0.11387312 0.17793982 0.86725003 7.0064923e-45
0.11637311 0.17793982 0.86475003 5.6051939e-45
0.11637311 0.17793982 0.86725003 7.0064923e-45
0.11387312 0.17543982 0.86975002 1.836766e-40
0.11387312 0.17543982 0.87225002 0
0.11387312 0.17793982 0.86975002 5.6051939e-45
0.11387312 0.17793982 0.87225002 9.18397e-41
0.11637311 0.17543982 0.86975002 3.6734899e-40
0.11637311 0.17543982 0.87225002 1.4012985e-45
0.11637311 0.17793982 0.86975002 5.6051939e-45
0.11637311 0.17793982 0.87225002 7.0064923e-45
0.11387312 0.18043981 0.86475003 0
0.11387312 0.18043981 0.86725003 0
0.11387312 0.18293981 0.86475003 8.2651947e-40
0.11387312 0.18293981 0.86725003 6.4284847e-40
0.11637311 0.18043981 0.86475003 0
0.11637311 0.18043981 0.86725003 0
0.11637311 0.18293981 0.86475003 9.1835496e-41
0.11637311 0.18293981 0.86725003 3.6734198e-40
0.11387312 0.18043981 0.86975002 0
0.11387312 0.18293981 0.86975002 0
0.11637311 0.18043981 0.86975002 5.6051939e-45
0.11637311 0.18293981 0.86975002 0
0.11887312 0.17543982 0.86475003 5.6051939e-45
0.11887312 0.17793982 0.86475003 7.0064923e-45
0.11887312 0.17793982 0.86725003 7.0064923e-45
0.12137312 0.17543982 0.86475003 0
0.12137312 0.17543982 0.86725003 0
0.12137312 0.17793982 0.86475003 7.0064923e-45
0.12137312 0.17793982 0.86725003 7.0064923e-45
0.11887312 0.17543982 0.86975002 0
0.11887312 0.17543982 0.87225002 1.4012985e-45
0.11887312 0.17793982 0.86975002 8.4077908e-45
0.11887312 0.17793982 0.87225002 1.836766e-40
0.12137312 0.17543982 0.86975002 0
0.12137312 0.17543982 0.87225002 0
0.12137312 0.17793982 0.86975002 5.6051939e-45
0.11887312 0.18043981 0.86475003 3.6734198e-40
0.11887312 0.18043981 0.86725003 0
0.11887312 0.18293981 0.86475003 1.8367099e-40
0.11887312 0.18293981 0.86725003 4.5917748e-40
0.12137312 0.18043981 0.86475003 3.6734198e-40
0.12137312 0.18293981 0.86475003 0
0.11387312 0.17543982 0.87475002 0
0.11387312 0.17543982 0.87725002 0
0.11637311 0.17543982 0.87475002 9.18397e-41
0.11637311 0.17543982 0.87725002 0
0.11637311 0.17793982 0.87475002 3.6734899e-40
0.11887312 0.17543982 0.87475002 1.4012985e-45
0.11887312 0.17543982 0.87725002 4.2038954e-45
0.11887312 0.17793982 0.87475002 0
0.12137312 0.17543982 0.87475002 0
0.12387311 0.16793981 0.86975002 9.3963942e-39
0.12387311 0.16793981 0.87225002 8.570944e-39
0.12637311 0.16793981 0.86975002 4.5194005e-39
0.12637311 0.16793981 0.87225002 4.4272035e-39
0.12387311 0.17043982 0.86975002 0
0.12387311 0.17043982 0.87225002 0
0.12387311 0.17293982 0.87225002 0
0.12637311 0.17043982 0.86975002 0
0.12637311 0.17043982 0.87225002 0
0.12637311 0.17293982 0.87225002 0
0.13137312 0.16793981 0.86975002 0
0.12887311 0.17293982 0.87225002 0
0.13137312 0.17043982 0.86975002 0
0.13137312 0.17043982 0.87225002 0
0.13137312 0.17293982 0.87225002 0
0.12387311 0.17043982 0.87475002 0
0.12387311 0.17293982 0.87475002 0
0.12387311 0.17293982 0.87725002 0
0.12637311 0.17043982 0.87475002 0
0.12637311 0.17043982 0.87725002 0
0.12637311 0.17293982 0.87475002 0
0.12637311 0.17293982 0.87725002 0
0.12887311 0.17043982 0.87475002 0
0.12887311 0.17043982 0.87725002 0
0.12887311 0.17293982 0.87475002 9.18397e-41
0.12887311 0.17293982 0.87725002 0
0.13137312 0.17043982 0.87475002 0
0.13137312 0.17043982 0.87725002 0
0.13137312 0.17293982 0.87475002 0
0.13137312 0.17293982 0.87725002 0
0.12387311 0.17543982 0.86475003 7.0064923e-45
0.12387311 0.17543982 0.86725003 0
0.12387311 0.17793982 0.86475003 3.6734198e-40
0.12387311 0.17793982 0.86725003 5.6051939e-45
0.12637311 0.17793982 0.86725003 1.821688e-44
0.12387311 0.17543982 0.86975002 5.6051939e-45
0.12387311 0.17543982 0.87225002 1.4012985e-45
0.12387311 0.17793982 0.86975002 7.0064923e-45
0.12637311 0.17543982 0.86975002 1.8404094e-40
0.12637311 0.17543982 0.87225002 3.6734198e-40
0.12637311 0.17793982 0.86975002 1.9618179e-44
0.12637311 0.17793982 0.87225002 1.9618179e-44
0.12387311 0.18043981 0.86475003 3.6734198e-40
0.12387311 0.18293981 0.86475003 9.1835496e-41
0.12637311 0.18043981 0.86475003 9.1835496e-41
0.12637311 0.18043981 0.86725003 3.6734198e-40
0.12637311 0.18293981 0.86475003 9.1835496e-41
0.12637311 0.18293981 0.86725003 9.1835496e-41
0.12887311 0.17793982 0.86725003 4.5917748e-40
0.12887311 0.17543982 0.86975002 4.5918589e-40
0.12887311 0.17543982 0.87225002 3.6734198e-40
0.12887311 0.17793982 0.86975002 1.8439126e-40
0.13137312 0.17543982 0.86975002 1.9618179e-44
0.13137312 0.17543982 0.87225002 5.6051939e-45
0.13137312 0.17793982 0.86975002 4.5918589e-40
0.13137312 0.17793982 0.87225002 3.6734899e-40
0.12887311 0.18043981 0.86475003 9.1835496e-41
0.12887311 0.18043981 0.86725003 3.6734198e-40
0.12887311 0.18293981 0.86475003 9.1835496e-41
0.12887311 0.18293981 0.86725003 1.8367099e-40
0.13137312 0.18043981 0.86725003 0
0.13137312 0.18293981 0.86725003 0
0.13137312 0.18043981 0.86975002 3.6734198e-40
0.13137312 0.18293981 0.86975002 0
0.12387311 0.17543982 0.87475002 0
0.12637311 0.17543982 0.87475002 0
0.12637311 0.17543982 0.87725002 0
0.12887311 0.17543982 0.87475002 0
0.13137312 0.17543982 0.87475002 1.836766e-40
0.13137312 0.17543982 0.87725002 9.18397e-41
0.13387312 0.16793981 0.86975002 0
0.13387312 0.17043982 0.86975002 0
0.13387312 0.17043982 0.87225002 0
0.13387312 0.17293982 0.87225002 0
0.13387312 0.17043982 0.87475002 0
0.13387312 0.17043982 0.87725002 0
0.13387312 0.17293982 0.87475002 5.6051939e-45
0.13387312 0.17293982 0.87725002 0
0.13637312 0.17043982 0.87725002 4.2038954e-45
0.13637312 0.17293982 0.87725002 1.4012985e-45
0.13387312 0.17293982 0.87975001 0
0.13637312 0.17043982 0.87975001 0
0.13637312 0.17293982 0.87975001 0
0.13887312 0.16793981 0.87725002 0
0.14137311 0.16793981 0.87725002 0
0.13887312 0.16793981 0.87975001 0
0.14137311 0.16793981 0.87975001 0
0.13887312 0.17043982 0.87725002 0
0.14137311 0.17043982 0.87725002 0
0.13887312 0.17043982 0.87975001 0
0.13887312 0.17293982 0.87975001 1.4012985e-45
0.14137311 0.17043982 0.87975001 0
0.14137311 0.17293982 0.87975001 1.4012985e-45
0.13387312 0.17543982 0.86975002 6.4284847e-40
0.13387312 0.17543982 0.87225002 8.4077908e-45
0.13387312 0.17793982 0.86975002 3.6734198e-40
0.13387312 0.17793982 0.87225002 4.5918589e-40
0.13637312 0.17543982 0.86975002 4.5917748e-40
0.13637312 0.17793982 0.86975002 1.8367099e-40
0.13637312 0.17793982 0.87225002 4.591971e-40
0.13387312 0.18043981 0.86725003 0
0.13387312 0.18293981 0.86725003 0
0.13387312 0.18043981 0.86975002 5.6051939e-45
0.13387312 0.18293981 0.86975002 0
0.13637312 0.18043981 0.86975002 0
0.13637312 0.18293981 0.86975002 0
0.13887312 0.17543982 0.86975002 6.4285128e-40
0.13887312 0.17793982 0.86975002 3.6734198e-40
0.13887312 0.17793982 0.87225002 6.4285968e-40
0.14137311 0.17793982 0.86975002 3.6734198e-40
0.14137311 0.17793982 0.87225002 4.5917748e-40
0.13887312 0.18043981 0.86975002 0
0.13887312 0.18293981 0.86975002 1.1967313e-39
0.13887312 0.18293981 0.87225002 0
0.14137311 0.18043981 0.86975002 0
0.14137311 0.18043981 0.87225002 0
0.14137311 0.18293981 0.86975002 0
0.14137311 0.18293981 0.87225002 0
0.13387312 0.17543982 0.87475002 3.6734899e-40
0.13387312 0.17543982 0.87725002 5.6051939e-45
0.13637312 0.17543982 0.87475002 8.4077908e-45
0.13637312 0.17543982 0.87725002 5.6051939e-45
0.13637312 0.17543982 0.87975001 3.6734899e-40
0.13887312 0.17543982 0.87475002 8.4077908e-45
0.13887312 0.17543982 0.87725002 0
0.14137311 0.17543982 0.87475002 0
0.14137311 0.17543982 0.87725002 0
0.14137311 0.17793982 0.87475002 4.5917748e-40
0.13887312 0.17543982 0.87975001 7.0064923e-45
0.14137311 0.17543982 0.87975001 7.0064923e-45
0.14387311 0.16793981 0.87975001 0
0.14637312 0.16793981 0.87975001 0
0.14637312 0.17293982 0.87725002 4.5917748e-40
0.14387311 0.17043982 0.87975001 0
0.14387311 0.17043982 0.88225001 0
0.14387311 0.17293982 0.87975001 0
0.14387311 0.17293982 0.88225001 0
0.14637312 0.17043982 0.87975001 0
0.14637312 0.17043982 0.88225001 0
0.14637312 0.17293982 0.87975001 0
0.14637312 0.17293982 0.88225001 0
0.14887312 0.16793981 0.87975001 0
0.14887312 0.16793981 0.88225001 0
0.15137312 0.16793981 0.87975001 2.8025969e-45
0.15137312 0.16793981 0.88225001 0
0.14887312 0.17043982 0.87725002 9.1835496e-41
0.14887312 0.17293982 0.87475002 1.821688e-44
0.14887312 0.17293982 0.87725002 3.6734899e-40
0.15137312 0.17043982 0.87725002 9.18397e-41
0.15137312 0.17293982 0.87475002 7.0064923e-45
0.15137312 0.17293982 0.87725002 7.0064923e-45
0.14887312 0.17043982 0.87975001 0
0.14887312 0.17043982 0.88225001 0
0.14887312 0.17293982 0.87975001 1.8367099e-40
0.14887312 0.17293982 0.88225001 4.2038954e-45
0.15137312 0.17043982 0.87975001 1.4012985e-45
0.15137312 0.17043982 0.88225001 0
0.15137312 0.17293982 0.87975001 5.6051939e-45
0.15137312 0.17293982 0.88225001 3.6734899e-40
0.14387311 0.17793982 0.86975002 3.6734899e-40
0.14387311 0.17793982 0.87225002 4.5917748e-40
0.14637312 0.17793982 0.87225002 0
0.14387311 0.18043981 0.86975002 0
0.14387311 0.18043981 0.87225002 0
0.14387311 0.18293981 0.87225002 9.187151e-40
0.14637312 0.18043981 0.87225002 0
0.14887312 0.17543982 0.87225002 4.5917748e-40
0.14887312 0.17793982 0.87225002 7.0064923e-45
0.15137312 0.17543982 0.87225002 7.0064923e-45
0.15137312 0.17793982 0.87225002 4.5917748e-40
0.14887312 0.18043981 0.87225002 0
0.15137312 0.18043981 0.87225002 0
0.14387311 0.17543982 0.87475002 4.5918589e-40
0.14387311 0.17543982 0.87725002 0
0.14387311 0.17793982 0.87475002 3.6734899e-40
0.14387311 0.17793982 0.87725002 3.6734899e-40
0.14637312 0.17543982 0.87475002 0
0.14637312 0.17543982 0.87725002 8.4077908e-45
0.14637312 0.17793982 0.87475002 3.6734899e-40
0.14637312 0.17793982 0.87725002 0
0.14387311 0.17543982 0.87975001 0
0.14637312 0.17543982 0.87975001 7.0064923e-45
0.14387311 0.18043981 0.87475002 5.6051939e-45
0.14387311 0.18293981 0.87475002 2.4802773e-39
0.14637312 0.18043981 0.87475002 0
0.14637312 0.18293981 0.87475002 5.1539505e-39
0.14887312 0.17543982 0.87475002 3.6734899e-40
0.14887312 0.17543982 0.87725002 3.673602e-40
0.14887312 0.17793982 0.87475002 3.6734198e-40
0.15137312 0.17543982 0.87475002 3.6734899e-40
0.15137312 0.17543982 0.87725002 3.6734899e-40
0.15137312 0.17793982 0.87475002 4.5917748e-40
0.14887312 0.18043981 0.87475002 0
0.14887312 0.18293981 0.87475002 6.6340776e-39
0.15137312 0.18043981 0.87475002 0
0.15137312 0.18293981 0.87475002 0
0.14387311 0.17043982 0.88475001 0
0.15387312 0.16543981 0.88225001 0
0.15387312 0.16793981 0.87975001 0
0.15387312 0.16793981 0.88225001 0
0.15637311 0.16543981 0.88225001 0
0.15637311 0.16793981 0.88225001 0
0.15387312 0.17293982 0.87725002 8.4077908e-45
0.15387312 0.17043982 0.87975001 0
0.15387312 0.17043982 0.88225001 0
0.15387312 0.17293982 0.87975001 1.821688e-44
0.15387312 0.17293982 0.88225001 4.2038954e-45
0.15637311 0.17043982 0.88225001 1.4012985e-45
0.15637311 0.17293982 0.87975001 7.0064923e-45
0.15637311 0.17293982 0.88225001 1.821688e-44
0.15887311 0.16543981 0.88225001 0
0.15887311 0.16793981 0.88225001 0
0.15887311 0.17043982 0.88225001 1.4012985e-45
0.15887311 0.17293982 0.87975001 7.0064923e-45
0.15887311 0.17293982 0.88225001 0
0.16137311 0.17293982 0.87975001 7.0064923e-45
0.16137311 0.17293982 0.88225001 0
0.15387312 0.17543982 0.87475002 8.4077908e-45
0.15387312 0.17543982 0.87725002 4.5918589e-40
0.15387312 0.17793982 0.87475002 4.5917748e-40
0.15387312 0.17793982 0.87725002 3.6734198e-40
0.15637311 0.17543982 0.87725002 7.3504691e-40
0.15637311 0.17793982 0.87475002 3.6734198e-40
0.15637311 0.17793982 0.87725002 3.6734198e-40
0.15387312 0.17543982 0.87975001 7.0064923e-45
0.15637311 0.17543982 0.87975001 8.4077908e-45
0.15387312 0.18043981 0.87475002 0
0.15387312 0.18043981 0.87725002 0
0.15387312 0.18293981 0.87475002 0
0.15637311 0.18043981 0.87475002 0
0.15637311 0.18043981 0.87725002 1.8367099e-40
0.15637311 0.18293981 0.87475002 9.1835496e-41
0.15887311 0.17543982 0.87725002 3.6734899e-40
0.15887311 0.17793982 0.87725002 9.18397e-41
0.16137311 0.17543982 0.87725002 3.6734198e-40
0.16137311 0.17793982 0.87725002 0
0.15887311 0.17543982 0.87975001 8.4077908e-45
0.15887311 0.17793982 0.87975001 9.18397e-41
0.16137311 0.17543982 0.87975001 7.0064923e-45
0.16137311 0.17543982 0.88225001 3.6734198e-40
0.16137311 0.17793982 0.87975001 9.185091e-41
0.15887311 0.18043981 0.87725002 0
0.16137311 0.18043981 0.87725002 0
0.15887311 0.18043981 0.87975001 0
0.16137311 0.18043981 0.87975001 0
0.16387312 0.17293982 0.87975001 0
0.16387312 0.17293982 0.88225001 0
0.16637312 0.17043982 0.88225001 1.836766e-40
0.16637312 0.17293982 0.87975001 0
0.16637312 0.17293982 0.88225001 8.4077908e-45
0.16887312 0.17043982 0.88225001 7.0064923e-45
0.16887312 0.17293982 0.87975001 0
0.16887312 0.17293982 0.88225001 0
0.17137311 0.17043982 0.87975001 3.6734198e-40
0.17137311 0.17043982 0.88225001 0
0.17137311 0.17293982 0.87975001 6.4285128e-40
0.17137311 0.17293982 0.88225001 0
0.16387312 0.17543982 0.87725002 3.6734198e-40
0.16387312 0.17793982 0.87725002 0
0.16637312 0.17543982 0.87725002 3.6734198e-40
0.16387312 0.17543982 0.87975001 4.5917748e-40
0.16387312 0.17793982 0.87975001 0
0.16637312 0.17543982 0.87975001 3.6734198e-40
0.16637312 0.17793982 0.87975001 0
0.16387312 0.18043981 0.87725002 3.8578419e-39
0.16387312 0.18043981 0.87975001 0
0.16637312 0.18043981 0.87975001 2.6624671e-44
0.16887312 0.17543982 0.87725002 9.1835496e-41
0.16887312 0.17543982 0.87975001 3.6734198e-40
0.16887312 0.17793982 0.87975001 0
0.17137311 0.17543982 0.87975001 1.8367099e-40
0.17137311 0.17543982 0.88225001 0
0.17137311 0.17793982 0.87975001 1.4012985e-45
0.17137311 0.17793982 0.88225001 1.2611686e-44
0.16887312 0.18043981 0.87975001 1.4012985e-45
0.16887312 0.18043981 0.88225001 2.1019477e-44
0.17137311 0.18043981 0.87975001 0
0.17137311 0.18043981 0.88225001 0
0.15387312 0.16793981 0.88475001 0
0.15387312 0.16793981 0.88725001 0
0.15637311 0.16793981 0.88475001 0
0.15637311 0.16793981 0.88725001 0
0.15387312 0.17043982 0.88475001 5.6051939e-45
0.15637311 0.17043982 0.88475001 4.2038954e-45
0.15637311 0.17293982 0.88475001 5.6051939e-45
0.15887311 0.16543981 0.88475001 8.2043321e-39
0.15887311 0.16793981 0.88475001 0
0.15887311 0.16793981 0.88725001 0
0.16137311 0.16543981 0.88475001 1.1949685e-39
0.16137311 0.16543981 0.88725001 1.4715568e-39
0.16137311 0.16793981 0.88475001 0
0.16137311 0.16793981 0.88725001 0
0.15887311 0.17043982 0.88475001 0
0.15887311 0.17293982 0.88475001 5.6051939e-45
0.16137311 0.17043982 0.88475001 0
0.16137311 0.17043982 0.88725001 1.4012985e-45
0.16137311 0.17293982 0.88475001 0
0.16137311 0.17293982 0.88725001 5.6051939e-45
0.15637311 0.17543982 0.88475001 3.6734899e-40
0.15887311 0.17543982 0.88475001 3.6734899e-40
0.16137311 0.17543982 0.88475001 3.6734899e-40
0.16387312 0.16543981 0.88725001 0
0.16387312 0.16793981 0.88725001 0
0.16637312 0.16793981 0.88475001 0
0.16637312 0.16793981 0.88725001 0
0.16387312 0.16543981 0.88975 0
0.16387312 0.16793981 0.88975 0
0.16637312 0.16543981 0.88975 0
0.16637312 0.16793981 0.88975 0
0.16387312 0.17043982 0.88475001 0
0.16387312 0.17043982 0.88725001 9.18397e-41
0.16387312 0.17293982 0.88475001 0
0.16387312 0.17293982 0.88725001 7.0064923e-45
0.16637312 0.17043982 0.88475001 7.0064923e-45
0.16637312 0.17043982 0.88725001 0
0.16637312 0.17293982 0.88475001 9.1845305e-41
0.16637312 0.17293982 0.88725001 7.0064923e-45
0.16887312 0.16793981 0.88475001 0
0.16887312 0.16793981 0.88725001 0
0.17137311 0.16793981 0.88475001 1.4012985e-45
0.17137311 0.16793981 0.88725001 0
0.16887312 0.16543981 0.88975 0
0.16887312 0.16793981 0.88975 0
0.17137311 0.16543981 0.88975 0
0.17137311 0.16793981 0.88975 0
0.16887312 0.17043982 0.88475001 0
0.16887312 0.17043982 0.88725001 0
0.16887312 0.17293982 0.88475001 4.5917748e-40
0.17137311 0.17043982 0.88475001 8.4077908e-45
0.17137311 0.17043982 0.88725001 7.0064923e-45
0.18387312 0.16043982 0.88975 1.0101905e-39
0.18387312 0.16293982 0.88975 0
0.18637311 0.16043982 0.88975 6.4284847e-40
0.18637311 0.16293982 0.88975 0
0.18887311 0.16043982 0.88975 0
0.18887311 0.16293982 0.88975 0
0.19137311 0.16293982 0.88975 0
0.18387312 0.16293982 0.89475006 0
0.18637311 0.16293982 0.89475006 0
0.18887311 0.16293982 0.89475006 0
0.19137311 0.16293982 0.89475006 0
0.17387311 0.17043982 0.87975001 7.0064923e-45
0.17387311 0.17043982 0.88225001 7.0064923e-45
0.17387311 0.17293982 0.87975001 0
0.17387311 0.17293982 0.88225001 3.6734198e-40
0.17637311 0.17043982 0.87975001 9.1845305e-41
0.17637311 0.17043982 0.88225001 2.7589044e-40
0.17637311 0.17293982 0.87975001 4.2038954e-45
0.17637311 0.17293982 0.88225001 0
0.17887312 0.17043982 0.88225001 7.0064923e-45
0.17887312 0.17293982 0.88225001 0
0.18137312 0.17043982 0.88225001 0
0.18137312 0.17293982 0.88225001 0
0.17387311 0.17543982 0.88225001 1.8367099e-40
0.17387311 0.17793982 0.88225001 9.1835496e-41
0.17637311 0.17543982 0.88225001 9.1835496e-41
0.17637311 0.17793982 0.88225001 0
0.17387311 0.18043981 0.88225001 0
0.17887312 0.17543982 0.88225001 0
0.18137312 0.17543982 0.88225001 0
0.18387312 0.17043982 0.88225001 1.8367099e-40
0.18387312 0.17293982 0.88225001 0
0.19137311 0.16793981 0.87975001 7.0064923e-45
0.19137311 0.16793981 0.88225001 0
0.19137311 0.17043982 0.87975001 9.18397e-41
0.19137311 0.17043982 0.88225001 9.18397e-41
0.19137311 0.17293982 0.87975001 0
0.19137311 0.17293982 0.88225001 1.4012985e-45
0.17387311 0.16543981 0.88725001 0
0.17387311 0.16793981 0.88475001 9.1835496e-41
0.17387311 0.16793981 0.88725001 0
0.17637311 0.16543981 0.88725001 0
0.17637311 0.16793981 0.88475001 1.8367099e-40
0.17637311 0.16793981 0.88725001 0
0.17387311 0.16543981 0.88975 0
0.17387311 0.16793981 0.88975 0
0.17637311 0.16543981 0.88975 0
0.17637311 0.16793981 0.88975 0
0.17387311 0.17043982 0.88475001 8.4077908e-45
0.17637311 0.17043982 0.88475001 6.4285128e-40
0.17887312 0.16543981 0.88725001 0
0.17887312 0.16793981 0.88475001 4.5918589e-40
0.17887312 0.16793981 0.88725001 0
0.18137312 0.16543981 0.88725001 0
0.18137312 0.16793981 0.88475001 0
0.18137312 0.16793981 0.88725001 0
0.17887312 0.16543981 0.88975 0
0.17887312 0.16793981 0.88975 1.4012985e-45
0.18137312 0.16543981 0.88975 0
0.18137312 0.16793981 0.88975 0
0.17887312 0.17043982 0.88475001 1.8369341e-40
0.17887312 0.17043982 0.88725001 0
0.17887312 0.17293982 0.88475001 0
0.18137312 0.17043982 0.88475001 2.7658689e-40
0.18137312 0.17043982 0.88725001 3.6734198e-40
0.18137312 0.17293982 0.88475001 0
0.17637311 0.17543982 0.88475001 0
0.17637311 0.17793982 0.88475001 0
0.17887312 0.17543982 0.88475001 0
0.17887312 0.17793982 0.88475001 9.1835496e-41
0.18137312 0.17543982 0.88475001 0
0.18137312 0.17793982 0.88475001 0
0.18387312 0.16793981 0.88725001 1.8439126e-40
0.18387312 0.16543981 0.88975 0
0.18387312 0.16793981 0.88975 0
0.18637311 0.16543981 0.88975 3.5873241e-43
0.18637311 0.16793981 0.88975 2.7658689e-40
0.18387312 0.17043982 0.88475001 2.7658689e-40
0.18387312 0.17043982 0.88725001 7.3504691e-40
0.18387312 0.17293982 0.88475001 0
0.18637311 0.17043982 0.88475001 1.8367099e-40
0.18637311 0.17043982 0.88725001 2.7658689e-40
0.18637311 0.17293982 0.88475001 0
0.18637311 0.17293982 0.88725001 0
0.18637311 0.17043982 0.88975 6.4284847e-40
0.18887311 0.16793981 0.88475001 9.18397e-41
0.18887311 0.16793981 0.88725001 7.3504691e-40
0.19137311 0.16793981 0.88475001 0
0.19137311 0.16793981 0.88725001 1.4012985e-45
0.18887311 0.16543981 0.88975 0
0.18887311 0.16793981 0.88975 7.3504691e-40
0.19137311 0.16543981 0.88975 4.0407618e-39
0.19137311 0.16793981 0.88975 5.0563697e-39
0.18887311 0.17043982 0.88475001 0
0.18887311 0.17043982 0.88725001 0
0.18887311 0.17293982 0.88475001 0
0.18887311 0.17293982 0.88725001 0
0.19137311 0.17043982 0.88475001 0
0.19137311 0.17043982 0.88725001 0
0.19137311 0.17293982 0.88475001 0
0.19137311 0.17293982 0.88725001 0
0.18887311 0.17043982 0.88975 6.4284847e-40
0.18387312 0.16543981 0.89475006 0
0.18637311 0.16543981 0.89475006 0
0.18887311 0.16543981 0.89475006 1.4012985e-45
0.19137311 0.16543981 0.89475006 8.2651947e-40
0.19137311 0.16793981 0.89475006 3.6734198e-39
0.18387312 0.17543982 0.88475001 0
0.18387312 0.17543982 0.88725001 0
0.18387312 0.17793982 0.88475001 0
0.18637311 0.17543982 0.88475001 0
0.18637311 0.17543982 0.88725001 1.4012985e-45
0.18637311 0.17793982 0.88475001 0
0.18887311 0.17543982 0.88475001 0
0.18887311 0.17543982 0.88725001 1.4012985e-45
0.19137311 0.17543982 0.88475001 0
0.19137311 0.17543982 0.88725001 0
0.19387312 0.16793981 0.87975001 0
0.19387312 0.16793981 0.88225001 0
0.19637312 0.16793981 0.87975001 7.3468397e-40
0.19387312 0.17043982 0.87975001 0
0.19387312 0.17043982 0.88225001 0
0.19387312 0.17293982 0.87975001 1.83678e-40
0.19387312 0.17293982 0.88225001 3.6734899e-40
0.19637312 0.17043982 0.88225001 0
0.19637312 0.17293982 0.88225001 2.3880816e-39
0.19387312 0.16543981 0.88725001 1.3453708e-38
0.19387312 0.16793981 0.88475001 0
0.19387312 0.16793981 0.88725001 5.5119501e-39
0.19637312 0.16793981 0.88475001 3.2142424e-39
0.19637312 0.16793981 0.88725001 4.0407618e-39
0.19387312 0.16543981 0.88975 1.4545304e-38
0.19387312 0.16793981 0.88975 4.8690862e-39
0.19637312 0.16793981 0.88975 3.7652553e-39
0.19387312 0.17043982 0.88475001 3.6734198e-40
0.19387312 0.17043982 0.88725001 0
0.19387312 0.17293982 0.88475001 5.5101438e-40
0.19387312 0.17293982 0.88725001 9.1835496e-41
0.19637312 0.17043982 0.88475001 0
0.19637312 0.17043982 0.88725001 0
0.19637312 0.17293982 0.88475001 2.1122248e-39
0.19637312 0.17293982 0.88725001 2.6653818e-39
0.19637312 0.17293982 0.88975 2.0203851e-39
0.19887312 0.17293982 0.88725001 5.4305598e-39
0.19887312 0.17293982 0.88975 5.706774e-39
0.19387312 0.16543981 0.89475006 1.1883508e-38
0.19387312 0.16793981 0.89475006 1.3716993e-38
0.19637312 0.16793981 0.89475006 1.3269311e-38
0.19387312 0.17543982 0.88475001 1.3775465e-39
0.19387312 0.17543982 0.88725001 9.1835496e-41
0.19637312 0.17543982 0.88725001 9.1835496e-41
0.19637312 0.17543982 0.88975 3.3060919e-39
0.19637312 0.17793982 0.88975 0
0.19887312 0.17543982 0.88725001 0
0.19887312 0.17543982 0.88975 6.3474715e-39
0.19887312 0.17793982 0.88975 0
0.11137312 0.18543983 0.86975002 2.847985e-39
0.11387312 0.18543983 0.86725003 1.2856969e-39
0.11637311 0.18543983 0.86475003 7.3468397e-40
0.11637311 0.18543983 0.86725003 9.1835496e-41
0.11387312 0.18543983 0.86975002 4.5917748e-40
0.11887312 0.18543983 0.86475003 0
0.11887312 0.18543983 0.86725003 0
0.12137312 0.18543983 0.86475003 0
0.12137312 0.18543983 0.86725003 0
0.12387311 0.18543983 0.86475003 0
0.12387311 0.18543983 0.86725003 0
0.12637311 0.18543983 0.86725003 0
0.12887311 0.18543983 0.86725003 0
0.12887311 0.18543983 0.86975002 0
0.13137312 0.18543983 0.86975002 0
0.13387312 0.18543983 0.86975002 8.1121364e-39
