# .PCD v0.7 - Point Cloud Data file format
VERSION 0.7
FIELDS x y z rgb
SIZE 4 4 4 4
TYPE F F F F
COUNT 1 1 1 1
WIDTH 825
HEIGHT 1
VIEWPOINT 0 0 0 1 0 0 0
POINTS 825
DATA ascii
-0.24915522 0.17381936 0.87125009 0
-0.24915522 0.17631936 0.86625004 1.076775e-38
-0.24915522 0.17881936 0.86375004 7.3468397e-40
-0.24915522 0.17881936 0.86625004 0
-0.24915522 0.17631936 0.8687501 1.076775e-38
-0.24915522 0.17631936 0.87125009 2.7550649e-40
-0.24915522 0.17881936 0.8687501 0
-0.24915522 0.17881936 0.87125009 0
-0.24915522 0.18381935 0.85375005 2.486733e-39
-0.24915522 0.18381935 0.85625005 0
-0.24915522 0.18131936 0.85875005 2.4795584e-39
-0.24915522 0.18131936 0.86125004 2.7550649e-40
-0.24915522 0.18381935 0.85875005 0
-0.25165522 0.18631935 0.85625005 1.2722959e-38
-0.25165522 0.18881936 0.85625005 1.5943362e-38
-0.24915522 0.18631935 0.85375005 8.6667171e-39
-0.24915522 0.18631935 0.85625005 1.0962686e-38
-0.24915522 0.18881936 0.85375005 1.704972e-38
-0.24915522 0.18881936 0.85625005 1.612884e-38
-0.25165522 0.18631935 0.85875005 8.8507426e-39
-0.25165522 0.18881936 0.85875005 1.5942658e-38
-0.24915522 0.18131936 0.86375004 2.7550649e-40
-0.24915522 0.18131936 0.86625004 0
-0.24915522 0.18381935 0.86625004 2.8469004e-39
-0.25165522 0.18131936 0.8687501 1.1938615e-39
-0.24915522 0.18131936 0.8687501 0
-0.24665523 0.18131936 0.85125005 0
-0.24665523 0.18381935 0.85125005 0
-0.24665523 0.18881936 0.85125005 9.214175e-39
-0.24415523 0.18881936 0.85125005 1.156912e-41
-0.24415523 0.17381936 0.85875005 0
-0.23915523 0.17881936 0.86125004 1.6562941e-39
-0.24665523 0.17131937 0.86375004 4.0468645e-39
-0.24665523 0.17131937 0.86625004 0
-0.24665523 0.17381936 0.86375004 0
-0.24665523 0.17381936 0.86625004 0
-0.24415523 0.17131937 0.86375004 0
-0.24415523 0.17381936 0.86375004 0
-0.24665523 0.17131937 0.87125009 9.563806e-39
-0.24665523 0.17381936 0.8687501 0
-0.24665523 0.17381936 0.87125009 0
-0.24415523 0.17131937 0.87125009 3.8570908e-39
-0.24415523 0.17381936 0.8687501 9.230325e-40
-0.24415523 0.17381936 0.87125009 3.6985872e-40
-0.24665523 0.17631936 0.86625004 0
-0.24665523 0.17881936 0.86375004 2.1537957e-42
-0.24665523 0.17881936 0.86625004 2.3020139e-39
-0.24415523 0.17631936 0.86625004 6.4320721e-40
-0.24415523 0.17881936 0.86375004 8.2941034e-40
-0.24415523 0.17881936 0.86625004 9.1835496e-41
-0.24665523 0.17631936 0.8687501 0
-0.24665523 0.17631936 0.87125009 0
-0.24665523 0.17881936 0.8687501 1.7531435e-39
-0.24665523 0.17881936 0.87125009 9.2160738e-40
-0.24415523 0.17631936 0.8687501 7.3576017e-40
-0.24415523 0.17631936 0.87125009 8.2976067e-40
-0.24415523 0.17881936 0.8687501 0
-0.24415523 0.17881936 0.87125009 0
-0.24165523 0.17381936 0.87125009 1.4012985e-45
-0.24165523 0.17631936 0.86625004 4.5918589e-40
-0.24165523 0.17881936 0.86375004 6.4285968e-40
-0.24165523 0.17881936 0.86625004 1.0109247e-39
-0.23915523 0.17881936 0.86375004 1.1056385e-39
-0.23915523 0.17881936 0.86625004 1.6566445e-39
-0.24165523 0.17631936 0.8687501 4.5917748e-40
-0.24165523 0.17631936 0.87125009 5.51034e-40
-0.24165523 0.17881936 0.8687501 1.8439126e-40
-0.24165523 0.17881936 0.87125009 6.4501908e-40
-0.23915523 0.17631936 0.8687501 2.1176324e-39
-0.23915523 0.17631936 0.87125009 1.1056385e-39
-0.23915523 0.17881936 0.8687501 1.8435623e-39
-0.23915523 0.17881936 0.87125009 1.9357579e-39
-0.24665523 0.18131936 0.85375005 2.6632294e-39
-0.24665523 0.18131936 0.85625005 2.2420775e-44
-0.24665523 0.18381935 0.85375005 2.1223898e-39
-0.24665523 0.18381935 0.85625005 0
-0.24415523 0.18131936 0.85375005 1.2611686e-44
-0.24415523 0.18131936 0.85625005 1.3825841e-39
-0.24415523 0.18381935 0.85375005 0
-0.24415523 0.18381935 0.85625005 1.6562941e-39
-0.24665523 0.18131936 0.85875005 6.4286249e-40
-0.24665523 0.18131936 0.86125004 1.1038294e-39
-0.24665523 0.18381935 0.85875005 1.7484898e-39
-0.24415523 0.18131936 0.85875005 7.0064923e-45
-0.24415523 0.18131936 0.86125004 3.6734899e-40
-0.24415523 0.18381935 0.85875005 0
-0.24665523 0.18631935 0.85375005 9.5786765e-39
-0.24665523 0.18631935 0.85625005 9.5797513e-39
-0.24665523 0.18881936 0.85375005 9.8598947e-39
-0.24665523 0.18881936 0.85625005 8.5691587e-39
-0.24415523 0.18631935 0.85375005 0
-0.24415523 0.18631935 0.85625005 0
-0.24415523 0.18881936 0.85375005 2.8025969e-44
-0.24415523 0.18881936 0.85625005 2.1019477e-44
-0.24665523 0.18631935 0.85875005 1.3886531e-39
-0.24665523 0.18881936 0.85875005 7.3691904e-40
-0.24415523 0.18631935 0.85875005 0
-0.24415523 0.18881936 0.85875005 0
-0.24165523 0.18131936 0.85625005 0
-0.24165523 0.18381935 0.85375005 1.821688e-44
-0.24165523 0.18381935 0.85625005 0
-0.24165523 0.18131936 0.86125004 4.5992157e-40
-0.24165523 0.18381935 0.85875005 6.4357014e-40
-0.24165523 0.18381935 0.86125004 9.1867726e-41
-0.23915523 0.18131936 0.86125004 2.1179828e-39
-0.23915523 0.18381935 0.85875005 1.011631e-39
-0.23915523 0.18381935 0.86125004 1.472263e-39
-0.24165523 0.18631935 0.85375005 0
-0.24165523 0.18631935 0.85625005 0
-0.24165523 0.18881936 0.85375005 0
-0.24165523 0.18881936 0.85625005 2.7838195e-40
-0.23915523 0.18631935 0.85625005 6.9971569e-39
-0.23915523 0.18881936 0.85375005 7.9984056e-39
-0.23915523 0.18881936 0.85625005 7.6335832e-39
-0.24165523 0.18631935 0.85875005 1.5709158e-39
-0.24165523 0.18631935 0.86125004 7.3504691e-40
-0.24165523 0.18881936 0.85875005 1.2003439e-39
-0.23915523 0.18631935 0.85875005 6.0784446e-39
-0.23915523 0.18631935 0.86125004 1.1063476e-39
-0.23915523 0.18881936 0.85875005 1.7043279e-38
-0.24665523 0.18131936 0.86375004 7.3470078e-40
-0.24665523 0.18131936 0.86625004 9.4350827e-41
-0.24665523 0.18381935 0.86625004 0
-0.24415523 0.18131936 0.86375004 0
-0.24415523 0.18131936 0.86625004 7.0064923e-45
-0.24415523 0.18381935 0.86625004 0
-0.24665523 0.18131936 0.8687501 1.3800674e-39
-0.24415523 0.18131936 0.8687501 4.5918589e-40
-0.24165523 0.18131936 0.86375004 6.4501908e-40
-0.24165523 0.18131936 0.86625004 9.1845305e-41
-0.24165523 0.18381935 0.86375004 7.3470919e-40
-0.24165523 0.18381935 0.86625004 1.821688e-44
-0.23915523 0.18131936 0.86375004 1.8439126e-39
-0.23915523 0.18131936 0.86625004 1.6562941e-39
-0.23915523 0.18381935 0.86375004 1.8413945e-39
-0.24165523 0.18131936 0.8687501 1.1960251e-39
-0.23915523 0.18131936 0.8687501 2.4889317e-39
-0.23665522 0.17881936 0.86125004 2.6708048e-39
-0.23415522 0.17881936 0.86125004 2.5789595e-39
-0.22915523 0.17881936 0.85875005 9.1845305e-41
-0.23665522 0.17881936 0.86375004 1.9357579e-39
-0.23665522 0.17881936 0.86625004 2.0257857e-39
-0.23415522 0.17881936 0.86375004 2.8526695e-39
-0.23665522 0.17881936 0.8687501 2.947033e-39
-0.23665522 0.17881936 0.87125009 2.3945682e-39
-0.23415522 0.17881936 0.8687501 2.7630018e-39
-0.23415522 0.17881936 0.87125009 2.9473833e-39
-0.23165523 0.17881936 0.86375004 2.6711551e-39
-0.23165523 0.17631936 0.8687501 4.1444873e-39
-0.23165523 0.17631936 0.87125009 4.1412672e-39
-0.23165523 0.17881936 0.8687501 3.2221597e-39
-0.23165523 0.17881936 0.87125009 3.2221597e-39
-0.22915523 0.17631936 0.8687501 1.2864228e-39
-0.22915523 0.17631936 0.87125009 2.0290101e-39
-0.22915523 0.17881936 0.8687501 0
-0.22915523 0.17881936 0.87125009 0
-0.23665522 0.18131936 0.85875005 3.1288963e-39
-0.23665522 0.18131936 0.86125004 2.3020139e-39
-0.23665522 0.18381935 0.85875005 1.1038294e-39
-0.23665522 0.18381935 0.86125004 2.0254368e-39
-0.23415522 0.18131936 0.85875005 3.0341965e-39
-0.23415522 0.18131936 0.86125004 2.1176324e-39
-0.23415522 0.18381935 0.85875005 1.2878704e-39
-0.23415522 0.18381935 0.86125004 1.4744294e-39
-0.23665522 0.18631935 0.85625005 1.1331781e-38
-0.23665522 0.18881936 0.85375005 1.7595298e-38
-0.23665522 0.18881936 0.85625005 1.6760951e-38
-0.23415522 0.18631935 0.85625005 7.5575628e-39
-0.23415522 0.18881936 0.85375005 1.8056635e-38
-0.23415522 0.18881936 0.85625005 1.4744855e-38
-0.23665522 0.18631935 0.85875005 4.7884092e-39
-0.23665522 0.18631935 0.86125004 7.3756504e-40
-0.23665522 0.18881936 0.85875005 1.9350245e-38
-0.23415522 0.18631935 0.85875005 4.0561971e-39
-0.23415522 0.18631935 0.86125004 2.1201085e-39
-0.23415522 0.18881936 0.85875005 0
-0.23415522 0.18881936 0.86125004 2.8025969e-44
-0.23165523 0.18131936 0.85875005 1.8413945e-39
-0.23165523 0.18131936 0.86125004 1.1038294e-39
-0.23165523 0.18381935 0.85875005 1.1985432e-39
-0.23165523 0.18381935 0.86125004 0
-0.22915523 0.18131936 0.85875005 4.5917748e-40
-0.22915523 0.18131936 0.86125004 9.3629158e-41
-0.22915523 0.18381935 0.85875005 0
-0.22915523 0.18381935 0.86125004 0
-0.23165523 0.18881936 0.85375005 1.6120954e-38
-0.23165523 0.18881936 0.85625005 5.5101298e-40
-0.22915523 0.18631935 0.85625005 0
-0.22915523 0.18881936 0.85625005 0
-0.23165523 0.18631935 0.85875005 9.1867726e-41
-0.23165523 0.18631935 0.86125004 0
-0.23165523 0.18881936 0.85875005 0
-0.23165523 0.18881936 0.86125004 0
-0.22915523 0.18631935 0.85875005 0
-0.22915523 0.18631935 0.86125004 0
-0.22915523 0.18881936 0.85875005 0
-0.22915523 0.18881936 0.86125004 0
-0.23665522 0.18131936 0.86375004 2.5786092e-39
-0.23665522 0.18131936 0.86625004 2.5786092e-39
-0.23665522 0.18381935 0.86375004 2.0276032e-39
-0.23665522 0.18381935 0.86625004 1.8428532e-39
-0.23415522 0.18131936 0.86375004 2.3945682e-39
-0.23415522 0.18131936 0.86625004 2.3945654e-39
-0.23415522 0.18381935 0.86375004 1.7506576e-39
-0.23415522 0.18381935 0.86625004 1.1985432e-39
-0.23665522 0.18131936 0.8687501 2.5789595e-39
-0.23665522 0.18131936 0.87125009 2.1201492e-39
-0.23415522 0.18131936 0.8687501 2.6711551e-39
-0.23415522 0.18131936 0.87125009 3.2218122e-39
-0.23415522 0.18631935 0.86375004 1.9332398e-39
-0.23415522 0.18631935 0.86625004 1.3829344e-39
-0.23165523 0.18131936 0.86375004 2.026492e-39
-0.23165523 0.18131936 0.86625004 1.0155785e-39
-0.23165523 0.18381935 0.86375004 0
-0.23165523 0.18381935 0.86625004 1.8439126e-40
-0.22915523 0.18131936 0.86375004 7.1746481e-43
-0.22915523 0.18131936 0.86625004 0
-0.22915523 0.18381935 0.86375004 0
-0.22915523 0.18381935 0.86625004 0
-0.23165523 0.18131936 0.8687501 2.1179828e-39
-0.23165523 0.18131936 0.87125009 3.1274459e-39
-0.22915523 0.18131936 0.8687501 0
-0.22915523 0.18131936 0.87125009 0
-0.23165523 0.18631935 0.86375004 0
-0.23165523 0.18631935 0.86625004 0
-0.23165523 0.18881936 0.86375004 0
-0.22915523 0.18631935 0.86375004 5.9923656e-39
-0.22915523 0.18631935 0.86625004 0
-0.22915523 0.18881936 0.86375004 2.7550649e-40
-0.22915523 0.18631935 0.8687501 0
-0.24915522 0.14881936 0.92875004 1.1606194e-38
-0.24665523 0.14631936 0.92375004 1.2619608e-38
-0.24665523 0.14881936 0.92375004 5.2346233e-39
-0.24415523 0.14631936 0.92375004 7.3468397e-40
-0.24415523 0.14881936 0.92375004 4.6836103e-39
-0.24665523 0.14631936 0.92875004 1.4693679e-39
-0.24665523 0.14881936 0.92875004 1.1938615e-39
-0.24415523 0.14631936 0.92875004 8.2651947e-40
-0.24415523 0.14881936 0.92875004 1.3775324e-39
-0.24165523 0.14631936 0.92375004 3.124925e-39
-0.24165523 0.14881936 0.92375004 1.1038294e-39
-0.23915523 0.14881936 0.92375004 6.8926845e-39
-0.24165523 0.14631936 0.92875004 3.0327294e-39
-0.24165523 0.14881936 0.92875004 3.4955082e-39
-0.23915523 0.14881936 0.92875004 2.0358539e-38
-0.23665522 0.14881936 0.92375004 1.629626e-38
-0.23665522 0.14881936 0.92875004 8.3768291e-39
-0.23415522 0.14881936 0.92875004 0
-0.23165523 0.14881936 0.92375004 0
-0.22915523 0.14881936 0.92375004 8.2651947e-40
-0.24665523 0.14881936 0.93375009 6.4284847e-40
-0.23915523 0.14881936 0.93375009 1.8702021e-38
-0.23665522 0.14881936 0.93375009 8.4686646e-39
-0.23415522 0.14881936 0.93375009 2.7550649e-40
-0.24915522 0.16131936 0.90125006 1.5111056e-38
-0.24915522 0.16381936 0.89875007 6.9838025e-39
-0.24915522 0.16381936 0.90125006 1.0317941e-38
-0.25165522 0.16881935 0.89625007 1.1609363e-38
-0.24915522 0.16631936 0.89375007 4.5917748e-40
-0.24915522 0.16631936 0.89625007 0
-0.24915522 0.16881935 0.89375007 6.4284847e-40
-0.24915522 0.16881935 0.89625007 1.0101905e-39
-0.25165522 0.16881935 0.89875007 1.1703708e-38
-0.25165522 0.16881935 0.90125006 1.1885954e-38
-0.24915522 0.16631936 0.89875007 0
-0.24915522 0.16631936 0.90125006 0
-0.24915522 0.16881935 0.89875007 0
-0.24915522 0.16881935 0.90125006 0
-0.25165522 0.16631936 0.90375006 2.8504877e-39
-0.24915522 0.17381936 0.88125008 3.5815844e-39
-0.24915522 0.17631936 0.87375009 9.1835496e-41
-0.24915522 0.17131937 0.88625008 0
-0.24915522 0.17381936 0.88375008 3.6734198e-39
-0.24915522 0.17381936 0.88625008 0
-0.24915522 0.17131937 0.88875008 0
-0.24915522 0.17131937 0.89125007 0
-0.24915522 0.17381936 0.88875008 0
-0.24915522 0.17381936 0.89125007 0
-0.24915522 0.17631936 0.88875008 1.011631e-39
-0.25165522 0.17131937 0.89625007 8.3674334e-39
-0.24915522 0.17131937 0.89375007 0
-0.24915522 0.17131937 0.89625007 0
-0.24915522 0.17381936 0.89375007 1.1074238e-39
-0.25165522 0.17131937 0.89875007 0
-0.25165522 0.17131937 0.90125006 8.6447335e-39
-0.24915522 0.17131937 0.89875007 8.2868167e-40
-0.25165522 0.17131937 0.90375006 1.1885948e-38
-0.24665523 0.16881935 0.89125007 7.3504691e-40
-0.23915523 0.16881935 0.89125007 2.3016636e-39
-0.23665522 0.16881935 0.89125007 2.3945654e-39
-0.23415522 0.16881935 0.89125007 2.2123448e-39
-0.23165523 0.16881935 0.88375008 5.5256393e-39
-0.23165523 0.16881935 0.89125007 5.8951351e-39
-0.24415523 0.15881936 0.89875007 6.4464774e-40
-0.24165523 0.15881936 0.89875007 1.3829344e-39
-0.24665523 0.15881936 0.90625006 4.7754458e-39
-0.24415523 0.15881936 0.90375006 2.026492e-39
-0.24415523 0.15881936 0.90625006 1.6566445e-39
-0.24665523 0.15881936 0.90875006 4.5917748e-39
-0.24415523 0.15881936 0.90875006 8.279544e-40
-0.24165523 0.15881936 0.90625006 1.011631e-39
-0.23915523 0.15881936 0.90625006 1.1038266e-39
-0.24165523 0.15631936 0.90875006 1.1031204e-39
-0.24165523 0.15881936 0.90875006 7.3576017e-40
-0.23915523 0.15631936 0.90875006 3.6734899e-40
-0.23915523 0.15881936 0.90875006 1.1963726e-39
-0.24665523 0.16381936 0.89625007 4.9591168e-39
-0.24415523 0.16381936 0.89625007 1.1038294e-39
-0.24665523 0.16131936 0.89875007 2.7550649e-40
-0.24665523 0.16131936 0.90125006 0
-0.24665523 0.16381936 0.89875007 4.6836103e-39
-0.24665523 0.16381936 0.90125006 6.4320721e-40
-0.24415523 0.16131936 0.89875007 0
-0.24415523 0.16131936 0.90125006 1.8546465e-40
-0.24415523 0.16381936 0.89875007 8.279544e-40
-0.24415523 0.16381936 0.90125006 1.3811226e-39
-0.24665523 0.16631936 0.89375007 0
-0.24665523 0.16631936 0.89625007 9.230325e-40
-0.24665523 0.16881935 0.89375007 3.5873241e-43
-0.24665523 0.16881935 0.89625007 1.0119841e-39
-0.24415523 0.16631936 0.89375007 1.2882179e-39
-0.24415523 0.16631936 0.89625007 1.1063476e-39
-0.24415523 0.16881935 0.89375007 4.6026909e-40
-0.24415523 0.16881935 0.89625007 5.51034e-40
-0.24665523 0.16631936 0.89875007 1.1038238e-39
-0.24665523 0.16631936 0.90125006 1.1960251e-39
-0.24665523 0.16881935 0.89875007 1.0134261e-39
-0.24415523 0.16631936 0.89875007 1.6562941e-39
-0.24415523 0.16631936 0.90125006 3.6734899e-40
-0.24415523 0.16881935 0.89875007 1.2878704e-39
-0.24165523 0.16381936 0.89625007 8.279544e-40
-0.24165523 0.16131936 0.89875007 1.2878704e-39
-0.24165523 0.16131936 0.90125006 7.3469798e-40
-0.24165523 0.16381936 0.89875007 4.5917748e-40
-0.24165523 0.16381936 0.90125006 2.7623797e-40
-0.23915523 0.16381936 0.89875007 1.2885682e-39
-0.23915523 0.16381936 0.90125006 5.5282345e-40
-0.24165523 0.16631936 0.89375007 0
-0.24165523 0.16631936 0.89625007 5.6051939e-45
-0.24165523 0.16881935 0.89375007 4.6097815e-40
-0.24165523 0.16881935 0.89625007 1.8404094e-40
-0.23915523 0.16631936 0.89375007 1.751717e-39
-0.23915523 0.16631936 0.89625007 1.751717e-39
-0.23915523 0.16881935 0.89375007 1.1985432e-39
-0.23915523 0.16881935 0.89625007 2.5789595e-39
-0.24165523 0.16631936 0.89875007 7.1746481e-43
-0.24165523 0.16631936 0.90125006 7.3756504e-40
-0.24165523 0.16881935 0.89875007 4.6097815e-40
-0.23915523 0.16631936 0.89875007 2.1179828e-39
-0.23915523 0.16631936 0.90125006 1.5673257e-39
-0.23915523 0.16881935 0.89875007 1.751717e-39
-0.24665523 0.16131936 0.90375006 0
-0.24665523 0.16131936 0.90625006 6.4464774e-40
-0.24415523 0.16131936 0.90375006 1.1031204e-39
-0.24415523 0.16131936 0.90625006 9.2160738e-40
-0.24415523 0.16381936 0.90375006 9.1845305e-41
-0.24665523 0.16131936 0.90875006 0
-0.24415523 0.16131936 0.90875006 8.2724394e-40
-0.24165523 0.16131936 0.90375006 1.8367099e-40
-0.24165523 0.16131936 0.90625006 8.4077908e-45
-0.24165523 0.16381936 0.90375006 2.7623797e-40
-0.24165523 0.16381936 0.90625006 6.4501908e-40
-0.23915523 0.16131936 0.90375006 1.3858211e-39
-0.23915523 0.16131936 0.90625006 1.3797115e-39
-0.23915523 0.16381936 0.90375006 1.7510079e-39
-0.23915523 0.16381936 0.90625006 1.5669768e-39
-0.24165523 0.16131936 0.90875006 2.7623797e-40
-0.23915523 0.16131936 0.90875006 2.0290101e-39
-0.23915523 0.16381936 0.90875006 2.0283039e-39
-0.24165523 0.16631936 0.90375006 1.0112751e-39
-0.23915523 0.16631936 0.90375006 2.6708048e-39
-0.23665522 0.15881936 0.90625006 2.7633522e-39
-0.23415522 0.15881936 0.90625006 2.9473833e-39
-0.23665522 0.15881936 0.90875006 3.0392286e-39
-0.23415522 0.15881936 0.90875006 3.4998242e-39
-0.23165523 0.15881936 0.90375006 3.1321333e-39
-0.22915523 0.15881936 0.90375006 4.1419706e-39
-0.22915523 0.15881936 0.90625006 6.9031732e-39
-0.23165523 0.15881936 0.90875006 4.8748693e-39
-0.23665522 0.16381936 0.89875007 2.4864135e-39
-0.23665522 0.16381936 0.90125006 2.0279535e-39
-0.23415522 0.16381936 0.89875007 2.7633522e-39
-0.23415522 0.16381936 0.90125006 3.680282e-39
-0.23665522 0.16631936 0.89375007 1.9361082e-39
-0.23665522 0.16631936 0.89625007 2.1204995e-39
-0.23665522 0.16881935 0.89375007 2.4867611e-39
-0.23665522 0.16881935 0.89625007 2.5789595e-39
-0.23415522 0.16631936 0.89625007 2.6711551e-39
-0.23415522 0.16881935 0.89375007 3.3136575e-39
-0.23415522 0.16881935 0.89625007 3.4069223e-39
-0.23665522 0.16631936 0.89875007 2.3945682e-39
-0.23665522 0.16631936 0.90125006 2.1204995e-39
-0.23665522 0.16881935 0.89875007 2.2126951e-39
-0.23665522 0.16881935 0.90125006 2.7630018e-39
-0.23415522 0.16631936 0.89875007 3.5877164e-39
-0.23415522 0.16631936 0.90125006 4.1448377e-39
-0.23415522 0.16881935 0.89875007 3.3136575e-39
-0.23415522 0.16881935 0.90125006 4.7916714e-39
-0.22915523 0.16381936 0.89625007 4.7927252e-39
-0.23165523 0.16131936 0.90125006 4.8831412e-39
-0.23165523 0.16381936 0.89875007 6.3539553e-39
-0.23165523 0.16381936 0.90125006 6.1710116e-39
-0.22915523 0.16131936 0.90125006 1.6573788e-39
-0.22915523 0.16381936 0.89875007 4.9778255e-39
-0.22915523 0.16381936 0.90125006 0
-0.23165523 0.16881935 0.89625007 4.6998261e-39
-0.22915523 0.16631936 0.89625007 1.7448744e-39
-0.22915523 0.16881935 0.89625007 0
-0.23165523 0.16631936 0.89875007 5.1589896e-39
-0.23165523 0.16631936 0.90125006 4.4196449e-39
-0.23165523 0.16881935 0.89875007 5.5137171e-40
-0.23165523 0.16881935 0.90125006 2.4842626e-39
-0.22915523 0.16631936 0.89875007 3.5026955e-39
-0.22915523 0.16631936 0.90125006 2.7633522e-39
-0.22915523 0.16881935 0.89875007 0
-0.22915523 0.16881935 0.90125006 4.5917748e-40
-0.23665522 0.16131936 0.90375006 2.3020139e-39
-0.23665522 0.16131936 0.90625006 2.9466854e-39
-0.23665522 0.16381936 0.90375006 2.7633522e-39
-0.23665522 0.16381936 0.90625006 2.7647773e-39
-0.23415522 0.16131936 0.90375006 2.6708048e-39
-0.23415522 0.16131936 0.90625006 3.4991179e-39
-0.23415522 0.16381936 0.90375006 3.957578e-39
-0.23415522 0.16381936 0.90625006 3.6820799e-39
-0.23665522 0.16131936 0.90875006 2.3974339e-39
-0.23665522 0.16381936 0.90875006 2.8569729e-39
-0.23415522 0.16131936 0.90875006 3.3175951e-39
-0.23415522 0.16381936 0.90875006 4.3331946e-39
-0.23665522 0.16631936 0.90375006 3.3150742e-39
-0.23665522 0.16631936 0.90625006 2.9473833e-39
-0.23665522 0.16881935 0.90375006 3.1289061e-39
-0.23665522 0.16881935 0.90625006 4.4196449e-39
-0.23415522 0.16631936 0.90375006 3.6820799e-39
-0.23415522 0.16631936 0.90625006 3.957578e-39
-0.23415522 0.16881935 0.90375006 4.5125664e-39
-0.23415522 0.16881935 0.90625006 4.6076305e-39
-0.23165523 0.16131936 0.90375006 4.6991101e-39
-0.23165523 0.16131936 0.90625006 4.0494233e-39
-0.23165523 0.16381936 0.90375006 6.3543056e-39
-0.23165523 0.16381936 0.90625006 5.7121634e-39
-0.22915523 0.16131936 0.90375006 2.0258025e-39
-0.22915523 0.16131936 0.90625006 2.3963773e-39
-0.22915523 0.16381936 0.90375006 5.253353e-39
-0.22915523 0.16381936 0.90625006 0
-0.23165523 0.16131936 0.90875006 3.7753517e-39
-0.23165523 0.16381936 0.90875006 5.1615063e-39
-0.22915523 0.16131936 0.90875006 4.697308e-39
-0.22915523 0.16381936 0.90875006 0
-0.23165523 0.16631936 0.90375006 5.0660905e-39
-0.23165523 0.16881935 0.90375006 2.5793252e-39
-0.22915523 0.16631936 0.90375006 0
-0.22915523 0.16881935 0.90375006 0
-0.22915523 0.16881935 0.90625006 6.4284987e-40
-0.22915523 0.16881935 0.90875006 0
-0.24665523 0.17131937 0.87375009 3.3979134e-39
-0.24665523 0.17381936 0.87375009 1.0116282e-39
-0.24415523 0.17381936 0.87375009 1.2907388e-39
-0.24665523 0.17131937 0.87875009 0
-0.24665523 0.17131937 0.88125008 0
-0.24665523 0.17381936 0.87875009 1.7491988e-39
-0.24665523 0.17381936 0.88125008 1.3811226e-39
-0.24415523 0.17131937 0.87875009 9.2160738e-40
-0.24415523 0.17131937 0.88125008 1.2889396e-39
-0.24415523 0.17381936 0.87875009 7.3504691e-40
-0.24415523 0.17381936 0.88125008 8.2689361e-40
-0.24665523 0.17631936 0.87375009 9.230325e-40
-0.24415523 0.17631936 0.87375009 5.51034e-40
-0.24415523 0.17881936 0.87375009 3.6734198e-40
-0.24665523 0.17631936 0.87875009 1.6562941e-39
-0.24665523 0.17631936 0.88125008 1.751717e-39
-0.24415523 0.17631936 0.87875009 6.4284847e-40
-0.24415523 0.17631936 0.88125008 7.3576017e-40
-0.24165523 0.17131937 0.87875009 5.51034e-40
-0.24165523 0.17131937 0.88125008 7.3504691e-40
-0.24165523 0.17381936 0.87875009 7.3576017e-40
-0.24165523 0.17381936 0.88125008 7.3504691e-40
-0.23915523 0.17131937 0.87875009 1.6562941e-39
-0.23915523 0.17131937 0.88125008 1.6566445e-39
-0.23915523 0.17381936 0.87875009 2.1176352e-39
-0.23915523 0.17381936 0.88125008 2.1179828e-39
-0.24165523 0.17631936 0.87375009 6.4285968e-40
-0.24165523 0.17881936 0.87375009 9.1845305e-41
-0.23915523 0.17631936 0.87375009 1.2878704e-39
-0.23915523 0.17881936 0.87375009 2.7640584e-39
-0.24165523 0.17631936 0.87875009 1.2882179e-39
-0.24165523 0.17631936 0.88125008 1.6566445e-39
-0.24165523 0.17881936 0.87875009 1.1981929e-39
-0.23915523 0.17631936 0.87875009 2.5789595e-39
-0.23915523 0.17631936 0.88125008 2.3945682e-39
-0.23915523 0.17881936 0.87875009 2.3020139e-39
-0.24665523 0.17131937 0.88625008 1.5684019e-39
-0.24665523 0.17381936 0.88375008 1.0112751e-39
-0.24665523 0.17381936 0.88625008 9.219563e-40
-0.24415523 0.17131937 0.88625008 0
-0.24415523 0.17381936 0.88375008 4.5917748e-40
-0.24415523 0.17381936 0.88625008 7.3576017e-40
-0.24665523 0.17131937 0.88875008 8.3083546e-40
-0.24665523 0.17131937 0.89125007 1.7520645e-39
-0.24665523 0.17381936 0.88875008 1.1970942e-39
-0.24665523 0.17381936 0.89125007 8.3083546e-40
-0.24415523 0.17131937 0.88875008 8.2689361e-40
-0.24415523 0.17131937 0.89125007 0
-0.24415523 0.17381936 0.88875008 3.6734899e-40
-0.24415523 0.17381936 0.89125007 4.6026909e-40
-0.24665523 0.17631936 0.88375008 0
-0.24415523 0.17631936 0.88375008 4.5917748e-40
-0.24415523 0.17631936 0.88625008 0
-0.24665523 0.17631936 0.88875008 1.1038266e-39
-0.24165523 0.17131937 0.88375008 1.8439126e-40
-0.24165523 0.17131937 0.88625008 1.8369341e-40
-0.24165523 0.17381936 0.88375008 7.3469798e-40
-0.24165523 0.17381936 0.88625008 9.1845305e-41
-0.23915523 0.17131937 0.88375008 1.1985432e-39
-0.23915523 0.17131937 0.88625008 1.3829344e-39
-0.23915523 0.17381936 0.88375008 2.5789595e-39
-0.23915523 0.17381936 0.88625008 1.1981929e-39
-0.24165523 0.17131937 0.88875008 1.841742e-39
-0.24165523 0.17131937 0.89125007 9.219563e-40
-0.24165523 0.17381936 0.88875008 1.1985432e-39
-0.24165523 0.17381936 0.89125007 1.3825841e-39
-0.23915523 0.17131937 0.88875008 1.751717e-39
-0.23915523 0.17131937 0.89125007 2.3020139e-39
-0.23915523 0.17381936 0.88875008 2.6718614e-39
-0.23915523 0.17381936 0.89125007 1.5673257e-39
-0.24165523 0.17631936 0.88375008 2.7801762e-40
-0.23915523 0.17631936 0.88375008 2.4867639e-39
-0.23915523 0.17881936 0.88375008 2.7633522e-39
-0.23915523 0.18131936 0.87375009 2.7640584e-39
-0.23665522 0.17131937 0.87875009 2.6718614e-39
-0.23665522 0.17131937 0.88125008 2.6718614e-39
-0.23665522 0.17381936 0.87875009 2.3945654e-39
-0.23665522 0.17381936 0.88125008 2.7633522e-39
-0.23415522 0.17131937 0.87875009 3.4980389e-39
-0.23415522 0.17131937 0.88125008 3.4991179e-39
-0.23415522 0.17381936 0.87875009 2.8562667e-39
-0.23415522 0.17381936 0.88125008 2.7630018e-39
-0.23665522 0.17631936 0.87375009 2.9484623e-39
-0.23665522 0.17881936 0.87375009 2.6718614e-39
-0.23415522 0.17631936 0.87375009 2.947033e-39
-0.23415522 0.17881936 0.87375009 3.3161742e-39
-0.23665522 0.17631936 0.87875009 2.6711551e-39
-0.23665522 0.17631936 0.88125008 2.6711551e-39
-0.23665522 0.17881936 0.87875009 2.7630018e-39
-0.23415522 0.17631936 0.87875009 4.7823206e-39
-0.23415522 0.17631936 0.88125008 3.3133044e-39
-0.23415522 0.17881936 0.87875009 3.4094404e-39
-0.23165523 0.17381936 0.87375009 5.2508349e-39
-0.22915523 0.17381936 0.87375009 4.4231804e-39
-0.23165523 0.17131937 0.87875009 3.684626e-39
-0.23165523 0.17131937 0.88125008 3.5924304e-39
-0.23165523 0.17381936 0.87875009 4.6998261e-39
-0.23165523 0.17381936 0.88125008 5.1611532e-39
-0.22915523 0.17131937 0.87875009 2.1169416e-39
-0.22915523 0.17131937 0.88125008 2.024746e-39
-0.22915523 0.17381936 0.87875009 0
-0.22915523 0.17381936 0.88125008 3.6734198e-40
-0.23165523 0.17631936 0.87375009 3.4980642e-39
-0.23165523 0.17881936 0.87375009 1.0123597e-39
-0.22915523 0.17631936 0.87375009 2.0257829e-39
-0.22915523 0.17881936 0.87375009 0
-0.23165523 0.17631936 0.87875009 5.7961124e-39
-0.23165523 0.17631936 0.88125008 4.6994001e-39
-0.23165523 0.17881936 0.87875009 7.3576717e-40
-0.22915523 0.17631936 0.87875009 0
-0.22915523 0.17631936 0.88125008 0
-0.22915523 0.17881936 0.87875009 0
-0.23665522 0.17131937 0.88375008 2.3970864e-39
-0.23665522 0.17131937 0.88625008 2.8562667e-39
-0.23665522 0.17381936 0.88375008 2.7644045e-39
-0.23665522 0.17381936 0.88625008 2.579307e-39
-0.23415522 0.17131937 0.88375008 3.2250478e-39
-0.23415522 0.17131937 0.88625008 3.3165245e-39
-0.23415522 0.17381936 0.88375008 3.4069223e-39
-0.23415522 0.17381936 0.88625008 3.9593772e-39
-0.23665522 0.17131937 0.88875008 2.9473833e-39
-0.23665522 0.17131937 0.89125007 3.1296151e-39
-0.23665522 0.17381936 0.88875008 3.1289061e-39
-0.23665522 0.17381936 0.89125007 2.9473833e-39
-0.23415522 0.17131937 0.88875008 3.867197e-39
-0.23415522 0.17131937 0.89125007 3.3133044e-39
-0.23415522 0.17381936 0.88875008 3.6853295e-39
-0.23415522 0.17381936 0.89125007 2.9473833e-39
-0.23665522 0.17631936 0.88375008 2.3020139e-39
-0.23165523 0.17131937 0.88375008 3.3172448e-39
-0.23165523 0.17131937 0.88625008 4.1437839e-39
-0.23165523 0.17381936 0.88375008 2.209496e-39
-0.23165523 0.17381936 0.88625008 2.7597929e-39
-0.23165523 0.17131937 0.88875008 5.4348758e-39
-0.23165523 0.17131937 0.89125007 5.7103893e-39
-0.23165523 0.17381936 0.88875008 2.117645e-39
-0.23165523 0.17381936 0.89125007 2.5814384e-39
-0.23665522 0.18131936 0.87375009 2.9473833e-39
-0.23415522 0.18131936 0.87375009 3.6824302e-39
-0.23665522 0.18131936 0.87875009 2.5814776e-39
-0.23415522 0.18131936 0.87875009 2.9491685e-39
-0.23165523 0.18131936 0.87375009 2.3027201e-39
-0.22915523 0.18131936 0.87375009 0
-0.23165523 0.18131936 0.87875009 0
-0.22915523 0.18131936 0.87875009 0
-0.24665523 0.17131937 0.89375007 1.1056385e-39
-0.24665523 0.17131937 0.89625007 7.3504691e-40
-0.24665523 0.17381936 0.89375007 6.4501908e-40
-0.24415523 0.17131937 0.89375007 3.5873241e-43
-0.24415523 0.17131937 0.89625007 7.3504691e-40
-0.24415523 0.17381936 0.89375007 2.7658689e-40
-0.24165523 0.17131937 0.89375007 9.2160738e-40
-0.24165523 0.17131937 0.89625007 1.6562941e-39
-0.24165523 0.17381936 0.89375007 1.5673257e-39
-0.23915523 0.17131937 0.89375007 2.4864135e-39
-0.23915523 0.17131937 0.89625007 2.5789595e-39
-0.23915523 0.17381936 0.89375007 2.3970864e-39
-0.23665522 0.17131937 0.89375007 3.2218122e-39
-0.23665522 0.17131937 0.89625007 2.6711551e-39
-0.23665522 0.17381936 0.89375007 2.6708048e-39
-0.23415522 0.17131937 0.89375007 3.680282e-39
-0.23415522 0.17131937 0.89625007 3.2214619e-39
-0.23415522 0.17381936 0.89375007 4.5122133e-39
-0.23415522 0.17381936 0.89625007 2.9481176e-39
-0.23415522 0.17131937 0.89875007 5.8029395e-39
-0.23415522 0.17131937 0.90125006 5.7125123e-39
-0.23165523 0.17131937 0.89375007 5.161156e-39
-0.23165523 0.17131937 0.89625007 4.3331343e-39
-0.23165523 0.17381936 0.89375007 2.4892442e-39
-0.23165523 0.17381936 0.89625007 1.1124292e-39
-0.23165523 0.17131937 0.89875007 4.3331343e-39
-0.23165523 0.17131937 0.90125006 0
-0.22915523 0.17131937 0.89875007 0
-0.22915523 0.17131937 0.90125006 0
-0.23415522 0.17131937 0.90375006 4.8845761e-39
-0.23165523 0.17131937 0.90375006 5.5102979e-40
-0.22915523 0.17131937 0.90375006 0
-0.24915522 0.15381935 0.92375004 8.0130338e-39
-0.24915522 0.15131935 0.92875004 1.5612034e-39
-0.24915522 0.15381935 0.92875004 1.7448744e-39
-0.24915522 0.15631936 0.92375004 5.9693073e-39
-0.24915522 0.15881936 0.92375004 0
-0.24915522 0.15631936 0.92875004 6.1529782e-39
-0.24915522 0.15881936 0.92875004 0
-0.24665523 0.15381935 0.91875005 9.1835496e-40
-0.24665523 0.15881936 0.91375005 7.1746481e-43
-0.24415523 0.15881936 0.91375005 1.6534075e-39
-0.24665523 0.15631936 0.91875005 6.4464774e-40
-0.24665523 0.15881936 0.91875005 8.290348e-40
-0.24415523 0.15631936 0.91875005 1.472263e-39
-0.24415523 0.15881936 0.91875005 2.7658689e-40
-0.24165523 0.15881936 0.91375005 1.4693749e-39
-0.23915523 0.15881936 0.91375005 1.6566445e-39
-0.24165523 0.15631936 0.91875005 1.0109247e-39
-0.24165523 0.15881936 0.91875005 0
-0.23915523 0.15631936 0.91875005 2.3020139e-39
-0.23915523 0.15881936 0.91875005 2.6711551e-39
-0.24665523 0.15131935 0.92375004 0
-0.24665523 0.15381935 0.92375004 1.0101905e-39
-0.24415523 0.15131935 0.92375004 1.8406728e-39
-0.24415523 0.15381935 0.92375004 2.7730015e-40
-0.24665523 0.15131935 0.92875004 1.8385078e-39
-0.24665523 0.15381935 0.92875004 1.2917954e-39
-0.24415523 0.15131935 0.92875004 1.6566445e-39
-0.24415523 0.15381935 0.92875004 1.4726133e-39
-0.24665523 0.15631936 0.92375004 4.9591168e-39
-0.24665523 0.15881936 0.92375004 1.0134289e-39
-0.24415523 0.15631936 0.92375004 1.3811226e-39
-0.24415523 0.15881936 0.92375004 1.8404094e-40
-0.24665523 0.15631936 0.92875004 7.3504691e-40
-0.24415523 0.15631936 0.92875004 1.4726133e-39
-0.24415523 0.15881936 0.92875004 1.1031204e-39
-0.24165523 0.15131935 0.92375004 4.5918589e-40
-0.24165523 0.15381935 0.92375004 2.1179828e-39
-0.23915523 0.15131935 0.92375004 3.3060779e-39
-0.23915523 0.15381935 0.92375004 2.3949158e-39
-0.24165523 0.15131935 0.92875004 7.3504691e-40
-0.24165523 0.15381935 0.92875004 1.6566445e-39
-0.23915523 0.15131935 0.92875004 4.6843278e-39
-0.23915523 0.15381935 0.92875004 1.8367099e-40
-0.24165523 0.15631936 0.92375004 2.0254368e-39
-0.24165523 0.15881936 0.92375004 1.6562941e-39
-0.23915523 0.15631936 0.92375004 2.3945654e-39
-0.23915523 0.15881936 0.92375004 2.5786092e-39
-0.24165523 0.15631936 0.92875004 2.1179828e-39
-0.23915523 0.15631936 0.92875004 2.947033e-39
-0.24415523 0.16131936 0.91875005 4.5917748e-40
-0.23915523 0.16131936 0.91375005 2.7633522e-39
-0.24165523 0.16131936 0.91875005 1.8413945e-39
-0.23915523 0.16131936 0.91875005 2.1179828e-39
-0.24165523 0.16131936 0.92375004 1.1056385e-39
-0.23915523 0.16131936 0.92375004 3.3143553e-39
-0.23665522 0.15881936 0.91375005 3.4076286e-39
-0.23415522 0.15881936 0.91375005 3.2228786e-39
-0.23665522 0.15631936 0.91875005 2.7630018e-39
-0.23665522 0.15881936 0.91875005 2.7633522e-39
-0.23415522 0.15631936 0.91875005 3.8646733e-39
-0.23415522 0.15881936 0.91875005 3.3136575e-39
-0.23165523 0.15631936 0.91875005 5.3358433e-39
-0.23165523 0.15881936 0.91875005 5.0704065e-39
-0.22915523 0.15631936 0.91875005 5.2436476e-39
-0.22915523 0.15881936 0.91875005 9.1842503e-41
-0.23665522 0.15131935 0.92375004 4.4999393e-39
-0.23665522 0.15381935 0.92375004 3.5913136e-39
-0.23415522 0.15381935 0.92375004 3.6806323e-39
-0.23665522 0.15131935 0.92875004 3.1224069e-39
-0.23665522 0.15381935 0.92875004 2.667558e-39
-0.23415522 0.15131935 0.92875004 2.3924397e-39
-0.23415522 0.15381935 0.92875004 2.9437988e-39
-0.23665522 0.15631936 0.92375004 3.2246947e-39
-0.23665522 0.15881936 0.92375004 3.0392286e-39
-0.23415522 0.15631936 0.92375004 2.7637179e-39
-0.23415522 0.15881936 0.92375004 5.6181881e-39
-0.23665522 0.15631936 0.92875004 3.3172448e-39
-0.23415522 0.15631936 0.92875004 5.4258753e-39
-0.23415522 0.15881936 0.92875004 5.3361964e-39
-0.23165523 0.15131935 0.92375004 7.0064923e-45
-0.23165523 0.15381935 0.92375004 7.184425e-39
-0.22915523 0.15131935 0.92375004 6.2473249e-39
-0.22915523 0.15381935 0.92375004 1.0400158e-38
-0.23165523 0.15131935 0.92875004 4.592013e-40
-0.23165523 0.15381935 0.92875004 1.65306e-39
-0.22915523 0.15131935 0.92875004 6.6153843e-39
-0.22915523 0.15381935 0.92875004 2.1729013e-38
-0.23165523 0.15631936 0.92375004 8.5630434e-39
-0.23165523 0.15881936 0.92375004 1.2860697e-39
-0.22915523 0.15631936 0.92375004 1.0503452e-38
-0.22915523 0.15881936 0.92375004 0
-0.23165523 0.15631936 0.92875004 1.0869358e-38
-0.23165523 0.15881936 0.92875004 5.3361964e-39
-0.22915523 0.15631936 0.92875004 1.1782344e-38
-0.22915523 0.15881936 0.92875004 3.1295815e-39
-0.23665522 0.16131936 0.91375005 2.8562667e-39
-0.23665522 0.16381936 0.91375005 3.1289061e-39
-0.23415522 0.16131936 0.91375005 5.1510961e-39
-0.23415522 0.16381936 0.91375005 4.1416203e-39
-0.23665522 0.16131936 0.91875005 3.2218122e-39
-0.23415522 0.16131936 0.91875005 4.0494233e-39
-0.23415522 0.16381936 0.91875005 4.3270807e-39
-0.23165523 0.16131936 0.91375005 6.1699241e-39
-0.23165523 0.16381936 0.91375005 4.5100427e-39
-0.22915523 0.16131936 0.91375005 4.608334e-39
-0.22915523 0.16381936 0.91375005 2.1172821e-39
-0.23165523 0.16131936 0.91875005 4.794488e-39
-0.23165523 0.16381936 0.91875005 2.4867639e-39
-0.22915523 0.16131936 0.91875005 0
-0.23665522 0.16131936 0.92375004 4.0494233e-39
-0.23415522 0.16131936 0.92375004 7.1840747e-39
-0.23165523 0.16131936 0.92375004 0
-0.24665523 0.15131935 0.93375009 4.8672813e-39
-0.24665523 0.15381935 0.93375009 1.3811198e-39
-0.24415523 0.15131935 0.93375009 1.0119841e-39
-0.24415523 0.15381935 0.93375009 2.0225361e-39
-0.23915523 0.15131935 0.93375009 1.3454451e-38
-0.23915523 0.15381935 0.93375009 4.2244328e-39
-0.23665522 0.15131935 0.93375009 4.1419706e-39
-0.23665522 0.15381935 0.93375009 3.402235e-39
-0.23415522 0.15131935 0.93375009 0
-0.23415522 0.15381935 0.93375009 1.7477891e-39
-0.23665522 0.15631936 0.93375009 3.3140078e-39
-0.23165523 0.15381935 0.93375009 1.0574055e-38
-0.22915523 0.15381935 0.93375009 2.155971e-38
-0.23165523 0.15631936 0.93375009 1.0307963e-38
-0.22665523 0.17881936 0.85875005 0
-0.22665523 0.17881936 0.86125004 1.8367099e-40
-0.22665523 0.17631936 0.8687501 0
-0.22665523 0.17631936 0.87125009 0
-0.22665523 0.17881936 0.8687501 1.1988963e-39
-0.22665523 0.17881936 0.87125009 7.3972024e-40
-0.22665523 0.18131936 0.86125004 0
-0.22665523 0.18631935 0.85625005 0
-0.22665523 0.18631935 0.86125004 5.4413372e-39
-0.22665523 0.18131936 0.8687501 6.730281e-39
-0.22665523 0.18131936 0.87125009 6.5466058e-39
-0.22665523 0.18631935 0.8687501 0
-0.22665523 0.16381936 0.89625007 0
-0.22665523 0.16131936 0.89875007 4.5917748e-40
-0.22665523 0.16131936 0.90125006 4.5917748e-40
-0.22665523 0.16381936 0.89875007 0
-0.22665523 0.16381936 0.90125006 0
-0.22415523 0.16381936 0.90125006 2.2144874e-39
-0.22665523 0.16631936 0.89625007 3.6734198e-40
-0.22665523 0.16881935 0.89625007 0
-0.22665523 0.16631936 0.89875007 0
-0.22665523 0.16631936 0.90125006 0
-0.22665523 0.16881935 0.89875007 7.1746481e-43
-0.22665523 0.16881935 0.90125006 5.0657052e-39
-0.22415523 0.16631936 0.90125006 9.7727368e-39
-0.22665523 0.16131936 0.90375006 0
-0.22665523 0.16381936 0.90375006 0
-0.22665523 0.16631936 0.90375006 0
-0.22665523 0.16881935 0.90375006 3.030577e-39
-0.22665523 0.16881935 0.90625006 9.5883455e-39
-0.22665523 0.17131937 0.87375009 0
-0.22665523 0.17131937 0.87875009 3.9460565e-42
-0.22665523 0.17381936 0.87875009 0
-0.22665523 0.17631936 0.87375009 0
-0.22665523 0.17881936 0.87375009 0
-0.22665523 0.17631936 0.87875009 0
-0.22665523 0.17881936 0.87875009 0
-0.22665523 0.18131936 0.87375009 8.3013341e-40
-0.22665523 0.17131937 0.90375006 4.8802545e-39
-0.22665523 0.15131935 0.92375004 2.0257455e-38
-0.22665523 0.15381935 0.92375004 1.5928302e-38
-0.22665523 0.15631936 0.92375004 7.2748073e-39
-0.22665523 0.15381935 0.93375009 2.1189488e-38
-0.24915522 0.19131936 0.85375005 1.6215257e-38
-0.24915522 0.19131936 0.85625005 1.4656842e-38
-0.25165522 0.19131936 0.85875005 1.8244638e-38
-0.24665523 0.19131936 0.85125005 1.0414065e-38
-0.24415523 0.19131936 0.85125005 9.9560771e-39
-0.24665523 0.19131936 0.85375005 1.0507335e-38
-0.24665523 0.19131936 0.85625005 1.0231092e-38
-0.24415523 0.19131936 0.85375005 9.9549981e-39
-0.24415523 0.19131936 0.85625005 9.8638814e-39
-0.24165523 0.19131936 0.85375005 1.372416e-38
-0.24165523 0.19131936 0.85625005 1.1888875e-38
-0.23915523 0.19131936 0.85375005 1.4654792e-38
-0.23915523 0.19131936 0.85625005 1.2989525e-38
-0.23915523 0.19131936 0.85875005 1.7588196e-38
-0.23665522 0.19131936 0.85375005 3.5815844e-39
-0.23665522 0.19131936 0.85625005 1.086141e-38
-0.23415522 0.19131936 0.85375005 6.2487738e-39
-0.23415522 0.19131936 0.85625005 1.0592754e-38
-0.23665522 0.19131936 0.85875005 1.8239947e-38
-0.23415522 0.19131936 0.85875005 1.6396818e-38
-0.23165523 0.19131936 0.85375005 1.8367099e-40
-0.23165523 0.19131936 0.85625005 1.8367099e-40
-0.22915523 0.19131936 0.85375005 0
-0.22915523 0.19131936 0.85625005 0
-0.23165523 0.19131936 0.85875005 0
