# .PCD v0.7 - Point Cloud Data file format
VERSION 0.7
FIELDS x y z rgb
SIZE 4 4 4 4
TYPE F F F F
COUNT 1 1 1 1
WIDTH 670
HEIGHT 1
VIEWPOINT 0 0 0 1 0 0 0
POINTS 670
DATA ascii
-0.10885752 0.097937874 1.03425 0
-0.10885752 0.10043787 1.03425 0
-0.11135752 0.097937874 1.0367501 1.0101905e-39
-0.11135752 0.10043787 1.0367501 0
-0.10885752 0.097937874 1.0367501 1.8367099e-40
-0.10885752 0.10043787 1.0367501 0
-0.10385752 0.10043787 1.02425 0
-0.10385752 0.10043787 1.0267501 1.3775324e-39
-0.10135752 0.10043787 1.02425 0
-0.098857522 0.10043787 1.0217501 0
-0.098857522 0.10043787 1.02425 0
-0.10135752 0.10043787 1.0267501 1.3775324e-39
-0.098857522 0.10043787 1.0267501 2.4795584e-39
-0.10635752 0.097937874 1.0317501 1.6537578e-39
-0.10635752 0.097937874 1.03425 1.7463122e-39
-0.10635752 0.10043787 1.0317501 0
-0.10635752 0.10043787 1.03425 0
-0.10385752 0.097937874 1.0317501 9.9286368e-39
-0.10385752 0.097937874 1.03425 1.0017961e-38
-0.10385752 0.10043787 1.03425 8.2651947e-40
-0.10635752 0.097937874 1.0367501 1.9289042e-39
-0.10635752 0.10043787 1.0367501 0
-0.10385752 0.097937874 1.0367501 9.74497e-39
-0.10385752 0.10043787 1.0367501 8.2651947e-40
-0.10135752 0.10043787 1.0317501 1.3775324e-39
-0.098857522 0.10043787 1.0317501 1.5612034e-39
-0.11135752 0.10043787 1.0417501 0
-0.11135752 0.10043787 1.04425 3.685258e-39
-0.10885752 0.10043787 1.0417501 0
-0.10635752 0.10043787 1.0417501 0
-0.10385752 0.10043787 1.0417501 1.0297789e-38
-0.10885752 0.11043787 1.0267501 2.3020139e-39
-0.11385752 0.10793787 1.0367501 2.7945815e-40
-0.10885752 0.10293787 1.03425 3.6734198e-40
-0.10885752 0.10543787 1.03425 3.5913136e-39
-0.11135752 0.10293787 1.0367501 7.1746481e-43
-0.11135752 0.10543787 1.0367501 3.0399377e-39
-0.10885752 0.10293787 1.0367501 0
-0.10885752 0.10543787 1.0367501 3.5913136e-39
-0.11135752 0.10793787 1.03425 2.0250865e-39
-0.11135752 0.11043787 1.0317501 6.4284847e-40
-0.11135752 0.11043787 1.03425 1.0109247e-39
-0.10885752 0.10793787 1.0317501 2.118689e-39
-0.10885752 0.10793787 1.03425 2.4867639e-39
-0.10885752 0.11043787 1.0317501 2.1176352e-39
-0.10885752 0.11043787 1.03425 2.1179828e-39
-0.11135752 0.10793787 1.0367501 1.7495464e-39
-0.10885752 0.10793787 1.0367501 2.8533758e-39
-0.10885752 0.11293788 1.0267501 2.0254368e-39
-0.10385752 0.10293787 1.02425 3.4090873e-39
-0.10385752 0.10543787 1.02425 3.7753517e-39
-0.10635752 0.10543787 1.0267501 3.9600961e-39
-0.10385752 0.10293787 1.0267501 0
-0.10385752 0.10543787 1.0267501 3.7753517e-39
-0.10635752 0.10793787 1.02425 2.1179828e-39
-0.10635752 0.11043787 1.02425 2.1179828e-39
-0.10385752 0.10793787 1.02425 2.759755e-39
-0.10385752 0.11043787 1.02425 2.667558e-39
-0.10635752 0.10793787 1.0267501 2.1183387e-39
-0.10635752 0.11043787 1.0267501 1.8410441e-39
-0.10385752 0.10793787 1.0267501 2.759755e-39
-0.10385752 0.11043787 1.0267501 1.8410441e-39
-0.10135752 0.10293787 1.02425 2.5796784e-39
-0.10135752 0.10543787 1.02425 3.9600961e-39
-0.098857522 0.10293787 1.0217501 2.1176324e-39
-0.098857522 0.10293787 1.02425 1.7510079e-39
-0.098857522 0.10543787 1.0217501 2.9473833e-39
-0.098857522 0.10543787 1.02425 2.9473833e-39
-0.10135752 0.10293787 1.0267501 2.5796784e-39
-0.10135752 0.10543787 1.0267501 3.3168917e-39
-0.098857522 0.10293787 1.0267501 1.8413945e-39
-0.098857522 0.10543787 1.0267501 3.4094404e-39
-0.10135752 0.10793787 1.02425 2.1179828e-39
-0.10135752 0.11043787 1.02425 2.3909725e-39
-0.098857522 0.10793787 1.0217501 3.1288963e-39
-0.098857522 0.10793787 1.02425 3.2218122e-39
-0.098857522 0.11043787 1.0217501 2.1179828e-39
-0.098857522 0.11043787 1.02425 2.8519507e-39
-0.10135752 0.10793787 1.0267501 2.8519507e-39
-0.10135752 0.11043787 1.0267501 1.8410441e-39
-0.098857522 0.10793787 1.0267501 2.5789595e-39
-0.098857522 0.11043787 1.0267501 2.3023698e-39
-0.10635752 0.10293787 1.03425 5.5101298e-40
-0.10635752 0.10543787 1.03425 3.5945408e-39
-0.10385752 0.10293787 1.03425 0
-0.10385752 0.10543787 1.0317501 3.2246947e-39
-0.10385752 0.10543787 1.03425 3.7757048e-39
-0.10635752 0.10293787 1.0367501 0
-0.10635752 0.10543787 1.0367501 4.0522917e-39
-0.10385752 0.10293787 1.0367501 0
-0.10635752 0.10793787 1.0317501 2.5789595e-39
-0.10635752 0.10793787 1.03425 2.4867639e-39
-0.10635752 0.11043787 1.0317501 2.0250809e-39
-0.10635752 0.11043787 1.03425 2.3020139e-39
-0.10385752 0.10793787 1.0317501 2.5789595e-39
-0.10385752 0.11043787 1.0317501 2.3020139e-39
-0.10135752 0.10293787 1.0317501 2.857326e-39
-0.10135752 0.10543787 1.0317501 3.4069223e-39
-0.10135752 0.10793787 1.0317501 2.6711551e-39
-0.10135752 0.11043787 1.0317501 2.3020139e-39
-0.10635752 0.11293788 1.02425 1.472263e-39
-0.10385752 0.11293788 1.02425 2.0254368e-39
-0.10635752 0.11293788 1.0267501 1.472263e-39
-0.10385752 0.11293788 1.0267501 1.7484898e-39
-0.10135752 0.11293788 1.02425 1.6562941e-39
-0.098857522 0.11293788 1.0217501 1.8410441e-39
-0.098857522 0.11293788 1.02425 1.6566445e-39
-0.098857522 0.11543787 1.0217501 1.6562941e-39
-0.10135752 0.11293788 1.0267501 1.7484898e-39
-0.098857522 0.11293788 1.0267501 1.8413945e-39
-0.11385752 0.10293787 1.0417501 1.1976081e-38
-0.11385752 0.10293787 1.04425 1.1609094e-38
-0.11385752 0.10543787 1.0417501 2.0225389e-39
-0.11385752 0.10543787 1.04425 2.1129339e-39
-0.11635752 0.10793787 1.0417501 0
-0.11385752 0.10793787 1.0417501 0
-0.11135752 0.10293787 1.0417501 1.4349296e-42
-0.11135752 0.10293787 1.04425 3.7810718e-39
-0.11135752 0.10543787 1.0417501 3.9572276e-39
-0.10885752 0.10293787 1.0417501 0
-0.10885752 0.10543787 1.0417501 3.7760551e-39
-0.11135752 0.10793787 1.0417501 2.3020139e-39
-0.10635752 0.10293787 1.0417501 3.6734198e-40
-0.078857519 0.11043787 1.01925 2.3945654e-39
-0.078857519 0.11293788 1.01925 2.2987769e-39
-0.078857519 0.11543787 1.01925 1.4726133e-39
-0.078857519 0.11793787 1.01925 1.4726133e-39
-0.076357521 0.10293787 1.01925 2.3877229e-39
-0.076357521 0.10543787 1.01925 0
-0.073857516 0.10293787 1.01925 3.6734198e-39
-0.073857516 0.10543787 1.01925 0
-0.076357521 0.11043787 1.01925 2.5789567e-39
-0.073857516 0.11043787 1.0167501 2.4867639e-39
-0.073857516 0.11043787 1.01925 3.1289061e-39
-0.071357518 0.11043787 1.0167501 3.5877164e-39
-0.071357518 0.11043787 1.01925 2.7630018e-39
-0.068857521 0.11043787 1.0167501 3.6799135e-39
-0.068857521 0.11043787 1.01925 2.7630018e-39
-0.076357521 0.11293788 1.01925 2.4835269e-39
-0.076357521 0.11543787 1.0167501 1.4726133e-39
-0.076357521 0.11543787 1.01925 1.4726133e-39
-0.073857516 0.11293788 1.0167501 2.4835269e-39
-0.073857516 0.11293788 1.01925 2.0257829e-39
-0.073857516 0.11543787 1.0167501 1.6562941e-39
-0.073857516 0.11543787 1.01925 1.6566445e-39
-0.076357521 0.11793787 1.0167501 1.6570004e-39
-0.076357521 0.11793787 1.01925 1.3800674e-39
-0.073857516 0.11793787 1.0167501 1.472263e-39
-0.073857516 0.11793787 1.01925 1.472263e-39
-0.071357518 0.11293788 1.0167501 2.667558e-39
-0.071357518 0.11293788 1.01925 2.1179828e-39
-0.071357518 0.11543787 1.0167501 1.4726133e-39
-0.071357518 0.11543787 1.01925 1.7484898e-39
-0.068857521 0.11293788 1.0167501 2.667558e-39
-0.068857521 0.11293788 1.01925 2.1179828e-39
-0.068857521 0.11543787 1.0167501 1.4726133e-39
-0.068857521 0.11543787 1.01925 1.6562941e-39
-0.068857521 0.11793787 1.0117501 1.4729693e-39
-0.068857521 0.12043788 1.0117501 1.3800674e-39
-0.071357518 0.11793787 1.0167501 1.3804163e-39
-0.071357518 0.11793787 1.01925 1.4726133e-39
-0.068857521 0.11793787 1.0167501 1.1981929e-39
-0.068857521 0.11793787 1.01925 1.6562941e-39
-0.066357516 0.11043787 1.0167501 3.4980389e-39
-0.066357516 0.11043787 1.01925 3.3140078e-39
-0.063857518 0.11043787 1.0167501 3.3140078e-39
-0.063857518 0.11043787 1.01925 3.2218122e-39
-0.061357521 0.11043787 1.0117501 3.0367105e-39
-0.058857519 0.11043787 1.0117501 3.1296151e-39
-0.061357521 0.10793787 1.01925 0
-0.061357521 0.11043787 1.0167501 3.2218122e-39
-0.061357521 0.11043787 1.01925 3.1296151e-39
-0.058857519 0.10793787 1.01925 0
-0.058857519 0.11043787 1.0167501 2.4867639e-39
-0.058857519 0.11043787 1.01925 2.8526695e-39
-0.063857518 0.11793787 1.00925 1.6566445e-39
-0.063857518 0.12043788 1.00925 1.3800674e-39
-0.058857519 0.11543787 1.00925 2.0257829e-39
-0.061357521 0.11793787 1.00925 2.2065813e-39
-0.061357521 0.12043788 1.00925 1.472263e-39
-0.058857519 0.11793787 1.00925 1.6566445e-39
-0.058857519 0.12043788 1.00925 1.6566445e-39
-0.063857518 0.11543787 1.0117501 2.0257829e-39
-0.066357516 0.11293788 1.0167501 2.7590488e-39
-0.066357516 0.11293788 1.01925 2.8519507e-39
-0.066357516 0.11543787 1.0167501 1.4726133e-39
-0.066357516 0.11543787 1.01925 1.7491988e-39
-0.063857518 0.11293788 1.0167501 2.759755e-39
-0.063857518 0.11293788 1.01925 2.6718614e-39
-0.063857518 0.11543787 1.0167501 2.0257829e-39
-0.063857518 0.11543787 1.01925 2.2987769e-39
-0.066357516 0.11793787 1.0117501 1.3804163e-39
-0.066357516 0.12043788 1.0117501 1.1960251e-39
-0.063857518 0.11793787 1.0117501 1.6562941e-39
-0.063857518 0.12043788 1.0117501 1.3800674e-39
-0.066357516 0.11793787 1.0167501 1.3804163e-39
-0.066357516 0.11793787 1.01925 1.6562941e-39
-0.063857518 0.11793787 1.0167501 1.6562941e-39
-0.063857518 0.11793787 1.01925 1.6562941e-39
-0.061357521 0.11293788 1.0117501 3.0363419e-39
-0.061357521 0.11543787 1.0117501 1.8413945e-39
-0.058857519 0.11293788 1.0117501 2.8523192e-39
-0.058857519 0.11543787 1.0117501 1.7491988e-39
-0.061357521 0.11293788 1.0167501 2.4871114e-39
-0.061357521 0.11293788 1.01925 3.0363419e-39
-0.061357521 0.11543787 1.0167501 1.6562941e-39
-0.061357521 0.11543787 1.01925 2.4835269e-39
-0.058857519 0.11293788 1.0167501 2.7647773e-39
-0.058857519 0.11293788 1.01925 2.9448652e-39
-0.058857519 0.11543787 1.0167501 1.7484898e-39
-0.061357521 0.11793787 1.0117501 1.6566445e-39
-0.061357521 0.12043788 1.0117501 1.472263e-39
-0.058857519 0.11793787 1.0117501 1.6562941e-39
-0.058857519 0.12043788 1.0117501 1.3800674e-39
-0.061357521 0.11793787 1.0167501 1.6562941e-39
-0.058857519 0.11793787 1.0167501 1.6562941e-39
-0.096357517 0.10043787 1.0217501 0
-0.096357517 0.10043787 1.02425 0
-0.093857519 0.10043787 1.0217501 0
-0.093857519 0.10043787 1.02425 0
-0.096357517 0.10043787 1.0267501 2.6632294e-39
-0.091357522 0.10043787 1.0217501 0
-0.091357522 0.10043787 1.02425 0
-0.096357517 0.10043787 1.0317501 2.4795584e-39
-0.096357517 0.10293787 1.0217501 1.6559466e-39
-0.096357517 0.10293787 1.02425 1.8410441e-39
-0.096357517 0.10543787 1.0217501 3.3165414e-39
-0.096357517 0.10543787 1.02425 2.9473833e-39
-0.093857519 0.10293787 1.0217501 1.3793611e-39
-0.093857519 0.10293787 1.02425 1.6562941e-39
-0.093857519 0.10543787 1.0217501 3.0403132e-39
-0.093857519 0.10543787 1.02425 2.7633522e-39
-0.093857519 0.10293787 1.0267501 0
-0.096357517 0.10793787 1.0217501 3.2214619e-39
-0.096357517 0.10793787 1.02425 3.3172448e-39
-0.096357517 0.11043787 1.0217501 2.4835269e-39
-0.096357517 0.11043787 1.02425 2.1179828e-39
-0.093857519 0.10793787 1.0217501 3.3136575e-39
-0.093857519 0.10793787 1.02425 2.5789595e-39
-0.093857519 0.11043787 1.0217501 2.759755e-39
-0.093857519 0.11043787 1.02425 2.3949158e-39
-0.096357517 0.10793787 1.0267501 2.5789595e-39
-0.096357517 0.11043787 1.0267501 2.3027201e-39
-0.093857519 0.11043787 1.0267501 1.8413945e-39
-0.091357522 0.10293787 1.0217501 1.744894e-39
-0.091357522 0.10293787 1.02425 6.4320721e-40
-0.091357522 0.10543787 1.0217501 3.2250478e-39
-0.091357522 0.10543787 1.02425 4.649228e-40
-0.088857517 0.10293787 1.0217501 3.6734198e-40
-0.088857517 0.10293787 1.02425 6.4284847e-40
-0.088857517 0.10543787 1.0217501 3.4094404e-39
-0.088857517 0.10543787 1.02425 1.3800674e-39
-0.091357522 0.10293787 1.0267501 1.2856969e-39
-0.088857517 0.10293787 1.0267501 0
-0.091357522 0.10793787 1.0217501 3.3143553e-39
-0.091357522 0.10793787 1.02425 2.6711551e-39
-0.091357522 0.11043787 1.0217501 2.7604613e-39
-0.091357522 0.11043787 1.02425 2.1179828e-39
-0.088857517 0.10793787 1.0217501 2.9484623e-39
-0.088857517 0.10793787 1.02425 2.9466798e-39
-0.088857517 0.11043787 1.0217501 2.1179828e-39
-0.088857517 0.11043787 1.02425 2.3945654e-39
-0.091357522 0.11043787 1.0267501 2.1179828e-39
-0.088857517 0.11043787 1.0267501 2.1179828e-39
-0.096357517 0.11293788 1.0217501 1.7484898e-39
-0.096357517 0.11293788 1.02425 2.0257829e-39
-0.096357517 0.11543787 1.0217501 1.6562941e-39
-0.093857519 0.11293788 1.0217501 1.6562941e-39
-0.093857519 0.11293788 1.02425 1.6570004e-39
-0.093857519 0.11543787 1.0217501 1.6562941e-39
-0.096357517 0.11293788 1.0267501 1.8413945e-39
-0.093857519 0.11293788 1.0267501 1.7491988e-39
-0.091357522 0.11293788 1.0217501 1.8413945e-39
-0.091357522 0.11293788 1.02425 2.2065813e-39
-0.091357522 0.11543787 1.0217501 1.6566445e-39
-0.088857517 0.11293788 1.0217501 1.8413945e-39
-0.088857517 0.11293788 1.02425 2.2065813e-39
-0.088857517 0.11543787 1.0217501 2.2065813e-39
-0.091357522 0.11293788 1.0267501 1.8413945e-39
-0.088857517 0.11293788 1.0267501 1.7491988e-39
-0.086357519 0.10293787 1.0217501 3.6734198e-40
-0.086357519 0.10543787 1.0217501 3.2261044e-39
-0.086357519 0.10543787 1.02425 7.3468397e-40
-0.083857521 0.10543787 1.0217501 2.7647717e-39
-0.083857521 0.10543787 1.02425 0
-0.086357519 0.10793787 1.0217501 3.5945408e-39
-0.086357519 0.10793787 1.02425 3.2218122e-39
-0.086357519 0.11043787 1.0217501 3.037767e-39
-0.086357519 0.11043787 1.02425 2.4867611e-39
-0.083857521 0.10793787 1.0217501 3.4097908e-39
-0.083857521 0.10793787 1.02425 3.5902346e-39
-0.083857521 0.11043787 1.0217501 3.3143553e-39
-0.083857521 0.11043787 1.02425 3.1299627e-39
-0.086357519 0.11043787 1.0267501 2.8533758e-39
-0.083857521 0.10793787 1.0267501 3.4044042e-39
-0.083857521 0.11043787 1.0267501 2.5789595e-39
-0.081357516 0.10293787 1.02425 2.6632294e-39
-0.081357516 0.10543787 1.0217501 2.7647773e-39
-0.081357516 0.10543787 1.02425 0
-0.078857519 0.10293787 1.0217501 3.1224069e-39
-0.078857519 0.10293787 1.02425 2.4795584e-39
-0.078857519 0.10543787 1.0217501 0
-0.078857519 0.10543787 1.02425 0
-0.081357516 0.10293787 1.0267501 2.9387359e-39
-0.081357516 0.10543787 1.0267501 0
-0.078857519 0.10293787 1.0267501 2.1122164e-39
-0.078857519 0.10543787 1.0267501 0
-0.081357516 0.10793787 1.0217501 2.9491685e-39
-0.081357516 0.10793787 1.02425 2.947033e-39
-0.081357516 0.11043787 1.0217501 3.1299627e-39
-0.081357516 0.11043787 1.02425 3.2214619e-39
-0.078857519 0.10793787 1.0217501 2.5786092e-39
-0.078857519 0.10793787 1.02425 1.3825841e-39
-0.078857519 0.11043787 1.0217501 3.1296151e-39
-0.078857519 0.11043787 1.02425 2.7633522e-39
-0.081357516 0.10793787 1.0267501 2.6708048e-39
-0.078857519 0.10793787 1.0267501 2.1201492e-39
-0.086357519 0.11293788 1.0217501 2.2987769e-39
-0.086357519 0.11293788 1.02425 1.6566445e-39
-0.086357519 0.11543787 1.0217501 1.4726133e-39
-0.083857521 0.11293788 1.0217501 2.3909725e-39
-0.083857521 0.11293788 1.02425 1.8413945e-39
-0.083857521 0.11543787 1.0217501 1.4726133e-39
-0.086357519 0.11293788 1.0267501 2.3909725e-39
-0.081357516 0.11293788 1.0217501 2.3909725e-39
-0.081357516 0.11293788 1.02425 2.3909725e-39
-0.081357516 0.11543787 1.0217501 1.4726133e-39
-0.078857519 0.11293788 1.0217501 2.0257829e-39
-0.078857519 0.11293788 1.02425 2.667558e-39
-0.078857519 0.11543787 1.0217501 1.6566445e-39
-0.076357521 0.10293787 1.0217501 2.3877229e-39
-0.076357521 0.10293787 1.02425 2.2958874e-39
-0.076357521 0.10543787 1.0217501 0
-0.076357521 0.10543787 1.02425 0
-0.073857516 0.10293787 1.0217501 3.6734198e-39
-0.073857516 0.10293787 1.02425 4.0407618e-39
-0.073857516 0.10543787 1.0217501 0
-0.073857516 0.10543787 1.02425 0
-0.073857516 0.10293787 1.0267501 3.8570908e-39
-0.073857516 0.10543787 1.0267501 0
-0.076357521 0.10793787 1.0217501 2.6711551e-39
-0.076357521 0.10793787 1.02425 2.0279535e-39
-0.076357521 0.11043787 1.0217501 3.3140078e-39
-0.076357521 0.11043787 1.02425 2.9473833e-39
-0.073857516 0.10793787 1.0217501 2.5789595e-39
-0.073857516 0.10793787 1.02425 1.7491988e-39
-0.073857516 0.11043787 1.0217501 2.9491685e-39
-0.073857516 0.11043787 1.02425 2.7633522e-39
-0.076357521 0.10793787 1.0267501 1.1981929e-39
-0.073857516 0.10793787 1.0267501 1.6562941e-39
-0.071357518 0.10293787 1.0217501 8.0901332e-39
-0.071357518 0.10293787 1.02425 7.6327494e-39
-0.071357518 0.10543787 1.0217501 1.0101905e-39
-0.071357518 0.10543787 1.02425 0
-0.068857521 0.10543787 1.0217501 9.1835496e-41
-0.068857521 0.10543787 1.02425 0
-0.071357518 0.10543787 1.0267501 0
-0.071357518 0.10793787 1.0217501 2.2958972e-39
-0.071357518 0.10793787 1.02425 1.1038294e-39
-0.071357518 0.11043787 1.0217501 3.0406635e-39
-0.068857521 0.10793787 1.0217501 2.479571e-39
-0.068857521 0.10793787 1.02425 5.5101438e-40
-0.068857521 0.11043787 1.0217501 3.5938373e-39
-0.071357518 0.10793787 1.0267501 3.6734198e-40
-0.068857521 0.10793787 1.0267501 0
-0.076357521 0.11293788 1.0217501 1.8413917e-39
-0.076357521 0.11543787 1.0217501 1.6566445e-39
-0.073857516 0.11293788 1.0217501 2.0254368e-39
-0.073857516 0.11543787 1.0217501 1.6562941e-39
-0.071357518 0.11293788 1.0217501 2.6668531e-39
-0.071357518 0.11543787 1.0217501 1.7484898e-39
-0.068857521 0.11293788 1.0217501 2.7590488e-39
-0.068857521 0.11543787 1.0217501 1.7484898e-39
-0.066357516 0.10543787 1.0217501 0
-0.066357516 0.10543787 1.02425 2.9398121e-39
-0.063857518 0.10543787 1.0217501 1.8367099e-39
-0.063857518 0.10543787 1.02425 1.104004e-38
-0.066357516 0.10793787 1.0217501 0
-0.066357516 0.10793787 1.02425 0
-0.066357516 0.11043787 1.0217501 2.6711551e-39
-0.066357516 0.11043787 1.02425 2.7647773e-39
-0.063857518 0.10793787 1.0217501 0
-0.063857518 0.10793787 1.02425 0
-0.063857518 0.11043787 1.0217501 2.6704531e-39
-0.063857518 0.11043787 1.02425 2.4896295e-39
-0.066357516 0.10793787 1.0267501 0
-0.061357521 0.10543787 1.0217501 2.2040519e-39
-0.061357521 0.10543787 1.02425 1.4082136e-38
-0.058857519 0.10543787 1.0217501 2.6632294e-39
-0.061357521 0.10793787 1.0217501 0
-0.061357521 0.10793787 1.02425 0
-0.061357521 0.11043787 1.0217501 2.3013104e-39
-0.061357521 0.11043787 1.02425 1.7520645e-39
-0.058857519 0.10793787 1.0217501 0
-0.058857519 0.10793787 1.02425 0
-0.058857519 0.11043787 1.0217501 1.7484898e-39
-0.066357516 0.11293788 1.0217501 2.3016636e-39
-0.066357516 0.11543787 1.0217501 1.7491988e-39
-0.063857518 0.11293788 1.0217501 2.8519507e-39
-0.061357521 0.11293788 1.0217501 3.2218122e-39
-0.058857519 0.11293788 1.0217501 2.9448652e-39
-0.05385752 0.11043787 1.00925 2.1183387e-39
-0.051357519 0.10793787 1.0067501 9.18397e-41
-0.051357519 0.10793787 1.00925 0
-0.051357519 0.11043787 1.0067501 2.1129605e-39
-0.051357519 0.11043787 1.00925 1.1031204e-39
-0.048857518 0.10793787 1.0067501 9.1835496e-41
-0.048857518 0.10793787 1.00925 0
-0.048857518 0.11043787 1.0067501 6.4284847e-40
-0.048857518 0.11043787 1.00925 8.2651947e-40
-0.056357518 0.11043787 1.0117501 2.5789595e-39
-0.05385752 0.11043787 1.0117501 2.3027201e-39
-0.056357518 0.10793787 1.01925 0
-0.056357518 0.11043787 1.0167501 2.4867639e-39
-0.056357518 0.11043787 1.01925 2.3016636e-39
-0.05385752 0.10793787 1.0167501 0
-0.05385752 0.10793787 1.01925 0
-0.05385752 0.11043787 1.0167501 2.1179828e-39
-0.05385752 0.11043787 1.01925 2.3938592e-39
-0.051357519 0.10793787 1.0117501 0
-0.051357519 0.11043787 1.0117501 1.2882207e-39
-0.048857518 0.10793787 1.0117501 0
-0.048857518 0.11043787 1.0117501 0
-0.051357519 0.10793787 1.0167501 0
-0.051357519 0.10793787 1.01925 0
-0.051357519 0.11043787 1.0167501 2.7658689e-40
-0.048857518 0.10793787 1.0167501 0
-0.048857518 0.10793787 1.01925 1.8367099e-40
-0.056357518 0.11543787 1.0067501 2.4835269e-39
-0.056357518 0.11543787 1.00925 1.8413945e-39
-0.05385752 0.11293788 1.00925 3.7749846e-39
-0.05385752 0.11543787 1.0067501 2.759755e-39
-0.05385752 0.11543787 1.00925 1.9332398e-39
-0.056357518 0.11793787 1.0067501 1.3804163e-39
-0.056357518 0.11793787 1.00925 1.6566445e-39
-0.056357518 0.12043788 1.0067501 1.1056385e-39
-0.056357518 0.12043788 1.00925 1.6562941e-39
-0.05385752 0.11793787 1.0067501 1.6562941e-39
-0.05385752 0.11793787 1.00925 2.5739344e-39
-0.05385752 0.12043788 1.00925 1.6566445e-39
-0.051357519 0.11293788 1.0067501 3.5913192e-39
-0.051357519 0.11293788 1.00925 3.4987648e-39
-0.051357519 0.11543787 1.0067501 2.759755e-39
-0.051357519 0.11543787 1.00925 2.7590488e-39
-0.048857518 0.11293788 1.0067501 2.7633522e-39
-0.048857518 0.11293788 1.00925 3.3150742e-39
-0.048857518 0.11543787 1.0067501 2.3020139e-39
-0.048857518 0.11543787 1.00925 2.667558e-39
-0.048857518 0.11793787 1.00425 1.7484898e-39
-0.051357519 0.11793787 1.0067501 1.6566445e-39
-0.051357519 0.11793787 1.00925 2.2987769e-39
-0.051357519 0.12043788 1.0067501 1.472263e-39
-0.051357519 0.12043788 1.00925 1.4726133e-39
-0.048857518 0.11793787 1.0067501 1.6566445e-39
-0.048857518 0.11793787 1.00925 2.2987769e-39
-0.048857518 0.12043788 1.0067501 1.4726133e-39
-0.048857518 0.12043788 1.00925 1.6566445e-39
-0.056357518 0.11293788 1.0117501 3.2218122e-39
-0.056357518 0.11543787 1.0117501 1.6562941e-39
-0.05385752 0.11293788 1.0117501 3.5895311e-39
-0.05385752 0.11543787 1.0117501 3.3122226e-39
-0.056357518 0.11293788 1.0167501 2.9473833e-39
-0.05385752 0.11293788 1.0167501 3.1321333e-39
-0.056357518 0.11793787 1.0117501 2.3895432e-39
-0.056357518 0.12043788 1.0117501 1.4726133e-39
-0.05385752 0.11793787 1.0117501 1.7491988e-39
-0.05385752 0.12043788 1.0117501 1.6562941e-39
-0.051357519 0.11293788 1.0117501 3.3140232e-39
-0.051357519 0.11543787 1.0117501 4.3249325e-39
-0.048857518 0.11293788 1.0117501 2.7647773e-39
-0.048857518 0.11543787 1.0117501 3.4069223e-39
-0.051357519 0.11293788 1.0167501 3.2246947e-39
-0.051357519 0.11793787 1.0117501 1.7491988e-39
-0.051357519 0.12043788 1.0117501 1.6562941e-39
-0.04635752 0.10793787 1.0067501 0
-0.04635752 0.10793787 1.00925 0
-0.04635752 0.11043787 1.0067501 9.1835496e-41
-0.04635752 0.11043787 1.00925 6.4284847e-40
-0.043857519 0.10793787 1.00925 1.6530389e-39
-0.043857519 0.11043787 1.0067501 0
-0.043857519 0.11043787 1.00925 0
-0.041357517 0.10793787 1.00925 1.8367099e-39
-0.041357517 0.11043787 1.0067501 0
-0.041357517 0.11043787 1.00925 0
-0.03885752 0.10793787 1.00925 1.6530389e-39
-0.03885752 0.11043787 1.00925 0
-0.04635752 0.10793787 1.0117501 1.8367099e-40
-0.04635752 0.11043787 1.0117501 0
-0.043857519 0.11043787 1.0117501 0
-0.041357517 0.11043787 1.0117501 0
-0.03885752 0.11043787 1.0117501 0
-0.03885752 0.11043787 1.0167501 1.0101905e-39
-0.04635752 0.11543787 1.00425 2.3023698e-39
-0.043857519 0.11293788 1.00425 3.6820799e-39
-0.043857519 0.11543787 1.00425 3.1296151e-39
-0.04635752 0.11293788 1.0067501 2.6711551e-39
-0.04635752 0.11293788 1.00925 2.6708048e-39
-0.04635752 0.11543787 1.0067501 2.0250809e-39
-0.04635752 0.11543787 1.00925 2.759755e-39
-0.043857519 0.11293788 1.0067501 3.1299627e-39
-0.043857519 0.11293788 1.00925 2.3938592e-39
-0.043857519 0.11543787 1.0067501 2.3016636e-39
-0.043857519 0.11543787 1.00925 2.6708048e-39
-0.04635752 0.11793787 1.00425 1.7491988e-39
-0.04635752 0.12043788 1.00425 1.7491988e-39
-0.043857519 0.11793787 1.00425 2.0257857e-39
-0.043857519 0.12043788 1.00425 1.8413945e-39
-0.04635752 0.11793787 1.0067501 2.5739344e-39
-0.04635752 0.11793787 1.00925 2.4835269e-39
-0.04635752 0.12043788 1.0067501 1.8413945e-39
-0.04635752 0.12043788 1.00925 1.6562941e-39
-0.043857519 0.11793787 1.0067501 1.7491988e-39
-0.043857519 0.12043788 1.0067501 1.2907388e-39
-0.041357517 0.11543787 1.00425 3.037767e-39
-0.03885752 0.11543787 1.00425 2.7633522e-39
-0.041357517 0.11293788 1.0067501 3.1296151e-39
-0.041357517 0.11293788 1.00925 2.3016636e-39
-0.041357517 0.11543787 1.0067501 2.5789595e-39
-0.041357517 0.11543787 1.00925 2.5789595e-39
-0.03885752 0.11293788 1.0067501 2.3945654e-39
-0.03885752 0.11293788 1.00925 1.472263e-39
-0.03885752 0.11543787 1.0067501 2.4867639e-39
-0.03885752 0.11543787 1.00925 2.6711551e-39
-0.041357517 0.11793787 1.00425 2.2994831e-39
-0.041357517 0.12043788 1.00425 2.2994831e-39
-0.03885752 0.11793787 1.00175 2.1179828e-39
-0.03885752 0.11793787 1.00425 2.1179828e-39
-0.03885752 0.12043788 1.00175 2.0257829e-39
-0.03885752 0.12043788 1.00425 2.4835269e-39
-0.041357517 0.11793787 1.0067501 1.7491988e-39
-0.041357517 0.11793787 1.00925 2.1179828e-39
-0.041357517 0.12043788 1.0067501 1.1985432e-39
-0.03885752 0.11793787 1.0067501 1.9335901e-39
-0.03885752 0.11793787 1.00925 2.3020139e-39
-0.03885752 0.12043788 1.0067501 1.7491988e-39
-0.04635752 0.11293788 1.0117501 2.9484623e-39
-0.043857519 0.11293788 1.0117501 2.1187016e-39
-0.041357517 0.11293788 1.0117501 1.7510079e-39
-0.03885752 0.11293788 1.0117501 1.3825841e-39
-0.03885752 0.11543787 1.0117501 2.6711551e-39
-0.036357518 0.10793787 1.00925 2.4795584e-39
-0.036357518 0.11043787 1.00925 0
-0.033857517 0.10793787 1.00925 5.5101298e-39
-0.033857517 0.11043787 1.00925 0
-0.031357519 0.10793787 1.00925 8.190937e-39
-0.031357519 0.11043787 1.00925 0
-0.028857518 0.10793787 1.00925 1.2142505e-38
-0.028857518 0.11043787 1.00925 0
-0.036357518 0.11043787 1.0117501 0
-0.033857517 0.10793787 1.0117501 1.9254827e-38
-0.033857517 0.11043787 1.0117501 0
-0.036357518 0.11043787 1.0167501 1.2856969e-39
-0.033857517 0.10793787 1.0167501 1.9254822e-38
-0.033857517 0.11043787 1.0167501 3.9489263e-39
-0.031357519 0.11043787 1.0117501 0
-0.028857518 0.11043787 1.0117501 0
-0.031357519 0.11043787 1.0167501 5.9693395e-39
-0.028857518 0.11043787 1.0167501 0
-0.036357518 0.11543787 1.00425 2.7633522e-39
-0.033857517 0.11543787 1.00425 2.9484623e-39
-0.036357518 0.11293788 1.0067501 2.1183387e-39
-0.036357518 0.11293788 1.00925 1.1031204e-39
-0.036357518 0.11543787 1.0067501 2.7633522e-39
-0.036357518 0.11543787 1.00925 2.1176324e-39
-0.033857517 0.11293788 1.0067501 3.6734198e-40
-0.033857517 0.11293788 1.00925 1.102026e-39
-0.033857517 0.11543787 1.0067501 3.2253953e-39
-0.033857517 0.11543787 1.00925 3.2253953e-39
-0.036357518 0.11793787 1.00175 2.0257857e-39
-0.036357518 0.11793787 1.00425 1.3804163e-39
-0.036357518 0.12043788 1.00175 1.6570004e-39
-0.036357518 0.12043788 1.00425 2.2987769e-39
-0.033857517 0.11793787 1.00175 7.3469798e-40
-0.033857517 0.11793787 1.00425 3.6734899e-40
-0.033857517 0.12043788 1.00175 9.1845305e-41
-0.033857517 0.12043788 1.00425 1.0101905e-39
-0.036357518 0.11793787 1.0067501 2.8519507e-39
-0.033857517 0.11793787 1.0067501 3.1324808e-39
-0.031357519 0.11543787 1.00425 3.3172448e-39
-0.028857518 0.11543787 1.00425 4.6079178e-39
-0.031357519 0.11293788 1.0067501 5.6051939e-45
-0.031357519 0.11293788 1.00925 0
-0.031357519 0.11543787 1.0067501 6.6379873e-39
-0.031357519 0.11543787 1.00925 6.7287438e-39
-0.028857518 0.11293788 1.0067501 0
-0.028857518 0.11293788 1.00925 2.8025969e-44
-0.028857518 0.11543787 1.0067501 4.4249642e-39
-0.028857518 0.11543787 1.00925 4.3316938e-39
-0.031357519 0.11793787 1.00175 3.2239786e-39
-0.031357519 0.11793787 1.00425 3.0392286e-39
-0.031357519 0.12043788 1.00175 1.8435623e-39
-0.031357519 0.12043788 1.00425 2.6675552e-39
-0.028857518 0.11793787 1.00175 1.2069714e-38
-0.028857518 0.11793787 1.00425 1.1977872e-38
-0.028857518 0.12043788 1.00425 1.2528159e-38
-0.031357519 0.11793787 1.0067501 9.8562948e-39
-0.031357519 0.12043788 1.0067501 1.0038877e-38
-0.028857518 0.11793787 1.0067501 1.2069349e-38
-0.028857518 0.12043788 1.0067501 1.2067182e-38
-0.036357518 0.11293788 1.0117501 9.2160738e-40
-0.033857517 0.11293788 1.0117501 1.6541151e-39
-0.031357519 0.11293788 1.0117501 0
-0.031357519 0.11543787 1.0117501 4.2038954e-45
-0.028857518 0.11293788 1.0117501 0
-0.028857518 0.11543787 1.0117501 0
-0.026357519 0.11043787 1.0117501 0
-0.026357519 0.11293788 1.00425 1.5760041e-38
-0.026357519 0.11543787 1.00425 1.8980386e-38
-0.026357519 0.11293788 1.0067501 1.6675518e-38
-0.026357519 0.11293788 1.00925 0
-0.026357519 0.11543787 1.0067501 1.8611626e-38
-0.026357519 0.11543787 1.00925 8.1888631e-39
-0.023857519 0.11293788 1.0067501 1.7506011e-38
-0.023857519 0.11543787 1.00925 1.9442823e-38
-0.026357519 0.11793787 1.00425 1.2156872e-38
-0.026357519 0.12043788 1.00425 1.2255532e-38
-0.026357519 0.11793787 1.0067501 1.2247989e-38
-0.026357519 0.11793787 1.00925 1.1685464e-38
-0.026357519 0.12043788 1.0067501 1.2623945e-38
-0.026357519 0.12043788 1.00925 1.2344859e-38
-0.023857519 0.11793787 1.00925 1.9442823e-38
-0.023857519 0.12043788 1.00925 1.455861e-38
-0.026357519 0.11293788 1.0117501 0
-0.026357519 0.11543787 1.0117501 1.9344534e-38
-0.023857519 0.11543787 1.0117501 1.9717968e-38
-0.023857519 0.11543787 1.0167501 1.9442823e-38
-0.026357519 0.11793787 1.0117501 2.0720636e-38
-0.026357519 0.12043788 1.0117501 1.5840054e-38
-0.023857519 0.11793787 1.0117501 1.9442826e-38
-0.023857519 0.12043788 1.0117501 1.7506682e-38
-0.023857519 0.11793787 1.0167501 1.9442826e-38
-0.02135752 0.11543787 1.0117501 1.8797453e-38
-0.02135752 0.11543787 1.0167501 1.8980401e-38
-0.02135752 0.11793787 1.0117501 1.8521947e-38
-0.02135752 0.12043788 1.0117501 1.8520831e-38
-0.02135752 0.11793787 1.0167501 1.8613424e-38
-0.056357518 0.10543787 1.0217501 2.6632294e-39
-0.05385752 0.10543787 1.0217501 3.5815844e-39
-0.056357518 0.10793787 1.0217501 0
-0.056357518 0.10793787 1.02425 0
-0.056357518 0.11043787 1.0217501 1.6562941e-39
-0.05385752 0.10793787 1.0217501 0
-0.05385752 0.11043787 1.0217501 1.3800674e-39
-0.048857518 0.12293787 1.0067501 1.1960251e-39
-0.043857519 0.12293787 1.00425 1.472263e-39
-0.04635752 0.12293787 1.0067501 1.4726133e-39
-0.043857519 0.12293787 1.0067501 1.7491988e-39
-0.041357517 0.12293787 1.00175 1.7491988e-39
-0.041357517 0.12293787 1.00425 1.7481423e-39
-0.041357517 0.12543787 1.00175 7.3504691e-40
-0.03885752 0.12293787 1.00175 2.667558e-39
-0.03885752 0.12293787 1.00425 2.1179828e-39
-0.03885752 0.12543787 1.00175 1.6562941e-39
-0.041357517 0.12293787 1.0067501 1.8413945e-39
-0.03885752 0.12293787 1.0067501 2.0257829e-39
-0.036357518 0.12293787 1.00175 2.1179828e-39
-0.036357518 0.12293787 1.00425 2.4867639e-39
-0.036357518 0.12543787 1.00175 1.9332398e-39
-0.033857517 0.12293787 1.00175 2.6708048e-39
-0.033857517 0.12293787 1.00425 2.3938592e-39
-0.033857517 0.12543787 1.00175 1.6559466e-39
-0.031357519 0.12293787 1.00175 1.4693679e-39
-0.031357519 0.12293787 1.00425 2.1136513e-39
-0.031357519 0.12543787 1.00175 2.1129605e-39
-0.028857518 0.12293787 1.00175 6.170601e-39
-0.028857518 0.12293787 1.00425 6.0780368e-39
-0.028857518 0.12543787 1.00175 4.6944367e-39
-0.028857518 0.12293787 1.0067501 8.8417127e-39
-0.026357519 0.12293787 1.00425 7.0025449e-39
-0.026357519 0.12293787 1.0067501 8.8400157e-39
