# .PCD v0.7 - Point Cloud Data file format
VERSION 0.7
FIELDS x y z rgb
SIZE 4 4 4 4
TYPE F F F F
COUNT 1 1 1 1
WIDTH 593
HEIGHT 1
VIEWPOINT 0 0 0 1 0 0 0
POINTS 593
DATA ascii
0.06106142 0.090814434 1.0382501 7.1746481e-43
0.063561417 0.090814434 1.0382501 1.9350516e-39
0.06106142 0.090814434 1.05075 1.4012985e-45
0.06106142 0.090814434 1.0532501 0
0.06106142 0.090814434 1.0557501 5.5282345e-40
0.063561417 0.090814434 1.0557501 7.3650846e-40
0.066061422 0.090814434 1.0557501 1.1967313e-39
0.06106142 0.088314429 1.0607501 3.6734198e-40
0.06106142 0.090814434 1.0607501 4.6026909e-40
0.063561417 0.085814431 1.0632501 0
0.066061422 0.085814431 1.0607501 2.7623797e-40
0.066061422 0.085814431 1.0632501 9.219563e-40
0.063561417 0.083314434 1.0657501 6.8058712e-39
0.063561417 0.085814431 1.0657501 0
0.066061422 0.083314434 1.0657501 2.2040519e-39
0.066061422 0.085814431 1.0657501 9.219563e-41
0.063561417 0.088314429 1.0607501 1.0109247e-39
0.063561417 0.088314429 1.0632501 3.0828566e-44
0.063561417 0.090814434 1.0607501 8.279544e-40
0.063561417 0.090814434 1.0632501 2.0221886e-39
0.066061422 0.088314429 1.0607501 1.1027728e-39
0.066061422 0.088314429 1.0632501 6.4287089e-40
0.066061422 0.090814434 1.0607501 1.841742e-39
0.066061422 0.090814434 1.0632501 2.0221886e-39
0.06856142 0.090814434 1.0557501 2.947033e-39
0.071061417 0.090814434 1.0557501 2.6708048e-39
0.07606142 0.090814434 1.0532501 3.6824302e-39
0.073561423 0.090814434 1.0557501 2.947033e-39
0.07606142 0.090814434 1.0557501 3.6817267e-39
0.06856142 0.085814431 1.0607501 6.4284847e-40
0.06856142 0.085814431 1.0632501 1.4726133e-39
0.071061417 0.085814431 1.0632501 1.3825841e-39
0.06856142 0.083314434 1.0657501 5.6051939e-45
0.06856142 0.085814431 1.0657501 4.591971e-40
0.071061417 0.083314434 1.0657501 7.0064923e-45
0.071061417 0.085814431 1.0657501 1.9361082e-39
0.06856142 0.088314429 1.0607501 2.1176324e-39
0.06856142 0.088314429 1.0632501 7.347204e-40
0.06856142 0.090814434 1.0607501 2.3938592e-39
0.06856142 0.090814434 1.0632501 1.4715568e-39
0.071061417 0.088314429 1.0607501 2.3938592e-39
0.071061417 0.088314429 1.0632501 2.6711551e-39
0.071061417 0.090814434 1.0607501 2.7630018e-39
0.071061417 0.090814434 1.0632501 2.5779029e-39
0.071061417 0.088314429 1.0657501 2.1176324e-39
0.073561423 0.085814431 1.0632501 2.5811273e-39
0.07606142 0.085814431 1.0632501 2.9484623e-39
0.073561423 0.085814431 1.0657501 2.5814776e-39
0.07606142 0.085814431 1.0657501 2.9484623e-39
0.073561423 0.088314429 1.0607501 3.2239786e-39
0.073561423 0.088314429 1.0632501 2.7633522e-39
0.073561423 0.090814434 1.0607501 2.947033e-39
0.073561423 0.090814434 1.0632501 2.9473833e-39
0.07606142 0.088314429 1.0607501 3.4094404e-39
0.07606142 0.088314429 1.0632501 3.5920226e-39
0.07606142 0.090814434 1.0607501 3.2211087e-39
0.07606142 0.090814434 1.0632501 3.7724776e-39
0.073561423 0.088314429 1.0657501 3.2239786e-39
0.073561423 0.090814434 1.0657501 3.1321333e-39
0.07606142 0.088314429 1.0657501 3.5913136e-39
0.07606142 0.090814434 1.0657501 2.5814776e-39
0.08356142 0.080814429 1.0632501 3.5920226e-39
0.086061418 0.080814429 1.0632501 1.2917954e-39
0.086061418 0.080814429 1.0657501 2.1179828e-39
0.078561418 0.090814434 1.0532501 1.751717e-39
0.081061423 0.090814434 1.0532501 0
0.078561418 0.090814434 1.0557501 7.4045452e-40
0.081061423 0.090814434 1.0557501 0
0.08356142 0.090814434 1.0557501 1.0119841e-39
0.078561418 0.085814431 1.0632501 3.4094404e-39
0.078561418 0.085814431 1.0657501 3.2250478e-39
0.081061423 0.085814431 1.0657501 2.026506e-39
0.078561418 0.088314429 1.0607501 2.9491685e-39
0.078561418 0.088314429 1.0632501 2.8573232e-39
0.078561418 0.090814434 1.0607501 1.3825841e-39
0.078561418 0.090814434 1.0632501 3.3143553e-39
0.081061423 0.088314429 1.0607501 6.4392467e-40
0.081061423 0.088314429 1.0632501 0
0.081061423 0.090814434 1.0607501 0
0.081061423 0.090814434 1.0632501 0
0.078561418 0.088314429 1.0657501 3.5001745e-39
0.078561418 0.090814434 1.0657501 3.3150742e-39
0.081061423 0.088314429 1.0657501 5.5101298e-40
0.081061423 0.090814434 1.0657501 0
0.08356142 0.083314434 1.0632501 1.4711644e-39
0.08356142 0.085814431 1.0632501 0
0.086061418 0.083314434 1.0632501 0
0.086061418 0.085814431 1.0632501 0
0.08356142 0.083314434 1.0657501 3.7764013e-39
0.08356142 0.085814431 1.0657501 1.7491988e-39
0.086061418 0.083314434 1.0657501 0
0.086061418 0.085814431 1.0657501 1.0101905e-39
0.08356142 0.090814434 1.0607501 0
0.088561416 0.080814429 1.0632501 0
0.088561416 0.083314434 1.0632501 0
0.088561416 0.083314434 1.0657501 0
0.066061422 0.080814429 1.0707501 9.1835496e-40
0.063561417 0.085814431 1.0707501 0
0.063561417 0.085814431 1.0732501 2.2958874e-39
0.066061422 0.083314434 1.0707501 1.9285454e-39
0.066061422 0.083314434 1.0732501 1.8367099e-39
0.066061422 0.085814431 1.0707501 6.4284847e-40
0.066061422 0.085814431 1.0732501 6.4284847e-40
0.066061422 0.083314434 1.0757501 2.5713939e-39
0.063561417 0.088314429 1.0707501 0
0.063561417 0.088314429 1.0732501 8.2651947e-40
0.06856142 0.080814429 1.0707501 0
0.06856142 0.080814429 1.0732501 7.3468817e-40
0.071061417 0.078314431 1.0732501 1.5612034e-39
0.071061417 0.080814429 1.0732501 1.4693834e-39
0.06856142 0.080814429 1.0757501 3.4897489e-39
0.071061417 0.078314431 1.0757501 1.7448744e-39
0.071061417 0.080814429 1.0757501 3.2142424e-39
0.073561423 0.075814433 1.0732501 6.464386e-40
0.073561423 0.075814433 1.0757501 1.0134261e-39
0.07606142 0.075814433 1.0757501 2.3906222e-39
0.073561423 0.078314431 1.0732501 2.5265411e-42
0.073561423 0.080814429 1.0732501 1.7484898e-39
0.07606142 0.080814429 1.0732501 2.5789595e-39
0.073561423 0.078314431 1.0757501 4.5917748e-40
0.073561423 0.080814429 1.0757501 6.4284847e-40
0.07606142 0.078314431 1.0757501 1.7481423e-39
0.07606142 0.080814429 1.0757501 1.6562941e-39
0.071061417 0.078314431 1.0807501 1.9285454e-39
0.071061417 0.080814429 1.0807501 3.1224069e-39
0.073561423 0.075814433 1.0807501 5.5280804e-40
0.07606142 0.075814433 1.0807501 2.0254368e-39
0.07606142 0.075814433 1.08325 2.1129605e-39
0.07606142 0.075814433 1.0857501 8.2654609e-40
0.073561423 0.078314431 1.0807501 8.2724394e-40
0.073561423 0.080814429 1.0807501 0
0.07606142 0.078314431 1.0807501 1.0119841e-39
0.07606142 0.078314431 1.08325 1.6562941e-39
0.07606142 0.080814429 1.0807501 5.5317378e-40
0.07606142 0.080814429 1.08325 8.2941034e-40
0.07606142 0.078314431 1.0857501 1.1056385e-39
0.06856142 0.083314434 1.0707501 7.1746481e-43
0.06856142 0.083314434 1.0732501 7.3504691e-40
0.06856142 0.085814431 1.0707501 6.4431283e-40
0.071061417 0.083314434 1.0707501 8.2976067e-40
0.071061417 0.083314434 1.0732501 1.3804163e-39
0.071061417 0.085814431 1.0707501 1.105291e-39
0.06856142 0.083314434 1.0757501 7.3469798e-40
0.071061417 0.083314434 1.0757501 1.2878704e-39
0.073561423 0.083314434 1.0732501 2.5789567e-39
0.073561423 0.085814431 1.0707501 2.3938592e-39
0.073561423 0.085814431 1.0732501 2.947033e-39
0.07606142 0.083314434 1.0707501 2.2126951e-39
0.07606142 0.083314434 1.0732501 2.6711551e-39
0.07606142 0.085814431 1.0707501 3.3140078e-39
0.07606142 0.085814431 1.0732501 2.9491685e-39
0.073561423 0.083314434 1.0757501 9.219563e-40
0.07606142 0.083314434 1.0757501 2.2126951e-39
0.07606142 0.088314429 1.0707501 3.2250478e-39
0.07606142 0.083314434 1.0807501 1.7510079e-39
0.081061423 0.070814431 1.0857501 1.1963726e-39
0.08356142 0.068314433 1.0857501 2.1179828e-39
0.08356142 0.070814431 1.0857501 3.3175951e-39
0.086061418 0.070814431 1.0857501 3.4097908e-39
0.088561416 0.070814431 1.0857501 3.8679005e-39
0.093561418 0.070814431 1.0857501 3.9579283e-39
0.078561418 0.070814431 1.0907501 9.1835496e-40
0.081061423 0.070814431 1.0907501 1.8428084e-39
0.081061423 0.070814431 1.09325 6.4607706e-40
0.08356142 0.070814431 1.0907501 2.7640584e-39
0.08356142 0.070814431 1.09325 2.9480895e-39
0.086061418 0.068314433 1.09325 4.5006946e-39
0.086061418 0.070814431 1.0907501 3.7749846e-39
0.086061418 0.070814431 1.09325 3.3179511e-39
0.08356142 0.070814431 1.0957501 2.9412554e-39
0.086061418 0.070814431 1.0957501 2.2055149e-39
0.088561416 0.068314433 1.09325 4.5924979e-39
0.088561416 0.070814431 1.0907501 4.1448377e-39
0.088561416 0.070814431 1.09325 4.1448377e-39
0.091061421 0.068314433 1.09325 4.5042469e-39
0.091061421 0.070814431 1.0907501 2.8537485e-39
0.091061421 0.070814431 1.09325 1.5619209e-39
0.088561416 0.068314433 1.0957501 5.3275462e-39
0.088561416 0.070814431 1.0957501 1.5619209e-39
0.091061421 0.070814431 1.0957501 1.5619209e-39
0.093561418 0.070814431 1.0907501 4.7833729e-39
0.093561418 0.070814431 1.09325 4.6908088e-39
0.096061416 0.070814431 1.09325 1.8482104e-39
0.078561418 0.080814429 1.0707501 3.4090873e-39
0.078561418 0.080814429 1.0732501 3.0392286e-39
0.081061423 0.080814429 1.0707501 3.2246947e-39
0.081061423 0.080814429 1.0732501 3.2250478e-39
0.078561418 0.078314431 1.0757501 2.3935117e-39
0.078561418 0.080814429 1.0757501 2.947033e-39
0.081061423 0.078314431 1.0757501 3.1321333e-39
0.081061423 0.080814429 1.0757501 3.6820799e-39
0.08356142 0.075814433 1.0757501 3.5913136e-39
0.086061418 0.075814433 1.0757501 4.0522917e-39
0.08356142 0.080814429 1.0707501 3.7760551e-39
0.08356142 0.080814429 1.0732501 3.2250478e-39
0.086061418 0.080814429 1.0707501 3.5920226e-39
0.086061418 0.080814429 1.0732501 3.0410167e-39
0.08356142 0.078314431 1.0757501 4.1419706e-39
0.08356142 0.080814429 1.0757501 4.0501239e-39
0.086061418 0.078314431 1.0757501 3.4094404e-39
0.086061418 0.080814429 1.0757501 4.0497736e-39
0.078561418 0.073314428 1.08325 2.8740632e-42
0.078561418 0.075814433 1.0807501 2.3938592e-39
0.078561418 0.075814433 1.08325 2.0254368e-39
0.081061423 0.075814433 1.0807501 1.6566445e-39
0.081061423 0.075814433 1.08325 2.4867639e-39
0.078561418 0.073314428 1.0857501 1.1063476e-39
0.078561418 0.075814433 1.0857501 1.1974866e-39
0.081061423 0.073314428 1.0857501 1.7495464e-39
0.081061423 0.075814433 1.0857501 1.2903885e-39
0.078561418 0.078314431 1.0807501 1.841742e-39
0.078561418 0.078314431 1.08325 2.3938592e-39
0.078561418 0.080814429 1.0807501 2.2126951e-39
0.078561418 0.080814429 1.08325 2.2123448e-39
0.081061423 0.078314431 1.0807501 2.5789595e-39
0.081061423 0.078314431 1.08325 3.0370608e-39
0.081061423 0.080814429 1.0807501 2.9473833e-39
0.081061423 0.080814429 1.08325 2.947033e-39
0.078561418 0.078314431 1.0857501 1.7510079e-39
0.081061423 0.078314431 1.0857501 2.6708048e-39
0.08356142 0.075814433 1.0807501 3.3172448e-39
0.08356142 0.075814433 1.08325 3.2253981e-39
0.086061418 0.075814433 1.0807501 3.4094404e-39
0.08356142 0.073314428 1.0857501 2.6736733e-39
0.08356142 0.075814433 1.0857501 3.2253981e-39
0.086061418 0.073314428 1.0857501 3.1346514e-39
0.086061418 0.075814433 1.0857501 3.041367e-39
0.08356142 0.078314431 1.0807501 3.8679005e-39
0.08356142 0.078314431 1.08325 3.5924024e-39
0.08356142 0.080814429 1.0807501 3.4090873e-39
0.08356142 0.080814429 1.08325 3.3172448e-39
0.086061418 0.078314431 1.0807501 4.0522917e-39
0.086061418 0.078314431 1.08325 4.1444873e-39
0.086061418 0.080814429 1.0807501 2.9484679e-39
0.086061418 0.080814429 1.08325 3.0392286e-39
0.08356142 0.078314431 1.0857501 3.1314242e-39
0.08356142 0.080814429 1.0857501 3.7760551e-39
0.086061418 0.078314431 1.0857501 4.236683e-39
0.086061418 0.080814429 1.0857501 3.8682508e-39
0.078561418 0.083314434 1.0707501 3.0406635e-39
0.078561418 0.083314434 1.0732501 2.9473833e-39
0.078561418 0.085814431 1.0707501 3.2243457e-39
0.078561418 0.085814431 1.0732501 2.9484623e-39
0.081061423 0.083314434 1.0707501 3.2246947e-39
0.081061423 0.083314434 1.0732501 3.4083712e-39
0.081061423 0.085814431 1.0707501 2.9481176e-39
0.081061423 0.085814431 1.0732501 2.9484623e-39
0.078561418 0.083314434 1.0757501 2.6736733e-39
0.078561418 0.085814431 1.0757501 2.9491685e-39
0.081061423 0.083314434 1.0757501 3.3172448e-39
0.081061423 0.085814431 1.0757501 2.9484623e-39
0.078561418 0.088314429 1.0707501 3.2253981e-39
0.078561418 0.088314429 1.0732501 3.7757048e-39
0.078561418 0.090814434 1.0707501 3.3143553e-39
0.078561418 0.090814434 1.0732501 2.9473833e-39
0.081061423 0.088314429 1.0707501 1.6584325e-39
0.081061423 0.088314429 1.0732501 2.2087294e-39
0.081061423 0.090814434 1.0707501 0
0.081061423 0.090814434 1.0732501 0
0.081061423 0.088314429 1.0757501 2.1187016e-39
0.081061423 0.090814434 1.0757501 3.6734198e-40
0.08356142 0.083314434 1.0707501 3.8682508e-39
0.08356142 0.083314434 1.0732501 3.7760551e-39
0.08356142 0.085814431 1.0707501 2.1179828e-39
0.08356142 0.085814431 1.0732501 2.0257829e-39
0.086061418 0.083314434 1.0707501 1.4711644e-39
0.086061418 0.083314434 1.0732501 1.4711644e-39
0.086061418 0.085814431 1.0707501 0
0.086061418 0.085814431 1.0732501 0
0.08356142 0.083314434 1.0757501 3.8679005e-39
0.08356142 0.085814431 1.0757501 1.8410441e-39
0.086061418 0.083314434 1.0757501 1.9317922e-39
0.08356142 0.088314429 1.0707501 0
0.08356142 0.088314429 1.0732501 8.2831313e-40
0.08356142 0.090814434 1.0732501 0
0.086061418 0.088314429 1.0707501 9.1835496e-41
0.086061418 0.088314429 1.0732501 0
0.08356142 0.088314429 1.0757501 8.3225918e-40
0.08356142 0.090814434 1.0757501 0
0.086061418 0.088314429 1.0757501 0
0.086061418 0.090814434 1.0757501 1.9371774e-39
0.078561418 0.083314434 1.0807501 2.5811273e-39
0.081061423 0.083314434 1.0807501 2.9484623e-39
0.081061423 0.083314434 1.08325 3.2246947e-39
0.08356142 0.083314434 1.0807501 2.9491685e-39
0.08356142 0.083314434 1.08325 3.0406635e-39
0.08356142 0.085814431 1.0807501 2.764071e-39
0.086061418 0.083314434 1.0807501 2.9491685e-39
0.086061418 0.085814431 1.08325 0
0.086061418 0.085814431 1.0857501 0
0.08356142 0.088314429 1.0807501 7.361189e-40
0.08356142 0.090814434 1.0807501 0
0.086061418 0.090814434 1.0807501 2.1222749e-39
0.088561416 0.080814429 1.0732501 2.7633522e-39
0.088561416 0.078314431 1.0757501 3.7764013e-39
0.088561416 0.075814433 1.0807501 3.5945408e-39
0.088561416 0.073314428 1.0857501 3.4090873e-39
0.088561416 0.075814433 1.0857501 3.4094404e-39
0.091061421 0.073314428 1.0857501 2.5800287e-39
0.091061421 0.075814433 1.0857501 3.5913136e-39
0.088561416 0.078314431 1.0807501 3.4097908e-39
0.088561416 0.080814429 1.08325 2.0290101e-39
0.088561416 0.078314431 1.0857501 3.5026955e-39
0.088561416 0.080814429 1.0857501 3.9586471e-39
0.091061421 0.078314431 1.0857501 1.6587801e-39
0.088561416 0.083314434 1.0707501 0
0.088561416 0.085814431 1.0757501 6.2678609e-39
0.088561416 0.088314429 1.0757501 9.6780202e-39
0.088561416 0.090814434 1.0757501 5.1536549e-39
0.088561416 0.085814431 1.08325 0
0.091061421 0.085814431 1.0807501 6.6359344e-39
0.091061421 0.085814431 1.08325 6.4515417e-39
0.088561416 0.085814431 1.0857501 0
0.091061421 0.085814431 1.0857501 6.0831137e-39
0.088561416 0.090814434 1.0807501 4.6926809e-39
0.091061421 0.088314429 1.0807501 1.0227957e-38
0.078561418 0.073314428 1.0907501 1.3800674e-39
0.078561418 0.075814433 1.0907501 1.6559466e-39
0.081061423 0.073314428 1.0907501 1.3775366e-39
0.081061423 0.075814433 1.0907501 1.6562941e-39
0.081061423 0.073314428 1.0957501 7.3504691e-40
0.078561418 0.078314431 1.0907501 2.0254368e-39
0.081061423 0.078314431 1.0907501 2.0250809e-39
0.08356142 0.073314428 1.0907501 3.4973201e-39
0.08356142 0.073314428 1.09325 2.9473833e-39
0.08356142 0.075814433 1.0907501 2.947033e-39
0.086061418 0.073314428 1.0907501 3.3172448e-39
0.086061418 0.073314428 1.09325 3.2250478e-39
0.086061418 0.075814433 1.0907501 3.7757048e-39
0.086061418 0.075814433 1.09325 3.0410167e-39
0.08356142 0.073314428 1.0957501 2.395622e-39
0.086061418 0.073314428 1.0957501 3.0367105e-39
0.08356142 0.078314431 1.0907501 3.131427e-39
0.086061418 0.078314431 1.0907501 4.237392e-39
0.086061418 0.078314431 1.09325 3.2246947e-39
0.086061418 0.085814431 1.0907501 1.6537578e-39
0.088561416 0.073314428 1.0907501 4.0522917e-39
0.088561416 0.073314428 1.09325 3.9600961e-39
0.088561416 0.075814433 1.0907501 3.9604464e-39
0.091061421 0.073314428 1.0907501 2.9459442e-39
0.091061421 0.075814433 1.0907501 3.7760551e-39
0.088561416 0.073314428 1.0957501 4.4199854e-39
0.091061421 0.073314428 1.0957501 2.5800287e-39
0.088561416 0.078314431 1.0907501 3.6867364e-39
0.091061421 0.078314431 1.0907501 3.4994683e-39
0.093561418 0.073314428 1.0907501 7.354048e-39
0.093561418 0.075814433 1.0907501 5.3307832e-39
0.091061421 0.075814433 1.1007501 3.3175951e-39
0.093561418 0.073314428 1.1007501 7.0803393e-39
0.056061421 0.093314432 1.0332501 1.6815582e-44
0.056061421 0.095814429 1.0332501 7.286752e-44
0.056061421 0.095814429 1.0382501 2.8025969e-45
0.056061421 0.098314434 1.0332501 3.6734198e-40
0.056061421 0.10081443 1.0332501 0
0.053561419 0.098314434 1.0382501 1.0130373e-38
0.056061421 0.098314434 1.0382501 4.5982628e-39
0.056061421 0.10081443 1.0382501 3.6820799e-39
0.056061421 0.095814429 1.04075 1.6815582e-44
0.053561419 0.098314434 1.04075 1.0774306e-38
0.053561419 0.10081443 1.04075 1.031654e-38
0.053561419 0.10081443 1.0432501 1.0499487e-38
0.056061421 0.098314434 1.04075 5.3333237e-39
0.056061421 0.10081443 1.04075 3.9583389e-39
0.056061421 0.10081443 1.0432501 4.0505345e-39
0.053561419 0.10081443 1.04575 1.0224695e-38
0.056061421 0.10331443 1.0332501 1.751361e-39
0.056061421 0.10331443 1.0382501 8.3901554e-39
0.056061421 0.10581443 1.0382501 1.1241033e-38
0.056061421 0.10831443 1.0382501 1.0043563e-38
0.053561419 0.10331443 1.04075 1.0317241e-38
0.053561419 0.10331443 1.0432501 1.0500903e-38
0.053561419 0.10581443 1.04075 8.5744472e-39
0.053561419 0.10581443 1.0432501 9.034338e-39
0.056061421 0.10331443 1.04075 8.2972508e-39
0.056061421 0.10581443 1.04075 1.1515827e-38
0.053561419 0.10331443 1.04575 1.0042452e-38
0.058561418 0.095814429 1.0332501 3.3631163e-44
0.06106142 0.095814429 1.0332501 2.3017056e-39
0.058561418 0.093314432 1.0382501 0
0.058561418 0.095814429 1.0382501 9.1835496e-41
0.06106142 0.093314432 1.0382501 1.8510592e-40
0.06106142 0.095814429 1.0382501 1.2857096e-39
0.058561418 0.098314434 1.0332501 0
0.058561418 0.10081443 1.0332501 8.4077908e-45
0.06106142 0.098314434 1.0332501 7.5564347e-39
0.06106142 0.10081443 1.0332501 1.2167325e-38
0.058561418 0.098314434 1.0382501 0
0.058561418 0.10081443 1.0382501 0
0.06106142 0.098314434 1.0382501 7.0068623e-39
0.06106142 0.10081443 1.0382501 1.1248936e-38
0.063561417 0.095814429 1.0332501 1.3800674e-39
0.066061422 0.095814429 1.0332501 1.3818779e-39
0.063561417 0.093314432 1.0382501 1.1049407e-39
0.063561417 0.095814429 1.0382501 1.3800674e-39
0.066061422 0.095814429 1.0382501 3.4976886e-39
0.063561417 0.098314434 1.03075 5.8994693e-39
0.063561417 0.098314434 1.0332501 7.8352188e-39
0.063561417 0.10081443 1.03075 1.2993861e-38
0.063561417 0.10081443 1.0332501 1.363923e-38
0.066061422 0.098314434 1.03075 2.5829854e-39
0.066061422 0.098314434 1.0332501 3.0410867e-39
0.066061422 0.10081443 1.03075 1.1340068e-38
0.066061422 0.10081443 1.0332501 1.0877675e-38
0.063561417 0.098314434 1.0382501 1.9335901e-39
0.063561417 0.10081443 1.0382501 1.2073722e-38
0.066061422 0.098314434 1.0382501 2.5789595e-39
0.066061422 0.10081443 1.0382501 1.0879826e-38
0.058561418 0.093314432 1.04075 1.821688e-44
0.058561418 0.093314432 1.0432501 0
0.058561418 0.095814429 1.04075 0
0.06106142 0.093314432 1.0432501 4.6168861e-40
0.06106142 0.095814429 1.04075 7.3863423e-40
0.06106142 0.093314432 1.04575 2.7801762e-40
0.058561418 0.098314434 1.04075 8.1275311e-44
0.063561417 0.095814429 1.04075 2.0254368e-39
0.063561417 0.095814429 1.0432501 1.7481423e-39
0.066061422 0.095814429 1.04075 3.0392286e-39
0.066061422 0.095814429 1.0432501 3.4980389e-39
0.063561417 0.093314432 1.04575 1.3790108e-39
0.066061422 0.093314432 1.04575 3.0367105e-39
0.066061422 0.095814429 1.04575 2.947033e-39
0.058561418 0.10331443 1.0332501 2.4796341e-39
0.06106142 0.10331443 1.0332501 8.940102e-39
0.06106142 0.10581443 1.0332501 7.0962105e-39
0.058561418 0.10331443 1.0382501 1.7517114e-39
0.058561418 0.10581443 1.0382501 1.3270804e-38
0.06106142 0.10331443 1.0382501 1.262076e-38
0.06106142 0.10581443 1.0382501 7.462479e-39
0.058561418 0.10831443 1.0382501 1.1333598e-38
0.06106142 0.10831443 1.0382501 7.3691862e-39
0.063561417 0.10331443 1.03075 1.2904864e-38
0.063561417 0.10331443 1.0332501 7.4634754e-39
0.063561417 0.10581443 1.0332501 9.1835496e-40
0.066061422 0.10331443 1.03075 1.2535038e-38
0.066061422 0.10331443 1.0332501 6.5476498e-39
0.066061422 0.10581443 1.0332501 1.6641708e-39
0.063561417 0.10581443 1.0382501 6.4320721e-40
0.066061422 0.10331443 1.0382501 1.2074779e-38
0.066061422 0.10581443 1.0382501 2.0325848e-39
0.063561417 0.10831443 1.0332501 0
0.066061422 0.10831443 1.0332501 2.8698593e-42
0.066061422 0.11081443 1.0332501 0
0.063561417 0.10831443 1.0382501 0
0.066061422 0.10831443 1.0382501 2.1523944e-42
0.06856142 0.095814429 1.0332501 2.6726167e-39
0.06856142 0.098314434 1.03075 7.3907143e-40
0.06856142 0.098314434 1.0332501 8.2976067e-40
0.06856142 0.10081443 1.03075 5.6051939e-45
0.06856142 0.10081443 1.0332501 0
0.071061417 0.098314434 1.0332501 0
0.071061417 0.10081443 1.0332501 0
0.06856142 0.098314434 1.0382501 1.3819255e-39
0.06856142 0.10081443 1.0382501 9.1853713e-41
0.071061417 0.098314434 1.0382501 0
0.071061417 0.10081443 1.0382501 0
0.073561423 0.098314434 1.0332501 0
0.073561423 0.10081443 1.0332501 1.8582339e-40
0.073561423 0.098314434 1.0382501 0
0.073561423 0.10081443 1.0382501 7.361189e-40
0.07606142 0.098314434 1.0382501 8.3298786e-40
0.06856142 0.095814429 1.04075 3.1314242e-39
0.06856142 0.095814429 1.0432501 3.2239786e-39
0.071061417 0.095814429 1.04075 1.5655278e-39
0.071061417 0.095814429 1.0432501 2.9484623e-39
0.06856142 0.093314432 1.04575 3.3136575e-39
0.06856142 0.095814429 1.04575 2.6733229e-39
0.071061417 0.093314432 1.04575 2.4889289e-39
0.071061417 0.095814429 1.04575 2.9491685e-39
0.06856142 0.098314434 1.04075 2.6718614e-39
0.071061417 0.098314434 1.04075 0
0.071061417 0.098314434 1.0432501 0
0.071061417 0.10081443 1.04075 0
0.071061417 0.10081443 1.0432501 0
0.073561423 0.095814429 1.04075 4.5917748e-40
0.073561423 0.095814429 1.0432501 8.279544e-40
0.07606142 0.095814429 1.04075 0
0.07606142 0.095814429 1.0432501 0
0.073561423 0.095814429 1.04575 1.4733322e-39
0.07606142 0.095814429 1.04575 0
0.073561423 0.098314434 1.04075 0
0.073561423 0.098314434 1.0432501 0
0.073561423 0.10081443 1.04075 8.2831313e-40
0.07606142 0.098314434 1.0432501 5.5712124e-40
0.073561423 0.098314434 1.04575 0
0.073561423 0.10081443 1.04575 8.2867186e-40
0.06856142 0.10331443 1.03075 1.821688e-44
0.06856142 0.10331443 1.0332501 0
0.06856142 0.10581443 1.0332501 0
0.071061417 0.10331443 1.0332501 0
0.06856142 0.10331443 1.0382501 1.8369622e-40
0.06856142 0.10581443 1.0382501 0
0.071061417 0.10331443 1.0382501 0
0.071061417 0.10581443 1.0382501 0
0.06856142 0.10831443 1.0332501 2.8698593e-42
0.06856142 0.11081443 1.0332501 9.5064088e-41
0.06856142 0.10831443 1.0382501 2.1523944e-42
0.071061417 0.10831443 1.0382501 2.8513047e-39
0.073561423 0.10331443 1.0332501 4.2352354e-39
0.073561423 0.10331443 1.0382501 4.6915276e-39
0.071061417 0.10331443 1.04075 0
0.071061417 0.10581443 1.04075 9.5865532e-39
0.071061417 0.10581443 1.0432501 6.5458925e-39
0.073561423 0.10581443 1.04075 1.0965525e-38
0.073561423 0.10581443 1.0432501 9.0265621e-39
0.073561423 0.10331443 1.04575 4.4214246e-39
0.06106142 0.093314432 1.05075 1.1963726e-39
0.06106142 0.093314432 1.0532501 2.1143856e-39
0.06106142 0.095814429 1.05075 1.1041783e-39
0.06106142 0.095814429 1.0532501 6.4392467e-40
0.06106142 0.093314432 1.0557501 1.8388623e-39
0.06106142 0.095814429 1.0557501 1.0123429e-39
0.06106142 0.098314434 1.0557501 1.0130631e-39
0.063561417 0.093314432 1.05075 1.3793611e-39
0.063561417 0.093314432 1.0532501 1.011631e-39
0.063561417 0.095814429 1.05075 1.4715568e-39
0.063561417 0.095814429 1.0532501 2.1179828e-39
0.066061422 0.093314432 1.0532501 1.842856e-39
0.066061422 0.095814429 1.05075 2.7630018e-39
0.066061422 0.095814429 1.0532501 2.1165759e-39
0.063561417 0.093314432 1.0557501 1.0105772e-39
0.063561417 0.095814429 1.0557501 1.7481423e-39
0.066061422 0.093314432 1.0557501 2.301316e-39
0.066061422 0.095814429 1.0557501 2.6697468e-39
0.063561417 0.098314434 1.0557501 2.3895432e-39
0.066061422 0.098314434 1.0557501 2.3023698e-39
0.06106142 0.093314432 1.0607501 1.8439126e-40
0.06106142 0.095814429 1.0607501 4.5992157e-40
0.06106142 0.098314434 1.0607501 7.3469798e-40
0.063561417 0.093314432 1.0607501 1.8404094e-40
0.063561417 0.095814429 1.0607501 1.105291e-39
0.066061422 0.093314432 1.0607501 1.9357579e-39
0.066061422 0.095814429 1.0607501 2.2119987e-39
0.063561417 0.098314434 1.0607501 1.1031204e-39
0.066061422 0.098314434 1.0607501 2.4864135e-39
0.06856142 0.093314432 1.0532501 2.5786092e-39
0.06856142 0.095814429 1.05075 2.947033e-39
0.06856142 0.095814429 1.0532501 2.7630018e-39
0.071061417 0.095814429 1.05075 2.8562667e-39
0.071061417 0.095814429 1.0532501 2.947033e-39
0.06856142 0.093314432 1.0557501 2.5786092e-39
0.06856142 0.095814429 1.0557501 2.947033e-39
0.071061417 0.093314432 1.0557501 2.947033e-39
0.071061417 0.095814429 1.0557501 2.4889289e-39
0.073561423 0.093314432 1.0532501 2.947033e-39
0.073561423 0.095814429 1.05075 1.3818372e-39
0.073561423 0.095814429 1.0532501 2.3967332e-39
0.07606142 0.093314432 1.0532501 3.4976886e-39
0.07606142 0.095814429 1.05075 0
0.07606142 0.095814429 1.0532501 3.7021184e-40
0.073561423 0.093314432 1.0557501 2.6733201e-39
0.073561423 0.095814429 1.0557501 2.947033e-39
0.07606142 0.093314432 1.0557501 3.4076286e-39
0.07606142 0.095814429 1.0557501 2.1179828e-39
0.073561423 0.098314434 1.05075 0
0.073561423 0.10081443 1.05075 0
0.07606142 0.098314434 1.05075 1.5687522e-39
0.07606142 0.098314434 1.0532501 0
0.07606142 0.10081443 1.0532501 4.2427912e-39
0.07606142 0.098314434 1.0557501 0
0.06856142 0.093314432 1.0607501 3.2239786e-39
0.06856142 0.095814429 1.0607501 2.6708048e-39
0.071061417 0.093314432 1.0607501 2.8562667e-39
0.071061417 0.093314432 1.0632501 2.947033e-39
0.071061417 0.095814429 1.0607501 2.3963773e-39
0.073561423 0.093314432 1.0607501 3.1321333e-39
0.073561423 0.093314432 1.0632501 3.0392286e-39
0.073561423 0.095814429 1.0607501 3.0399377e-39
0.07606142 0.093314432 1.0607501 1.3775493e-39
0.07606142 0.093314432 1.0632501 3.4980389e-39
0.07606142 0.095814429 1.0607501 0
0.07606142 0.098314434 1.0607501 0
0.073561423 0.10331443 1.05075 8.2831313e-40
0.078561418 0.093314432 1.0532501 0
0.078561418 0.095814429 1.0532501 0
0.078561418 0.093314432 1.0557501 0
0.078561418 0.095814429 1.0557501 0
0.081061423 0.095814429 1.0557501 6.91288e-39
0.078561418 0.098314434 1.0532501 4.7852325e-39
0.078561418 0.098314434 1.0557501 5.6088919e-39
0.078561418 0.093314432 1.0607501 0
0.078561418 0.093314432 1.0632501 2.1179828e-39
0.078561418 0.095814429 1.0607501 0
0.078561418 0.095814429 1.0632501 0
0.081061423 0.093314432 1.0607501 0
0.081061423 0.093314432 1.0632501 0
0.081061423 0.095814429 1.0607501 6.8206843e-39
0.078561418 0.093314432 1.0657501 5.6051939e-45
0.078561418 0.098314434 1.0607501 6.4284987e-40
0.081061423 0.098314434 1.0607501 1.0408765e-38
0.078561418 0.093314432 1.0707501 2.489282e-39
0.078561418 0.093314432 1.0732501 2.5800259e-39
0.081061423 0.093314432 1.0707501 0
0.081061423 0.093314432 1.0732501 0
