# .PCD v0.7 - Point Cloud Data file format
VERSION 0.7
FIELDS x y z rgb
SIZE 4 4 4 4
TYPE F F F F
COUNT 1 1 1 1
WIDTH 691
HEIGHT 1
VIEWPOINT 0 0 0 1 0 0 0
POINTS 691
DATA ascii
-0.14767668 0.042247374 0.98875004 2.2939776e-38
-0.14767668 0.042247374 0.99125004 2.2939779e-38
-0.14767668 0.044747375 0.98875004 2.3033043e-38
-0.14767668 0.044747375 0.99125004 2.3402201e-38
-0.14517668 0.042247374 0.98625004 2.2943376e-38
-0.14517668 0.039747376 0.98875004 2.321816e-38
-0.14517668 0.039747376 0.99125004 2.3217442e-38
-0.14517668 0.042247374 0.98875004 2.3125246e-38
-0.14517668 0.042247374 0.99125004 2.3217439e-38
-0.14267668 0.039747376 0.98875004 2.349763e-38
-0.14267668 0.039747376 0.99125004 1.9718699e-38
-0.14267668 0.042247374 0.98875004 2.3498346e-38
-0.14267668 0.042247374 0.99125004 2.0364788e-38
-0.14017668 0.042247374 0.99125004 3.6734198e-40
-0.14517668 0.039747376 0.99375004 2.3497261e-38
-0.14517668 0.042247374 0.99375004 2.3497274e-38
-0.14267668 0.039747376 0.99375004 1.9258091e-38
-0.14267668 0.042247374 0.99375004 1.9902027e-38
-0.14517668 0.042247374 0.99875009 2.3496552e-38
-0.14267668 0.042247374 0.99875009 1.93485e-38
-0.14017668 0.039747376 0.99375004 1.8367099e-40
-0.14017668 0.042247374 0.99375004 1.8367099e-40
-0.13767669 0.039747376 0.99375004 1.7517142e-39
-0.13767669 0.042247374 0.99375004 2.1197764e-39
-0.14017668 0.042247374 0.99875009 0
-0.13767669 0.042247374 0.99875009 1.8439126e-39
-0.13517667 0.042247374 0.99875009 3.1296151e-39
-0.13517667 0.042247374 1.00125 2.8523192e-39
-0.13267668 0.042247374 0.99875009 2.3020139e-39
-0.13267668 0.042247374 1.00125 2.667558e-39
-0.13017668 0.042247374 0.99875009 2.1179828e-39
-0.13017668 0.042247374 1.00125 2.1143856e-39
-0.12767668 0.042247374 0.99875009 2.118689e-39
-0.12767668 0.042247374 1.00125 6.4285968e-40
-0.12017668 0.039747376 0.99125004 2.349438e-38
-0.12017668 0.042247374 0.99125004 2.3493305e-38
-0.11767668 0.042247374 0.98875004 2.3495831e-38
-0.11767668 0.042247374 0.99125004 2.3496192e-38
-0.12517668 0.042247374 0.99375004 3.7652553e-39
-0.12267668 0.042247374 0.99375004 1.9285454e-39
-0.12517668 0.042247374 0.99875009 3.1224069e-39
-0.12517668 0.042247374 1.00125 2.2958874e-39
-0.12267668 0.042247374 0.99875009 1.1687931e-38
-0.12267668 0.042247374 1.00125 1.2148905e-38
-0.12017668 0.039747376 0.99375004 2.3495452e-38
-0.12017668 0.042247374 0.99375004 2.3495094e-38
-0.11767668 0.039747376 0.99375004 2.3495831e-38
-0.11767668 0.042247374 0.99375004 2.3496551e-38
-0.12017668 0.042247374 0.99875009 2.349437e-38
-0.12017668 0.042247374 1.00125 2.349617e-38
-0.11517668 0.042247374 0.98875004 2.2939776e-38
-0.11517668 0.042247374 0.99125004 2.3032694e-38
-0.14517668 0.044747375 0.98625004 2.3126691e-38
-0.14517668 0.044747375 0.98875004 2.3217436e-38
-0.14517668 0.044747375 0.99125004 2.312524e-38
-0.14267668 0.044747375 0.98875004 2.3498347e-38
-0.14267668 0.044747375 0.99125004 2.0917956e-38
-0.14267668 0.047247376 0.99125004 2.1195266e-38
-0.14017668 0.044747375 0.99125004 1.8367099e-40
-0.14517668 0.044747375 0.99375004 2.3497994e-38
-0.14517668 0.047247376 0.99375004 2.3498716e-38
-0.14267668 0.044747375 0.99375004 2.0456633e-38
-0.14267668 0.047247376 0.99375004 2.1010876e-38
-0.14517668 0.044747375 0.99875009 2.349835e-38
-0.14517668 0.047247376 0.99875009 2.3498347e-38
-0.14517668 0.047247376 1.00125 2.3498705e-38
-0.14267668 0.044747375 0.99875009 2.0642095e-38
-0.14267668 0.047247376 0.99875009 2.0919406e-38
-0.14267668 0.047247376 1.00125 2.1287467e-38
-0.14267668 0.049747374 0.99875009 2.1840991e-38
-0.14267668 0.049747374 1.00125 2.1749874e-38
-0.14267668 0.052247375 1.00125 2.1933905e-38
-0.14017668 0.044747375 0.99375004 1.8367099e-40
-0.14017668 0.047247376 0.99375004 9.1835496e-41
-0.13767669 0.044747375 0.99375004 2.1208554e-39
-0.13767669 0.047247376 0.99375004 2.0283039e-39
-0.14017668 0.044747375 0.99875009 0
-0.14017668 0.047247376 0.99875009 0
-0.14017668 0.047247376 1.00125 0
-0.13767669 0.044747375 0.99875009 2.1204995e-39
-0.13767669 0.047247376 0.99875009 1.8439126e-39
-0.13767669 0.047247376 1.00125 1.5673257e-39
-0.14017668 0.049747374 0.99875009 2.848694e-39
-0.14017668 0.049747374 1.00125 0
-0.14017668 0.052247375 0.99875009 0
-0.14017668 0.052247375 1.00125 0
-0.13767669 0.049747374 1.00125 9.2267937e-40
-0.13767669 0.052247375 1.00125 4.6170122e-40
-0.14267668 0.054747377 1.00125 2.2027536e-38
-0.14267668 0.057247374 1.00125 2.2302692e-38
-0.14267668 0.059747376 0.99875009 2.2578919e-38
-0.14267668 0.059747376 1.00125 2.2303414e-38
-0.14267668 0.062247373 0.99875009 2.2578556e-38
-0.14267668 0.062247373 1.00125 2.221086e-38
-0.14017668 0.054747377 0.99875009 1.821688e-44
-0.14017668 0.054747377 1.00125 0
-0.14017668 0.057247374 1.00125 1.821688e-44
-0.13767669 0.054747377 1.00125 3.5032462e-44
-0.14017668 0.059747376 0.99875009 1.2345563e-38
-0.14017668 0.059747376 1.00125 8.265573e-40
-0.14017668 0.062247373 0.99875009 1.3358993e-38
-0.14017668 0.062247373 1.00125 1.8371583e-40
-0.13767669 0.059747376 1.00125 3.5032462e-44
-0.13767669 0.062247373 1.00125 3.2229865e-44
-0.13517667 0.044747375 0.99875009 2.7590488e-39
-0.13517667 0.044747375 1.00125 2.7590544e-39
-0.13517667 0.047247376 0.99875009 2.9445148e-39
-0.13517667 0.047247376 1.00125 2.85125e-39
-0.13267668 0.044747375 0.99875009 2.1179828e-39
-0.13267668 0.044747375 1.00125 2.1176324e-39
-0.13267668 0.047247376 0.99875009 2.759755e-39
-0.13267668 0.047247376 1.00125 2.3016636e-39
-0.13267668 0.049747374 1.00125 2.4835269e-39
-0.13017668 0.044747375 0.99875009 2.0257857e-39
-0.13017668 0.044747375 1.00125 2.1176324e-39
-0.13017668 0.047247376 0.99875009 2.3020139e-39
-0.13017668 0.047247376 1.00125 2.8526695e-39
-0.12767668 0.044747375 0.99875009 2.759755e-39
-0.12767668 0.047247376 0.99875009 3.037767e-39
-0.12767668 0.047247376 1.00125 2.8526695e-39
-0.13017668 0.049747374 1.00125 2.8533758e-39
-0.13017668 0.052247375 1.00125 3.037767e-39
-0.12767668 0.049747374 1.00125 2.8533758e-39
-0.12767668 0.052247375 1.00125 2.9437988e-39
-0.12767668 0.054747377 1.00125 2.8519507e-39
-0.14267668 0.064747378 1.00125 2.2210862e-38
-0.14267668 0.067247376 1.00125 2.2117228e-38
-0.14017668 0.064747378 1.00125 1.3175691e-38
-0.14017668 0.067247376 1.00125 1.4741577e-38
-0.12017668 0.044747375 0.99125004 2.3492582e-38
-0.12017668 0.047247376 0.99125004 2.349079e-38
-0.11767668 0.044747375 0.98875004 2.3496192e-38
-0.11767668 0.044747375 0.99125004 2.3496192e-38
-0.11767668 0.047247376 0.99125004 2.3495463e-38
-0.12017668 0.049747374 0.99125004 2.3488272e-38
-0.11767668 0.049747374 0.99125004 2.3494753e-38
-0.12517668 0.044747375 0.99375004 3.397919e-39
-0.12267668 0.044747375 0.99375004 1.4693679e-39
-0.12267668 0.047247376 0.99375004 1.8367099e-40
-0.12517668 0.044747375 0.99875009 3.2142438e-39
-0.12517668 0.047247376 0.99875009 2.2958972e-39
-0.12517668 0.047247376 1.00125 3.214255e-39
-0.12267668 0.044747375 0.99875009 1.3775324e-39
-0.12267668 0.047247376 0.99875009 3.6734198e-40
-0.12267668 0.049747374 0.99375004 0
-0.12517668 0.049747374 0.99875009 2.1122248e-39
-0.12517668 0.049747374 1.00125 2.6643224e-39
-0.12517668 0.052247375 0.99875009 3.03453e-39
-0.12517668 0.052247375 1.00125 2.5731932e-39
-0.12267668 0.049747374 0.99875009 0
-0.12267668 0.052247375 0.99875009 9.3697331e-39
-0.12267668 0.052247375 1.00125 0
-0.12017668 0.044747375 0.99375004 2.3494729e-38
-0.12017668 0.047247376 0.99375004 9.6556835e-39
-0.11767668 0.044747375 0.99375004 2.3496184e-38
-0.11767668 0.047247376 0.99375004 2.3496194e-38
-0.12017668 0.049747374 0.99375004 2.3488987e-38
-0.12017668 0.052247375 0.99375004 2.3486816e-38
-0.11767668 0.049747374 0.99375004 2.3495832e-38
-0.11767668 0.052247375 0.99375004 2.3494753e-38
-0.12017668 0.052247375 0.99875009 2.3482866e-38
-0.11767668 0.052247375 0.99875009 2.3494027e-38
-0.12517668 0.054747377 1.00125 3.03453e-39
-0.12517668 0.057247374 1.00125 2.3909725e-39
-0.12267668 0.054747377 0.99875009 8.0815237e-39
-0.12267668 0.054747377 1.00125 0
-0.12267668 0.057247374 0.99875009 6.7958267e-39
-0.12267668 0.057247374 1.00125 7.1631687e-39
-0.12517668 0.059747376 1.00125 3.1289061e-39
-0.12267668 0.059747376 1.00125 0
-0.12017668 0.054747377 0.99375004 2.3481438e-38
-0.11767668 0.054747377 0.99375004 2.3402186e-38
-0.12017668 0.054747377 0.99875009 2.3479269e-38
-0.12017668 0.057247374 0.99875009 2.347639e-38
-0.12017668 0.057247374 1.00125 2.347891e-38
-0.11767668 0.054747377 0.99875009 2.3494386e-38
-0.11767668 0.057247374 0.99875009 2.3494386e-38
-0.11767668 0.057247374 1.00125 2.3494747e-38
-0.12017668 0.059747376 0.99875009 2.2556235e-38
-0.12017668 0.059747376 1.00125 2.2832834e-38
-0.11767668 0.059747376 0.99875009 2.3494023e-38
-0.11767668 0.059747376 1.00125 2.3494029e-38
-0.11517668 0.044747375 0.98875004 2.2848662e-38
-0.11517668 0.044747375 0.99125004 2.2849382e-38
-0.11517668 0.047247376 0.99125004 2.2849015e-38
-0.11517668 0.054747377 0.99875009 2.3400751e-38
-0.11517668 0.057247374 0.99875009 2.3492947e-38
-0.14517668 0.047247376 1.0037501 2.3497994e-38
-0.14517668 0.047247376 1.00625 2.3497631e-38
-0.14267668 0.047247376 1.0037501 1.8367099e-40
-0.14517668 0.049747374 1.0037501 2.349763e-38
-0.14517668 0.049747374 1.00625 2.3498349e-38
-0.14267668 0.049747374 1.0037501 1.9285454e-39
-0.14267668 0.049747374 1.00625 2.7561411e-39
-0.14267668 0.052247375 1.0037501 4.0476044e-39
-0.14267668 0.052247375 1.00625 3.586622e-39
-0.14517668 0.049747374 1.0087501 2.3497994e-38
-0.14517668 0.052247375 1.0087501 2.1749874e-38
-0.14267668 0.052247375 1.0087501 3.9557619e-39
-0.14017668 0.047247376 1.0037501 0
-0.13767669 0.047247376 1.0037501 2.9434456e-39
-0.14017668 0.049747374 1.0037501 0
-0.14017668 0.049747374 1.00625 0
-0.14017668 0.052247375 1.0037501 0
-0.14017668 0.052247375 1.00625 0
-0.13767669 0.049747374 1.0037501 2.0250865e-39
-0.13767669 0.049747374 1.00625 8.3048654e-40
-0.13767669 0.052247375 1.0037501 2.0250865e-39
-0.13767669 0.052247375 1.00625 4.6062222e-40
-0.14267668 0.052247375 1.0137501 4.5085783e-39
-0.14267668 0.054747377 1.0037501 8.2889551e-39
-0.14267668 0.054747377 1.00625 2.2210495e-38
-0.14267668 0.057247374 1.0037501 9.4882241e-39
-0.14267668 0.057247374 1.00625 9.2116344e-39
-0.14517668 0.054747377 1.0087501 2.1749874e-38
-0.14267668 0.054747377 1.0087501 6.3524909e-39
-0.14267668 0.059747376 1.0037501 1.2344488e-38
-0.14267668 0.059747376 1.00625 1.1147021e-38
-0.14267668 0.062247373 1.0037501 1.3266087e-38
-0.14017668 0.054747377 1.0037501 0
-0.14017668 0.054747377 1.00625 0
-0.14017668 0.057247374 1.0037501 0
-0.14017668 0.057247374 1.00625 0
-0.13767669 0.054747377 1.0037501 2.1158514e-39
-0.13767669 0.054747377 1.00625 2.8025969e-45
-0.13767669 0.057247374 1.0037501 1.8410441e-39
-0.13767669 0.057247374 1.00625 7.0064923e-45
-0.14017668 0.059747376 1.0037501 3.6737421e-40
-0.14017668 0.059747376 1.00625 0
-0.14017668 0.062247373 1.0037501 1.2857474e-39
-0.13767669 0.059747376 1.0037501 1.3800674e-39
-0.13767669 0.059747376 1.00625 1.2878704e-39
-0.13767669 0.062247373 1.0037501 1.1960251e-39
-0.13767669 0.062247373 1.00625 1.1031204e-39
-0.14517668 0.054747377 1.0137501 2.175059e-38
-0.14267668 0.054747377 1.0137501 8.4733435e-39
-0.13517667 0.047247376 1.0037501 2.3016636e-39
-0.13517667 0.049747374 1.0037501 2.1172821e-39
-0.13517667 0.052247375 1.0037501 2.1172821e-39
-0.13267668 0.049747374 1.0037501 2.3016636e-39
-0.13267668 0.052247375 1.0037501 2.1179828e-39
-0.13017668 0.049747374 1.0037501 2.1179828e-39
-0.13017668 0.052247375 1.0037501 2.7604613e-39
-0.12767668 0.052247375 1.0037501 2.8526569e-39
-0.13517667 0.054747377 1.0037501 2.2080484e-39
-0.13517667 0.057247374 1.0037501 1.8410441e-39
-0.13517667 0.057247374 1.00625 1.6559466e-39
-0.13267668 0.054747377 1.0037501 2.4828206e-39
-0.13267668 0.057247374 1.0037501 2.4835269e-39
-0.13517667 0.059747376 1.0037501 1.7484898e-39
-0.13517667 0.059747376 1.00625 2.0257857e-39
-0.13517667 0.062247373 1.0037501 1.8413945e-39
-0.13517667 0.062247373 1.00625 2.0257857e-39
-0.13267668 0.059747376 1.0037501 2.2987769e-39
-0.13267668 0.062247373 1.0037501 1.3804163e-39
-0.13267668 0.062247373 1.00625 2.0257857e-39
-0.13017668 0.054747377 1.0037501 3.218215e-39
-0.13017668 0.057247374 1.0037501 2.7590488e-39
-0.12767668 0.054747377 1.0037501 3.4026063e-39
-0.12767668 0.057247374 1.0037501 2.9437988e-39
-0.13017668 0.059747376 1.0037501 2.6668531e-39
-0.13017668 0.062247373 1.0037501 2.7565306e-39
-0.13017668 0.062247373 1.00625 2.667558e-39
-0.12767668 0.059747376 1.0037501 2.8516031e-39
-0.12767668 0.059747376 1.00625 2.9441463e-39
-0.12767668 0.062247373 1.00625 3.0334777e-39
-0.14517668 0.064747378 1.0037501 2.3495469e-38
-0.14267668 0.064747378 1.0037501 1.3819261e-38
-0.14267668 0.064747378 1.00625 1.4004007e-38
-0.14267668 0.067247376 1.0037501 1.4188047e-38
-0.14267668 0.067247376 1.00625 1.4371713e-38
-0.14517668 0.064747378 1.0087501 2.2393457e-38
-0.14517668 0.067247376 1.0087501 2.2668599e-38
-0.14267668 0.064747378 1.0087501 1.3819264e-38
-0.14267668 0.067247376 1.0087501 1.4280602e-38
-0.14517668 0.069747373 1.0087501 2.2577481e-38
-0.14267668 0.069747373 1.0087501 1.5294025e-38
-0.14267668 0.072247371 1.0087501 1.5386941e-38
-0.14017668 0.064747378 1.0037501 2.0204314e-39
-0.14017668 0.064747378 1.00625 2.5714598e-39
-0.14017668 0.067247376 1.0037501 4.687995e-39
-0.14017668 0.067247376 1.00625 4.7787613e-39
-0.13767669 0.064747378 1.0037501 9.1856516e-41
-0.13767669 0.064747378 1.00625 1.011631e-39
-0.13767669 0.067247376 1.0037501 9.1837598e-40
-0.13767669 0.067247376 1.00625 7.3469798e-40
-0.14017668 0.067247376 1.0087501 5.5102839e-40
-0.13767669 0.067247376 1.0087501 6.4284847e-40
-0.14017668 0.069747373 1.00625 6.9943445e-39
-0.14017668 0.072247371 1.00625 9.5782842e-39
-0.13767669 0.069747373 1.00625 4.5921672e-40
-0.13767669 0.072247371 1.00625 9.1835496e-41
-0.14017668 0.069747373 1.0087501 1.0102325e-39
-0.14017668 0.072247371 1.0087501 0
-0.13767669 0.069747373 1.0087501 3.6734899e-40
-0.13767669 0.072247371 1.0087501 0
-0.14517668 0.064747378 1.0137501 2.2302692e-38
-0.14517668 0.067247376 1.0137501 2.2486007e-38
-0.14517668 0.067247376 1.01625 2.2301259e-38
-0.14267668 0.067247376 1.0137501 1.4741577e-38
-0.14517668 0.069747373 1.0137501 2.2577481e-38
-0.14517668 0.069747373 1.01625 2.239381e-38
-0.14517668 0.072247371 1.0137501 2.2762947e-38
-0.14517668 0.072247371 1.01625 2.2578922e-38
-0.14267668 0.069747373 1.0137501 1.5294392e-38
-0.14267668 0.072247371 1.0137501 1.5479495e-38
-0.14267668 0.072247371 1.01625 1.5662452e-38
-0.14517668 0.072247371 1.0187501 2.2761152e-38
-0.14017668 0.069747373 1.0137501 5.5104801e-40
-0.14017668 0.072247371 1.0137501 9.1835496e-41
-0.13767669 0.069747373 1.0137501 5.6051939e-45
-0.13767669 0.072247371 1.0137501 1.8367099e-40
-0.14517668 0.074747376 1.0137501 2.2761147e-38
-0.14517668 0.074747376 1.01625 2.2761149e-38
-0.14267668 0.074747376 1.0137501 1.5754637e-38
-0.14267668 0.074747376 1.01625 1.1238879e-38
-0.14267668 0.077247374 1.0137501 1.5939041e-38
-0.14267668 0.077247374 1.01625 1.1793134e-38
-0.14517668 0.074747376 1.0187501 2.2301615e-38
-0.14267668 0.079747371 1.0137501 1.7138659e-38
-0.14267668 0.079747371 1.01625 1.234738e-38
-0.14267668 0.082247376 1.01625 1.3271855e-38
-0.14267668 0.079747371 1.0187501 1.6401822e-38
-0.14267668 0.082247376 1.0187501 1.2904514e-38
-0.14017668 0.074747376 1.0137501 3.6735039e-40
-0.14017668 0.074747376 1.01625 0
-0.14017668 0.077247374 1.0137501 1.2345933e-38
-0.14017668 0.077247374 1.01625 0
-0.13767669 0.074747376 1.0137501 0
-0.13767669 0.074747376 1.01625 0
-0.13767669 0.077247374 1.01625 0
-0.13767669 0.077247374 1.0187501 0
-0.14017668 0.079747371 1.0137501 1.3452999e-38
-0.14017668 0.079747371 1.01625 0
-0.14017668 0.082247376 1.01625 0
-0.13767669 0.079747371 1.01625 0
-0.13767669 0.082247376 1.01625 0
-0.14017668 0.079747371 1.0187501 0
-0.14017668 0.082247376 1.0187501 0
-0.13767669 0.079747371 1.0187501 0
-0.13767669 0.082247376 1.0187501 1.8431937e-39
-0.13767669 0.082247376 1.02125 1.8431909e-39
-0.13517667 0.064747378 1.0037501 1.8413945e-39
-0.13517667 0.064747378 1.00625 1.3804135e-39
-0.13517667 0.067247376 1.0037501 1.749196e-39
-0.13517667 0.067247376 1.00625 2.0254368e-39
-0.13267668 0.064747378 1.0037501 1.8413945e-39
-0.13267668 0.064747378 1.00625 2.2065813e-39
-0.13267668 0.067247376 1.00625 1.4726133e-39
-0.13517667 0.064747378 1.0087501 1.8410441e-39
-0.13517667 0.067247376 1.0087501 1.8413917e-39
-0.13267668 0.067247376 1.0087501 1.6566445e-39
-0.13517667 0.069747373 1.0087501 2.1176324e-39
-0.13517667 0.072247371 1.0087501 2.0257829e-39
-0.13267668 0.069747373 1.0087501 8.2976067e-40
-0.13267668 0.072247371 1.0087501 1.6566445e-39
-0.13017668 0.064747378 1.0037501 1.8413945e-39
-0.13017668 0.064747378 1.00625 3.0338238e-39
-0.13017668 0.067247376 1.00625 2.8519507e-39
-0.12767668 0.064747378 1.00625 3.0338238e-39
-0.12767668 0.067247376 1.00625 3.218215e-39
-0.13017668 0.064747378 1.0087501 3.1267397e-39
-0.13017668 0.067247376 1.0087501 2.8519507e-39
-0.12767668 0.064747378 1.0087501 2.9445148e-39
-0.12767668 0.067247376 1.0087501 2.9445148e-39
-0.13017668 0.069747373 1.0087501 1.8413945e-39
-0.12767668 0.069747373 1.0087501 2.3945682e-39
-0.13517667 0.069747373 1.0137501 1.9332398e-39
-0.13517667 0.072247371 1.0137501 1.7491988e-39
-0.13267668 0.069747373 1.0137501 1.7484898e-39
-0.13267668 0.072247371 1.0137501 1.1960251e-39
-0.13017668 0.067247376 1.0137501 3.1267397e-39
-0.12767668 0.067247376 1.0137501 3.3097044e-39
-0.13017668 0.069747373 1.0137501 1.7484898e-39
-0.13017668 0.072247371 1.0137501 2.1179828e-39
-0.12767668 0.069747373 1.0137501 3.1289061e-39
-0.12767668 0.072247371 1.0137501 3.0367105e-39
-0.13517667 0.074747376 1.0137501 1.7491988e-39
-0.13517667 0.074747376 1.01625 2.2987769e-39
-0.13517667 0.077247374 1.01625 1.7484898e-39
-0.13267668 0.074747376 1.0137501 1.4726133e-39
-0.13267668 0.074747376 1.01625 2.2987769e-39
-0.13267668 0.077247374 1.0137501 1.8413945e-39
-0.13267668 0.077247374 1.01625 2.0254368e-39
-0.13517667 0.079747371 1.01625 1.8413945e-39
-0.13517667 0.082247376 1.01625 2.0250809e-39
-0.13267668 0.079747371 1.01625 1.8413945e-39
-0.13267668 0.082247376 1.01625 1.8410441e-39
-0.13517667 0.082247376 1.0187501 2.0257829e-39
-0.13267668 0.082247376 1.0187501 1.9335873e-39
-0.13017668 0.074747376 1.0137501 1.8413945e-39
-0.13017668 0.074747376 1.01625 2.6689859e-39
-0.13017668 0.077247374 1.0137501 2.9416282e-39
-0.13017668 0.077247374 1.01625 2.6679055e-39
-0.12767668 0.074747376 1.0137501 3.1289061e-39
-0.12767668 0.074747376 1.01625 4.1351491e-39
-0.12767668 0.077247374 1.0137501 2.9437988e-39
-0.12767668 0.077247374 1.01625 3.0367105e-39
-0.13017668 0.079747371 1.01625 2.7604613e-39
-0.13017668 0.082247376 1.01625 2.8526569e-39
-0.12767668 0.079747371 1.0137501 2.7590488e-39
-0.12767668 0.079747371 1.01625 3.6795631e-39
-0.12767668 0.082247376 1.01625 2.9445148e-39
-0.13017668 0.082247376 1.0187501 2.6679055e-39
-0.12767668 0.082247376 1.0187501 3.2218122e-39
-0.12517668 0.059747376 1.0037501 1.4012985e-45
-0.12517668 0.062247373 1.00625 9.1848108e-41
-0.12267668 0.059747376 1.0037501 5.7856363e-39
-0.12267668 0.062247373 1.00625 4.3162683e-39
-0.12267668 0.062247373 1.0087501 5.6938008e-39
-0.12017668 0.059747376 1.0037501 2.1913026e-38
-0.12017668 0.062247373 1.00625 2.3309985e-38
-0.11767668 0.059747376 1.0037501 2.3494742e-38
-0.12017668 0.062247373 1.0087501 2.1453127e-38
-0.12517668 0.064747378 1.00625 2.7590544e-39
-0.12517668 0.067247376 1.00625 2.9434456e-39
-0.12517668 0.064747378 1.0087501 7.3469658e-40
-0.12517668 0.067247376 1.0087501 1.0102073e-39
-0.12267668 0.064747378 1.0087501 4.2244328e-39
-0.12267668 0.067247376 1.0087501 4.3162683e-39
-0.12017668 0.064747378 1.0087501 2.2849009e-38
-0.12017668 0.067247376 1.0087501 1.9706092e-38
-0.12017668 0.072247371 1.0087501 2.1743005e-38
-0.11767668 0.072247371 1.0087501 2.3497243e-38
-0.12517668 0.067247376 1.0137501 1.1938755e-39
-0.12267668 0.067247376 1.0137501 1.8878133e-38
-0.12517668 0.069747373 1.0137501 1.7459716e-39
-0.12517668 0.072247371 1.0137501 1.1938755e-39
-0.12517668 0.072247371 1.01625 1.5612174e-39
-0.12267668 0.069747373 1.0137501 1.8783417e-38
-0.12267668 0.072247371 1.0137501 1.8691221e-38
-0.12017668 0.067247376 1.0137501 2.2388754e-38
-0.11767668 0.067247376 1.0137501 2.3218155e-38
-0.12017668 0.069747373 1.0137501 2.2479854e-38
-0.12017668 0.072247371 1.0137501 2.1464999e-38
-0.11767668 0.069747373 1.0137501 2.3494006e-38
-0.11767668 0.072247371 1.0137501 2.3493303e-38
-0.12017668 0.074747376 1.0087501 2.1005093e-38
-0.11767668 0.074747376 1.0087501 2.3495095e-38
-0.12517668 0.074747376 1.0137501 9.1836337e-40
-0.12517668 0.074747376 1.01625 2.6632476e-39
-0.12517668 0.077247374 1.0137501 1.3775493e-39
-0.12267668 0.074747376 1.0137501 1.8047293e-38
-0.12267668 0.074747376 1.01625 3.8570908e-39
-0.12267668 0.077247374 1.0137501 1.7587394e-38
-0.12517668 0.079747371 1.0137501 8.2652787e-40
-0.12517668 0.079747371 1.01625 1.0101947e-39
-0.12517668 0.082247376 1.01625 9.1835496e-41
-0.12267668 0.079747371 1.0137501 1.7126416e-38
-0.12267668 0.079747371 1.01625 4.0407618e-39
-0.12267668 0.082247376 1.0137501 1.7122804e-38
-0.12267668 0.082247376 1.01625 1.6755466e-38
-0.12267668 0.082247376 1.0187501 1.6297356e-38
-0.12017668 0.074747376 1.0137501 2.1003668e-38
-0.12017668 0.077247374 1.0137501 2.0543749e-38
-0.11767668 0.074747376 1.0137501 2.349439e-38
-0.11767668 0.077247374 1.0137501 2.3494369e-38
-0.12017668 0.079747371 1.0137501 1.9160475e-38
-0.12017668 0.082247376 1.0137501 1.8792051e-38
-0.12017668 0.082247376 1.01625 1.9343423e-38
-0.11767668 0.079747371 1.0137501 2.3493666e-38
-0.12017668 0.082247376 1.0187501 1.9344857e-38
-0.11517668 0.074747376 1.0137501 2.2850824e-38
-0.14267668 0.084747374 1.01625 1.4007256e-38
-0.14267668 0.087247372 1.01625 1.3273654e-38
-0.14267668 0.084747374 1.0187501 1.382251e-38
-0.14267668 0.087247372 1.0187501 1.4375328e-38
-0.14267668 0.089747377 1.0187501 1.4928502e-38
-0.14267668 0.089747377 1.02125 1.4836306e-38
-0.14267668 0.092247374 1.0187501 1.5204013e-38
-0.14267668 0.092247374 1.02125 1.520401e-38
-0.14017668 0.084747374 1.01625 0
-0.14017668 0.087247372 1.01625 0
-0.13767669 0.084747374 1.01625 0
-0.13767669 0.087247372 1.01625 0
-0.14017668 0.084747374 1.0187501 0
-0.14017668 0.087247372 1.0187501 0
-0.14017668 0.087247372 1.02125 0
-0.13767669 0.084747374 1.0187501 1.8428378e-39
-0.13767669 0.084747374 1.02125 0
-0.13767669 0.087247372 1.0187501 0
-0.13767669 0.087247372 1.02125 1.6584423e-39
-0.14017668 0.089747377 1.0187501 0
-0.14017668 0.089747377 1.02125 0
-0.14017668 0.092247374 1.0187501 0
-0.14017668 0.092247374 1.02125 0
-0.13767669 0.089747377 1.0187501 0
-0.13767669 0.089747377 1.02125 1.1985432e-39
-0.13767669 0.092247374 1.02125 0
-0.14267668 0.094747372 1.0187501 1.4836309e-38
-0.14267668 0.094747372 1.02125 1.520401e-38
-0.14267668 0.097247377 1.02125 1.6401471e-38
-0.14267668 0.099747375 1.02125 1.649402e-38
-0.14267668 0.10224737 1.02125 1.6954638e-38
-0.14017668 0.094747372 1.0187501 0
-0.14017668 0.094747372 1.02125 0
-0.14017668 0.097247377 1.02125 0
-0.13767669 0.094747372 1.02125 0
-0.13767669 0.097247377 1.02125 0
-0.14017668 0.099747375 1.02125 0
-0.14017668 0.10224737 1.02125 0
-0.13517667 0.084747374 1.0187501 2.0257829e-39
-0.13517667 0.087247372 1.0187501 2.4828206e-39
-0.13517667 0.087247372 1.02125 1.8413945e-39
-0.13267668 0.084747374 1.0187501 1.9335873e-39
-0.13267668 0.087247372 1.0187501 1.9335901e-39
-0.13517667 0.089747377 1.02125 1.8413945e-39
-0.13517667 0.092247374 1.02125 1.7484898e-39
-0.13267668 0.089747377 1.02125 2.4835269e-39
-0.13267668 0.092247374 1.02125 2.4835269e-39
-0.13017668 0.084747374 1.01625 3.0363419e-39
-0.12767668 0.084747374 1.01625 3.1289061e-39
-0.13017668 0.084747374 1.0187501 2.8519507e-39
-0.13017668 0.087247372 1.0187501 2.8519507e-39
-0.12767668 0.084747374 1.0187501 2.9437988e-39
-0.12767668 0.087247372 1.0187501 2.9437988e-39
-0.12767668 0.087247372 1.02125 2.7590488e-39
-0.13017668 0.089747377 1.0187501 2.8519507e-39
-0.13017668 0.089747377 1.02125 2.759755e-39
-0.13017668 0.092247374 1.02125 2.759755e-39
-0.12767668 0.089747377 1.02125 2.8516031e-39
-0.12767668 0.092247374 1.02125 2.9445148e-39
-0.13267668 0.094747372 1.02125 3.0338238e-39
-0.13017668 0.094747372 1.02125 3.0338238e-39
-0.12767668 0.094747372 1.02125 3.218215e-39
-0.14267668 0.089747377 1.0237501 1.4654792e-38
-0.14267668 0.092247374 1.0237501 1.5205449e-38
-0.14017668 0.089747377 1.0237501 0
-0.14017668 0.092247374 1.0237501 0
-0.13767669 0.089747377 1.0237501 9.219591e-40
-0.13767669 0.092247374 1.0237501 1.7509967e-39
-0.14267668 0.094747372 1.0237501 1.5388761e-38
-0.14267668 0.097247377 1.0287501 0
-0.14267668 0.099747375 1.0237501 1.6493667e-38
-0.14267668 0.10224737 1.0237501 1.6955361e-38
-0.14267668 0.099747375 1.0287501 0
-0.14267668 0.10224737 1.0287501 0
-0.14267668 0.10224737 1.0312501 1.6404341e-38
-0.14017668 0.094747372 1.0237501 0
-0.14017668 0.097247377 1.0237501 0
-0.13767669 0.094747372 1.0237501 1.8428378e-39
-0.13767669 0.097247377 1.0237501 2.1183387e-39
-0.14017668 0.097247377 1.0287501 0
-0.13767669 0.097247377 1.0287501 1.9353894e-39
-0.14017668 0.099747375 1.0237501 0
-0.14017668 0.10224737 1.0237501 1.8367099e-40
-0.13767669 0.099747375 1.0237501 2.2116161e-39
-0.14017668 0.099747375 1.0287501 0
-0.14017668 0.10224737 1.0287501 0
-0.14017668 0.10224737 1.0312501 0
-0.13767669 0.099747375 1.0287501 1.9353866e-39
-0.13767669 0.10224737 1.0287501 1.1985432e-39
-0.13767669 0.10224737 1.0312501 1.8431937e-39
-0.13517667 0.089747377 1.0237501 2.0254368e-39
-0.13517667 0.092247374 1.0237501 2.0257829e-39
-0.13267668 0.092247374 1.0237501 2.4817416e-39
-0.13017668 0.092247374 1.0237501 2.7583299e-39
-0.13517667 0.094747372 1.0237501 2.4835269e-39
-0.13517667 0.097247377 1.0237501 2.7590488e-39
-0.13267668 0.094747372 1.0237501 2.6650413e-39
-0.13267668 0.097247377 1.0237501 2.6679055e-39
-0.13517667 0.097247377 1.0287501 2.7590488e-39
-0.13267668 0.099747375 1.0237501 2.1179828e-39
-0.13517667 0.099747375 1.0287501 2.0250809e-39
-0.13517667 0.10224737 1.0287501 2.1176352e-39
-0.13267668 0.099747375 1.0287501 2.1172821e-39
-0.13267668 0.10224737 1.0287501 2.1179828e-39
-0.13017668 0.094747372 1.0237501 2.9416282e-39
-0.13017668 0.097247377 1.0237501 2.7604613e-39
-0.12767668 0.094747372 1.0237501 2.7590488e-39
-0.12767668 0.097247377 1.0237501 2.759755e-39
-0.13017668 0.099747375 1.0237501 2.1179828e-39
-0.12767668 0.099747375 1.0237501 2.759755e-39
-0.12767668 0.10224737 1.0237501 1.4693862e-39
-0.13017668 0.099747375 1.0287501 2.1172821e-39
-0.13017668 0.10224737 1.0287501 2.0257857e-39
-0.12767668 0.10224737 1.0287501 2.3016636e-39
-0.14267668 0.10474738 1.0237501 1.640506e-38
-0.14267668 0.10474738 1.0287501 0
-0.14267668 0.10474738 1.0312501 1.6587653e-38
-0.14267668 0.10724737 1.0287501 2.7550649e-40
-0.14267668 0.10724737 1.0312501 0
-0.14267668 0.10974737 1.0312501 4.5917748e-40
-0.14017668 0.10474738 1.0237501 0
-0.14017668 0.10474738 1.0287501 0
-0.14017668 0.10474738 1.0312501 0
-0.14017668 0.10724737 1.0287501 0
-0.14017668 0.10724737 1.0312501 0
-0.13767669 0.10474738 1.0287501 1.8431909e-39
-0.13767669 0.10474738 1.0312501 1.8431909e-39
-0.13767669 0.10724737 1.0312501 1.9353866e-39
-0.14017668 0.10974737 1.0312501 0
-0.13767669 0.10974737 1.0312501 2.9448652e-39
-0.14517668 0.10474738 1.0337501 1.6771326e-38
-0.14517668 0.10724737 1.0337501 1.6496534e-38
-0.14267668 0.10724737 1.0337501 0
-0.14267668 0.10724737 1.0387501 1.8367099e-40
-0.14267668 0.10974737 1.0337501 4.5917748e-40
-0.14017668 0.10724737 1.0337501 0
-0.13767669 0.10474738 1.0337501 2.2116161e-39
-0.13767669 0.10724737 1.0337501 1.8439126e-39
-0.14017668 0.10724737 1.0387501 0
-0.14017668 0.10974737 1.0337501 0
-0.13767669 0.10974737 1.0337501 1.9353866e-39
-0.13517667 0.10474738 1.0287501 2.8526695e-39
-0.13517667 0.10474738 1.0312501 3.0363419e-39
-0.13517667 0.10724737 1.0287501 2.9437988e-39
-0.13517667 0.10724737 1.0312501 2.9441463e-39
-0.13267668 0.10474738 1.0287501 2.7590488e-39
-0.13267668 0.10474738 1.0312501 2.4867639e-39
-0.13267668 0.10724737 1.0287501 2.9448652e-39
-0.13267668 0.10724737 1.0312501 2.3938592e-39
-0.13517667 0.10974737 1.0312501 2.9448652e-39
-0.13267668 0.10974737 1.0312501 2.5786092e-39
-0.13017668 0.10474738 1.0287501 2.1179828e-39
-0.13017668 0.10474738 1.0312501 2.4867639e-39
-0.13017668 0.10724737 1.0287501 2.6686384e-39
-0.13017668 0.10724737 1.0312501 2.3945654e-39
-0.12767668 0.10474738 1.0287501 1.1038294e-39
-0.12767668 0.10474738 1.0312501 1.1960251e-39
-0.12767668 0.10724737 1.0287501 1.2882207e-39
-0.12767668 0.10724737 1.0312501 1.2882179e-39
-0.13017668 0.10974737 1.0312501 2.3020139e-39
-0.13017668 0.11224738 1.0312501 2.6718614e-39
-0.12767668 0.10974737 1.0312501 1.1960251e-39
-0.13517667 0.10974737 1.0337501 2.9445148e-39
-0.13267668 0.10974737 1.0337501 2.5786092e-39
-0.12767668 0.10974737 1.0337501 1.6541151e-39
-0.12017668 0.092247374 1.0087501 1.7130009e-38
-0.12517668 0.084747374 1.01625 0
-0.12517668 0.087247372 1.01625 9.1835496e-41
-0.12267668 0.084747374 1.0137501 1.6477431e-38
-0.12267668 0.084747374 1.01625 1.6017195e-38
-0.12267668 0.087247372 1.0137501 1.4177933e-38
-0.12267668 0.087247372 1.01625 1.4360895e-38
-0.12517668 0.084747374 1.0187501 9.1835496e-41
-0.12517668 0.087247372 1.0187501 1.8367099e-40
-0.12267668 0.084747374 1.0187501 1.6202642e-38
-0.12267668 0.087247372 1.0187501 1.436197e-38
-0.12517668 0.089747377 1.01625 3.6734339e-40
-0.12517668 0.092247374 1.01625 3.6734339e-40
-0.12267668 0.089747377 1.0137501 1.3071584e-38
-0.12267668 0.089747377 1.01625 1.2888281e-38
-0.12267668 0.092247374 1.0137501 4.6836103e-39
-0.12267668 0.092247374 1.01625 4.4999393e-39
-0.12517668 0.089747377 1.0187501 3.6734198e-40
-0.12517668 0.092247374 1.0187501 6.4285408e-40
-0.12017668 0.084747374 1.0137501 1.8606941e-38
-0.12017668 0.084747374 1.01625 1.8697332e-38
-0.12017668 0.087247372 1.0137501 1.7776102e-38
-0.12017668 0.087247372 1.01625 1.8144164e-38
-0.12017668 0.092247374 1.0137501 1.7407302e-38
-0.12267668 0.094747372 1.0137501 4.4081038e-39
-0.12267668 0.094747372 1.01625 1.0952173e-38
-0.12267668 0.097247377 1.0137501 9.5692388e-39
-0.12267668 0.097247377 1.01625 9.660368e-39
-0.12517668 0.094747372 1.0187501 6.4284847e-40
-0.12517668 0.094747372 1.02125 2.7550649e-40
-0.12517668 0.097247377 1.0187501 8.2651947e-40
-0.12517668 0.097247377 1.02125 7.3469098e-40
-0.12267668 0.099747375 1.0137501 9.3866482e-39
-0.12267668 0.099747375 1.01625 9.2026143e-39
-0.12517668 0.099747375 1.0187501 4.3162683e-39
-0.12517668 0.099747375 1.02125 8.2651947e-40
-0.12517668 0.10224737 1.0187501 3.3979134e-39
-0.12517668 0.10224737 1.02125 3.5815844e-39
-0.12267668 0.099747375 1.0187501 7.6345823e-39
-0.12267668 0.099747375 1.02125 9.3866482e-39
-0.12267668 0.10224737 1.0187501 7.2683179e-39
-0.12267668 0.10224737 1.02125 6.899534e-39
-0.12017668 0.10224737 1.0187501 1.4456683e-38
-0.12017668 0.10224737 1.02125 1.4273018e-38
-0.12517668 0.10224737 1.0237501 3.3060779e-39
-0.12267668 0.10224737 1.0237501 7.2679676e-39
-0.12017668 0.10224737 1.0237501 1.4274816e-38
-0.12517668 0.10474738 1.0237501 3.0305714e-39
-0.12267668 0.10474738 1.0237501 6.1634165e-39
-0.12517668 0.10474738 1.0287501 2.8469004e-39
-0.12517668 0.10724737 1.0287501 2.8469004e-39
-0.12517668 0.10724737 1.0312501 2.8469004e-39
-0.12267668 0.10474738 1.0287501 6.2552604e-39
-0.12267668 0.10724737 1.0287501 5.7020866e-39
-0.12267668 0.10724737 1.0312501 4.9648747e-39
-0.12517668 0.10974737 1.0287501 1.2856969e-39
-0.12517668 0.10974737 1.0312501 2.4795584e-39
-0.12267668 0.10974737 1.0287501 3.0341797e-39
-0.12267668 0.10974737 1.0312501 5.1489129e-39
-0.12017668 0.10474738 1.0237501 1.362693e-38
-0.12267668 0.10724737 1.0337501 1.2613865e-38
-0.12517668 0.10974737 1.0337501 4.9623664e-39
-0.12017668 0.10724737 1.0337501 2.2479158e-38
