# .PCD v0.7 - Point Cloud Data file format
VERSION 0.7
FIELDS x y z rgb
SIZE 4 4 4 4
TYPE F F F F
COUNT 1 1 1 1
WIDTH 772
HEIGHT 1
VIEWPOINT 0 0 0 1 0 0 0
POINTS 772
DATA ascii
0.17648481 0.09435042 1.03425 0
0.17648481 0.096850418 1.03425 0
0.17898481 0.09435042 1.03175 1.0586287e-38
0.17898481 0.09435042 1.03425 2.1122164e-39
0.17898481 0.096850418 1.03175 0
0.17898481 0.096850418 1.03425 0
0.17148481 0.10185042 1.03425 2.0250809e-39
0.17398481 0.099350423 1.03425 5.5282345e-40
0.17398481 0.10185042 1.03175 7.3756504e-40
0.17398481 0.10185042 1.03425 1.6562941e-39
0.17148481 0.10435042 1.03425 7.3469798e-40
0.17148481 0.10685042 1.03175 0
0.17148481 0.10685042 1.03425 0
0.17398481 0.10435042 1.03175 1.2878704e-39
0.17398481 0.10435042 1.03425 1.3804163e-39
0.17398481 0.10685042 1.03175 3.657389e-43
0.17398481 0.10685042 1.03425 1.4012985e-45
0.17648481 0.099350423 1.03175 1.44614e-42
0.17648481 0.099350423 1.03425 9.8090893e-45
0.17648481 0.10185042 1.03175 5.5282345e-40
0.17648481 0.10185042 1.03425 1.2878704e-39
0.17898481 0.099350423 1.03175 1.44614e-42
0.17898481 0.099350423 1.03425 0
0.17898481 0.10185042 1.03175 2.5265411e-42
0.17898481 0.10185042 1.03425 6.4536941e-40
0.17898481 0.10435042 1.02675 8.2941034e-40
0.17898481 0.10685042 1.02675 1.4726133e-39
0.17648481 0.10435042 1.03175 1.4726133e-39
0.17648481 0.10435042 1.03425 1.2878704e-39
0.17648481 0.10685042 1.03175 5.5282345e-40
0.17648481 0.10685042 1.03425 5.5282345e-40
0.17898481 0.10435042 1.03175 7.3756504e-40
0.17898481 0.10435042 1.03425 9.2090953e-40
0.17898481 0.10685042 1.03175 1.2878704e-39
0.17898481 0.10685042 1.03425 9.2160738e-40
0.15648481 0.08685042 1.05425 2.118689e-39
0.15898481 0.08685042 1.05425 7.3470919e-40
0.15898481 0.08685042 1.05925 2.1523944e-42
0.15898481 0.08685042 1.0617501 5.0222537e-42
0.15898481 0.08685042 1.06675 5.0222537e-42
0.15898481 0.091850422 1.04925 1.6562941e-39
0.15898481 0.089350417 1.05425 1.6562941e-39
0.15898481 0.091850422 1.05425 1.6562941e-39
0.15648481 0.09435042 1.04925 1.3804135e-39
0.15648481 0.096850418 1.04925 1.1960251e-39
0.15898481 0.09435042 1.04925 1.4726133e-39
0.15898481 0.096850418 1.0467501 1.8381575e-39
0.15898481 0.096850418 1.04925 1.3800674e-39
0.15898481 0.09435042 1.05425 1.4726133e-39
0.15898481 0.096850418 1.05425 1.3800674e-39
0.15898481 0.099350423 1.0467501 1.3775324e-39
0.15898481 0.099350423 1.04925 4.5917748e-40
0.15898481 0.10185042 1.04925 3.4990759e-39
0.15898481 0.099350423 1.05425 7.3470919e-40
0.15898481 0.10185042 1.05425 3.6734198e-40
0.1539848 0.089350417 1.05925 1.6566445e-39
0.1539848 0.096850418 1.05925 8.2689361e-40
0.1539848 0.096850418 1.0617501 2.1143856e-39
0.15648481 0.089350417 1.05925 2.118689e-39
0.15898481 0.089350417 1.05925 1.749196e-39
0.15898481 0.091850422 1.0567501 1.8413945e-39
0.15898481 0.091850422 1.05925 1.7491988e-39
0.15648481 0.089350417 1.0617501 1.7491988e-39
0.15648481 0.091850422 1.0617501 1.8413945e-39
0.15898481 0.089350417 1.0617501 2.0257857e-39
0.15898481 0.091850422 1.0617501 1.7491988e-39
0.15648481 0.09435042 1.0567501 2.1143856e-39
0.15648481 0.09435042 1.05925 2.1143856e-39
0.15648481 0.096850418 1.0567501 1.1960251e-39
0.15648481 0.096850418 1.05925 1.1038294e-39
0.15898481 0.09435042 1.0567501 1.4726133e-39
0.15898481 0.09435042 1.05925 1.1985432e-39
0.15898481 0.096850418 1.0567501 1.2882179e-39
0.15898481 0.096850418 1.05925 8.2976067e-40
0.15648481 0.09435042 1.0617501 1.1985432e-39
0.15648481 0.096850418 1.0617501 1.0155785e-39
0.15898481 0.09435042 1.0617501 1.6566445e-39
0.1539848 0.091850422 1.06925 3.6734198e-40
0.1539848 0.091850422 1.07175 4.5917748e-40
0.1539848 0.09435042 1.06675 6.4284847e-40
0.1539848 0.09435042 1.07175 1.8367099e-40
0.15648481 0.089350417 1.06675 7.3721471e-40
0.15648481 0.089350417 1.06925 8.3118579e-40
0.15648481 0.091850422 1.06675 1.4729693e-39
0.15648481 0.091850422 1.06925 1.6566445e-39
0.15898481 0.089350417 1.06675 1.8413945e-39
0.15898481 0.089350417 1.06925 1.7520645e-39
0.15898481 0.091850422 1.06675 1.6566445e-39
0.15898481 0.091850422 1.06925 1.6566445e-39
0.15648481 0.089350417 1.07175 5.5677091e-40
0.15648481 0.091850422 1.07175 1.4729693e-39
0.15898481 0.089350417 1.07175 1.7491988e-39
0.15898481 0.091850422 1.07175 2.0257829e-39
0.15648481 0.09435042 1.06675 1.6566445e-39
0.15898481 0.09435042 1.06675 1.6566445e-39
0.15648481 0.09435042 1.07175 1.6566445e-39
0.15898481 0.09435042 1.07175 1.7491988e-39
0.15648481 0.099350423 1.0567501 9.1835496e-41
0.15898481 0.099350423 1.0567501 7.3469798e-40
0.16148481 0.08685042 1.05425 3.673602e-40
0.16398481 0.08685042 1.05425 0
0.16148481 0.08685042 1.0567501 3.6734899e-40
0.16148481 0.08685042 1.05925 0
0.16398481 0.08685042 1.0567501 9.18397e-41
0.16398481 0.08685042 1.05925 0
0.16148481 0.08685042 1.0617501 9.1835496e-41
0.16398481 0.084350422 1.0617501 0
0.16398481 0.08685042 1.0617501 0
0.1664848 0.08685042 1.0567501 0
0.1664848 0.08685042 1.05925 1.8367099e-40
0.1664848 0.08685042 1.0617501 5.5245211e-40
0.1689848 0.08685042 1.0617501 1.0303512e-38
0.16148481 0.084350422 1.06675 0
0.16148481 0.084350422 1.06925 0
0.16148481 0.08685042 1.06675 1.8367099e-40
0.16148481 0.08685042 1.06925 3.6734198e-40
0.16398481 0.084350422 1.06675 0
0.16398481 0.084350422 1.06925 0
0.16398481 0.08685042 1.06675 0
0.16398481 0.08685042 1.06925 0
0.16148481 0.084350422 1.07175 0
0.16148481 0.08685042 1.07175 0
0.16398481 0.084350422 1.07175 0
0.16398481 0.08685042 1.07175 0
0.1664848 0.084350422 1.06675 5.3264588e-39
0.1664848 0.084350422 1.06925 4.9591168e-39
0.1664848 0.08685042 1.06675 0
0.1664848 0.08685042 1.06925 0
0.1689848 0.084350422 1.06925 1.2788886e-38
0.1689848 0.08685042 1.06675 9.6599603e-39
0.1689848 0.08685042 1.06925 9.7542957e-39
0.1664848 0.084350422 1.07175 4.6836103e-39
0.1664848 0.08685042 1.07175 0
0.1689848 0.084350422 1.07175 1.3982034e-38
0.1689848 0.08685042 1.07175 0
0.17148481 0.08685042 1.06925 1.6667526e-38
0.17148481 0.084350422 1.07175 1.7131043e-38
0.17148481 0.08685042 1.07175 1.0028017e-38
0.16148481 0.096850418 1.04425 1.6534075e-39
0.16398481 0.096850418 1.04175 1.3804163e-39
0.16398481 0.096850418 1.04425 1.2882207e-39
0.1689848 0.096850418 1.03675 1.9335901e-39
0.1664848 0.096850418 1.04175 1.4726133e-39
0.1664848 0.096850418 1.04425 1.3800674e-39
0.1689848 0.096850418 1.04175 1.6566445e-39
0.1689848 0.096850418 1.04425 1.2893291e-39
0.16148481 0.091850422 1.04925 2.389546e-39
0.16398481 0.091850422 1.04925 1.1031204e-39
0.16148481 0.089350417 1.05425 1.2871641e-39
0.16148481 0.091850422 1.05425 1.6559438e-39
0.16398481 0.089350417 1.05425 7.3469798e-40
0.16398481 0.091850422 1.05425 9.2160738e-40
0.16148481 0.09435042 1.0467501 1.4726133e-39
0.16148481 0.09435042 1.04925 1.4726133e-39
0.16148481 0.096850418 1.0467501 1.4726133e-39
0.16148481 0.096850418 1.04925 1.472263e-39
0.16398481 0.09435042 1.0467501 1.8413945e-39
0.16398481 0.09435042 1.04925 1.4726133e-39
0.16398481 0.096850418 1.0467501 1.6566445e-39
0.16398481 0.096850418 1.04925 2.2987769e-39
0.16148481 0.09435042 1.05425 1.3804163e-39
0.16148481 0.096850418 1.05425 1.3800674e-39
0.16398481 0.09435042 1.05425 1.4726133e-39
0.1664848 0.091850422 1.04925 4.6026909e-40
0.1689848 0.091850422 1.04925 7.3469798e-40
0.1664848 0.091850422 1.05425 2.7623797e-40
0.1664848 0.09435042 1.0467501 1.3804163e-39
0.1664848 0.09435042 1.04925 9.2160738e-40
0.1664848 0.096850418 1.0467501 1.4726133e-39
0.1664848 0.096850418 1.04925 1.6562941e-39
0.1689848 0.09435042 1.0467501 2.7623797e-40
0.1689848 0.09435042 1.04925 1.0105772e-39
0.1689848 0.096850418 1.0467501 1.1031204e-39
0.1689848 0.096850418 1.04925 1.2878704e-39
0.1664848 0.09435042 1.05425 1.1031204e-39
0.1689848 0.09435042 1.05425 7.3469798e-40
0.1689848 0.096850418 1.05425 2.2065813e-39
0.16148481 0.099350423 1.04425 7.3470919e-40
0.16148481 0.10185042 1.04425 3.0374714e-39
0.16398481 0.099350423 1.04175 1.011631e-39
0.16398481 0.099350423 1.04425 7.3504691e-40
0.16398481 0.10185042 1.04175 0
0.16398481 0.10185042 1.04425 0
0.16398481 0.10435042 1.04175 5.7215016e-39
0.16398481 0.10435042 1.04425 1.0324431e-38
0.16398481 0.10685042 1.04175 8.7640205e-39
0.1664848 0.099350423 1.03675 2.1179828e-39
0.1664848 0.10185042 1.03675 2.5223372e-44
0.1689848 0.099350423 1.03675 1.472263e-39
0.1689848 0.10185042 1.03675 1.5619209e-39
0.1664848 0.099350423 1.04175 1.3804163e-39
0.1664848 0.099350423 1.04425 1.6534075e-39
0.1664848 0.10185042 1.04175 9.4381655e-41
0.1664848 0.10185042 1.04425 1.44614e-42
0.1689848 0.099350423 1.04175 9.2160738e-40
0.1689848 0.099350423 1.04425 1.6559466e-39
0.1689848 0.10185042 1.04175 1.2878704e-39
0.1689848 0.10185042 1.04425 2.0211194e-39
0.1664848 0.10435042 1.03675 0
0.1689848 0.10435042 1.03675 0
0.1689848 0.10685042 1.03675 4.2038954e-44
0.1664848 0.10435042 1.04175 0
0.1664848 0.10435042 1.04425 0
0.1664848 0.10685042 1.04175 4.6965499e-40
0.1689848 0.10435042 1.04175 0
0.1689848 0.10435042 1.04425 0
0.1689848 0.10685042 1.04175 3.9236357e-44
0.16148481 0.099350423 1.0467501 6.4286249e-40
0.16148481 0.099350423 1.04925 7.3576017e-40
0.16148481 0.10185042 1.0467501 3.2250478e-39
0.16148481 0.10185042 1.04925 7.464176e-39
0.16398481 0.099350423 1.0467501 1.2857082e-39
0.16398481 0.099350423 1.04925 7.3469798e-40
0.16398481 0.10185042 1.0467501 1.1210388e-44
0.16398481 0.10185042 1.04925 3.5924304e-39
0.16148481 0.099350423 1.05425 7.3470919e-40
0.16148481 0.10185042 1.05425 8.279544e-40
0.16148481 0.10435042 1.0467501 7.8330987e-39
0.16398481 0.10435042 1.0467501 2.7557375e-40
0.1664848 0.099350423 1.0467501 1.0109247e-39
0.1664848 0.099350423 1.04925 1.4726133e-39
0.1664848 0.10185042 1.0467501 0
0.1689848 0.099350423 1.0467501 1.2878704e-39
0.1689848 0.099350423 1.04925 1.3800674e-39
0.1689848 0.10185042 1.0467501 2.7838195e-40
0.1664848 0.10435042 1.0467501 5.6051939e-45
0.1689848 0.10435042 1.0467501 4.2038954e-45
0.17398481 0.091850422 1.04425 6.4464774e-40
0.17148481 0.096850418 1.03675 2.667558e-39
0.17398481 0.09435042 1.03675 1.8367099e-40
0.17398481 0.096850418 1.03675 1.5612118e-39
0.17148481 0.09435042 1.04175 2.7550649e-40
0.17148481 0.09435042 1.04425 1.836766e-40
0.17148481 0.096850418 1.04175 1.1031204e-39
0.17148481 0.096850418 1.04425 1.4715568e-39
0.17398481 0.09435042 1.04175 0
0.17398481 0.09435042 1.04425 0
0.17398481 0.096850418 1.04175 6.4285968e-40
0.17398481 0.096850418 1.04425 3.6734899e-40
0.17648481 0.091850422 1.04425 1.0119482e-38
0.17898481 0.091850422 1.04425 1.6850122e-38
0.17648481 0.09435042 1.03675 0
0.17648481 0.096850418 1.03675 0
0.17898481 0.09435042 1.03675 2.6632294e-39
0.17898481 0.096850418 1.03675 0
0.17648481 0.09435042 1.04175 1.4693679e-39
0.17648481 0.09435042 1.04425 8.2651947e-40
0.17648481 0.096850418 1.04175 0
0.17648481 0.096850418 1.04425 0
0.17898481 0.09435042 1.04175 9.7528692e-39
0.17898481 0.09435042 1.04425 1.7448744e-39
0.17898481 0.096850418 1.04175 0
0.17898481 0.096850418 1.04425 0
0.17148481 0.091850422 1.0467501 0
0.17148481 0.091850422 1.04925 0
0.17398481 0.091850422 1.0467501 0
0.17398481 0.091850422 1.04925 0
0.17148481 0.091850422 1.05425 0
0.17398481 0.091850422 1.05425 5.2346233e-39
0.17148481 0.09435042 1.0467501 8.4077908e-45
0.17148481 0.09435042 1.04925 1.1210388e-44
0.17148481 0.096850418 1.0467501 2.7589044e-40
0.17148481 0.096850418 1.04925 6.4431283e-40
0.17398481 0.09435042 1.0467501 5.6051939e-45
0.17398481 0.09435042 1.04925 0
0.17398481 0.096850418 1.0467501 4.2038954e-45
0.17398481 0.096850418 1.04925 1.8367099e-40
0.17148481 0.09435042 1.05425 0
0.17398481 0.09435042 1.05425 0
0.17648481 0.091850422 1.0467501 9.9358185e-39
0.17648481 0.091850422 1.04925 9.5681122e-39
0.17898481 0.091850422 1.0467501 1.6666101e-38
0.17898481 0.091850422 1.04925 1.657498e-38
0.17648481 0.091850422 1.05425 1.1500312e-38
0.17648481 0.09435042 1.0467501 1.8367099e-40
0.17648481 0.09435042 1.04925 0
0.17648481 0.096850418 1.0467501 0
0.17648481 0.096850418 1.04925 0
0.17898481 0.09435042 1.0467501 1.7448744e-39
0.17898481 0.09435042 1.04925 2.0203809e-39
0.17898481 0.096850418 1.0467501 0
0.17898481 0.096850418 1.04925 0
0.17648481 0.09435042 1.05425 3.6985591e-40
0.17898481 0.09435042 1.05425 1.7448744e-39
0.17148481 0.099350423 1.03675 1.3800674e-39
0.17148481 0.10185042 1.03675 1.6534075e-39
0.17398481 0.099350423 1.03675 1.1031204e-39
0.17398481 0.10185042 1.03675 1.2878704e-39
0.17148481 0.099350423 1.04175 1.472263e-39
0.17148481 0.099350423 1.04425 1.7481423e-39
0.17148481 0.10185042 1.04175 1.2878704e-39
0.17148481 0.10185042 1.04425 2.1143856e-39
0.17398481 0.099350423 1.04175 1.0109247e-39
0.17398481 0.099350423 1.04425 8.2941034e-40
0.17398481 0.10185042 1.04175 1.3800674e-39
0.17148481 0.10435042 1.03675 1.0109247e-39
0.17148481 0.10685042 1.03675 0
0.17398481 0.10435042 1.03675 1.1031204e-39
0.17398481 0.10685042 1.03675 1.8367099e-40
0.17148481 0.10435042 1.04175 0
0.17148481 0.10685042 1.04175 4.7644148e-44
0.17398481 0.10435042 1.04175 1.2878704e-39
0.17648481 0.099350423 1.03675 3.6734198e-40
0.17648481 0.10185042 1.03675 5.5317378e-40
0.17898481 0.099350423 1.03675 0
0.17898481 0.10185042 1.03675 4.5992157e-40
0.17648481 0.099350423 1.04175 4.5917748e-40
0.17648481 0.10185042 1.04175 1.1960251e-39
0.17898481 0.099350423 1.04175 0
0.17648481 0.10435042 1.03675 1.1063476e-39
0.17648481 0.10685042 1.03675 8.2941034e-40
0.17898481 0.10435042 1.03675 1.105291e-39
0.17898481 0.10685042 1.03675 1.1056385e-39
0.17148481 0.099350423 1.0467501 1.3779304e-39
0.17398481 0.099350423 1.0467501 1.1038294e-39
0.17648481 0.099350423 1.0467501 4.5917748e-40
0.16148481 0.089350417 1.0567501 1.1981929e-39
0.16148481 0.089350417 1.05925 2.7623797e-40
0.16148481 0.091850422 1.0567501 1.7484898e-39
0.16148481 0.091850422 1.05925 1.6566445e-39
0.16398481 0.089350417 1.0567501 7.1746481e-43
0.16398481 0.089350417 1.05925 0
0.16398481 0.091850422 1.0567501 1.2882179e-39
0.16398481 0.091850422 1.05925 8.2976067e-40
0.16148481 0.089350417 1.0617501 1.2907388e-39
0.16148481 0.091850422 1.0617501 2.0250809e-39
0.16398481 0.089350417 1.0617501 0
0.16398481 0.091850422 1.0617501 1.6562969e-39
0.16148481 0.09435042 1.0567501 1.4726133e-39
0.16148481 0.09435042 1.05925 3.2214619e-39
0.16148481 0.096850418 1.0567501 1.1031204e-39
0.16398481 0.09435042 1.0567501 1.3800674e-39
0.16148481 0.09435042 1.0617501 2.4817416e-39
0.16398481 0.09435042 1.0617501 2.6661329e-39
0.1664848 0.089350417 1.0567501 0
0.1664848 0.089350417 1.05925 0
0.1664848 0.091850422 1.0567501 0
0.1664848 0.091850422 1.05925 4.6097815e-40
0.1689848 0.089350417 1.0567501 0
0.1689848 0.089350417 1.05925 0
0.1689848 0.091850422 1.0567501 0
0.1689848 0.091850422 1.05925 0
0.1664848 0.089350417 1.0617501 0
0.1689848 0.089350417 1.0617501 0
0.1689848 0.091850422 1.0617501 0
0.1664848 0.09435042 1.0567501 2.7623797e-40
0.1689848 0.09435042 1.0567501 0
0.16148481 0.089350417 1.06675 1.1981929e-39
0.1664848 0.089350417 1.06675 0
0.1689848 0.089350417 1.06675 8.2651947e-40
0.1689848 0.089350417 1.06925 0
0.16148481 0.099350423 1.0567501 7.3470919e-40
0.17148481 0.089350417 1.0567501 2.4795584e-39
0.17148481 0.089350417 1.05925 2.1122164e-39
0.17148481 0.091850422 1.0567501 0
0.17148481 0.091850422 1.05925 0
0.17398481 0.089350417 1.0567501 1.547226e-38
0.17398481 0.089350417 1.05925 9.5739374e-39
0.17398481 0.091850422 1.0567501 0
0.17398481 0.091850422 1.05925 0
0.17148481 0.089350417 1.0617501 1.7448744e-39
0.17148481 0.091850422 1.0617501 0
0.17398481 0.089350417 1.0617501 1.0400098e-38
0.17148481 0.09435042 1.0567501 0
0.17648481 0.089350417 1.0567501 1.8701263e-38
0.17648481 0.089350417 1.05925 1.8975324e-38
0.17648481 0.091850422 1.0567501 1.0857109e-38
0.17648481 0.091850422 1.05925 5.1427878e-39
0.17648481 0.089350417 1.0617501 1.5468295e-38
0.17148481 0.089350417 1.06675 2.1122164e-39
0.17148481 0.089350417 1.06925 1.3775324e-39
0.17148481 0.089350417 1.07175 3.2142424e-39
0.19148481 0.10685042 1.01175 0
0.19398481 0.10685042 1.01175 0
0.1814848 0.096850418 1.02425 5.5137171e-40
0.1839848 0.096850418 1.02425 1.6393125e-38
0.1814848 0.096850418 1.02675 5.1427878e-39
0.1839848 0.096850418 1.02675 1.4459538e-38
0.1814848 0.09435042 1.03425 9.389186e-39
0.1814848 0.096850418 1.03175 4.4081038e-39
0.1814848 0.096850418 1.03425 5.1427878e-39
0.1839848 0.09435042 1.03425 1.860618e-38
0.1839848 0.096850418 1.03175 1.1225871e-38
0.1839848 0.096850418 1.03425 1.1408115e-38
0.18648481 0.096850418 1.03175 1.4459185e-38
0.18648481 0.096850418 1.03425 1.4644285e-38
0.1814848 0.10685042 1.02425 1.8413945e-39
0.18648481 0.10685042 1.01925 7.3650846e-40
0.18898481 0.10685042 1.01675 9.1835496e-41
0.18898481 0.10685042 1.01925 6.4285968e-40
0.18648481 0.10685042 1.02175 1.821688e-44
0.18648481 0.10685042 1.02425 6.4285968e-40
0.18898481 0.10435042 1.02175 0
0.18898481 0.10435042 1.02425 0
0.18898481 0.10685042 1.02175 8.4077908e-45
0.18898481 0.10685042 1.02425 1.4012985e-45
0.1814848 0.099350423 1.02675 0
0.1839848 0.099350423 1.02675 0
0.1814848 0.099350423 1.03175 0
0.1814848 0.099350423 1.03425 0
0.1814848 0.10185042 1.03175 0
0.1814848 0.10185042 1.03425 9.1835496e-41
0.1839848 0.099350423 1.03175 0
0.1839848 0.099350423 1.03425 1.8474719e-40
0.1839848 0.10185042 1.03175 0
0.1839848 0.10185042 1.03425 0
0.1814848 0.10435042 1.02675 6.4501908e-40
0.1814848 0.10685042 1.02675 1.3804163e-39
0.1839848 0.10435042 1.02675 6.4286249e-40
0.1839848 0.10685042 1.02675 1.1031204e-39
0.1814848 0.10435042 1.03175 5.5317378e-40
0.1814848 0.10435042 1.03425 5.5282345e-40
0.1814848 0.10685042 1.03175 1.2882179e-39
0.1814848 0.10685042 1.03425 1.3804163e-39
0.1839848 0.10435042 1.03175 0
0.1839848 0.10435042 1.03425 0
0.1839848 0.10685042 1.03175 1.2882179e-39
0.1839848 0.10685042 1.03425 1.4726133e-39
0.18648481 0.099350423 1.03175 8.2651947e-40
0.18648481 0.099350423 1.03425 1.5931408e-38
0.18648481 0.10185042 1.03175 0
0.18648481 0.10185042 1.03425 0
0.18898481 0.10185042 1.03425 1.3775324e-39
0.18648481 0.10435042 1.02675 3.6735179e-40
0.18648481 0.10685042 1.02675 8.2689361e-40
0.18898481 0.10435042 1.02675 0
0.18898481 0.10685042 1.02675 1.4012985e-45
0.18648481 0.10435042 1.03175 0
0.18648481 0.10435042 1.03425 0
0.18648481 0.10685042 1.03175 6.4285968e-40
0.18648481 0.10685042 1.03425 1.1031204e-39
0.18898481 0.10435042 1.03175 0
0.18898481 0.10435042 1.03425 0
0.18898481 0.10685042 1.03175 0
0.18898481 0.10685042 1.03425 0
0.19148481 0.10185042 1.02175 1.0581233e-38
0.19398481 0.10185042 1.02175 1.4184027e-38
0.19148481 0.10435042 1.01925 1.8474719e-40
0.19148481 0.10685042 1.01675 0
0.19148481 0.10685042 1.01925 0
0.19398481 0.10435042 1.01925 8.8370309e-39
0.19398481 0.10685042 1.01675 0
0.19398481 0.10685042 1.01925 0
0.19148481 0.10435042 1.02175 4.6097535e-40
0.19148481 0.10435042 1.02425 0
0.19148481 0.10685042 1.02175 0
0.19148481 0.10685042 1.02425 0
0.19398481 0.10435042 1.02175 8.559721e-39
0.19398481 0.10435042 1.02425 9.3851684e-39
0.19398481 0.10685042 1.02175 1.8367099e-40
0.19398481 0.10685042 1.02425 0
0.1964848 0.10685042 1.01925 0
0.1964848 0.10435042 1.02175 1.5197806e-38
0.1964848 0.10685042 1.02175 1.4693679e-39
0.1964848 0.10685042 1.02425 1.8367099e-39
0.19148481 0.10185042 1.03175 1.4736848e-38
0.19148481 0.10185042 1.03425 1.0033113e-38
0.19398481 0.10185042 1.03425 1.6851229e-38
0.19148481 0.10435042 1.02675 0
0.19398481 0.10435042 1.02675 9.2552961e-41
0.19148481 0.10435042 1.03175 3.9489263e-39
0.19148481 0.10435042 1.03425 0
0.19148481 0.10685042 1.03175 0
0.19398481 0.10435042 1.03425 5.5101298e-39
0.1964848 0.10435042 1.02675 8.7415955e-39
0.1814848 0.09435042 1.03675 9.2955484e-39
0.1814848 0.096850418 1.03675 0
0.1839848 0.09435042 1.03675 1.8421785e-38
0.1839848 0.096850418 1.03675 1.0950008e-38
0.1814848 0.09435042 1.04425 9.7550272e-39
0.1814848 0.096850418 1.04175 4.5917748e-40
0.1814848 0.096850418 1.04425 9.2047947e-39
0.1839848 0.096850418 1.04175 5.2346233e-39
0.18648481 0.096850418 1.03675 1.418403e-38
0.18898481 0.096850418 1.03675 1.8425019e-38
0.18648481 0.096850418 1.04175 1.085781e-38
0.18898481 0.096850418 1.04175 1.8055543e-38
0.1814848 0.09435042 1.0467501 9.8475857e-39
0.1814848 0.09435042 1.04925 1.0307458e-38
0.1814848 0.096850418 1.0467501 8.9289309e-39
0.1814848 0.096850418 1.04925 2.1122164e-39
0.1814848 0.09435042 1.05425 1.021634e-38
0.1814848 0.099350423 1.03675 0
0.1814848 0.10185042 1.03675 1.6815582e-44
0.1839848 0.099350423 1.03675 0
0.1839848 0.10185042 1.03675 0
0.1814848 0.099350423 1.04175 0
0.1814848 0.10435042 1.03675 1.1027728e-39
0.1839848 0.10435042 1.03675 9.1845305e-41
0.1839848 0.10685042 1.03675 1.0109247e-39
0.18648481 0.099350423 1.03675 9.1982576e-39
0.18648481 0.10185042 1.03675 0
0.18898481 0.099350423 1.03675 1.5838491e-38
0.18898481 0.10185042 1.03675 1.3775324e-39
0.18648481 0.099350423 1.04175 9.2908106e-39
0.18648481 0.10185042 1.04175 8.2651947e-40
0.18898481 0.099350423 1.04175 1.6297302e-38
0.18898481 0.10185042 1.04175 2.1122164e-39
0.18648481 0.10435042 1.03675 5.6051939e-45
0.18648481 0.10685042 1.03675 8.4077908e-45
0.18898481 0.10435042 1.03675 0
0.18898481 0.10435042 1.04175 0
0.19148481 0.10185042 1.03675 8.7463375e-39
0.19398481 0.10185042 1.03675 1.4735049e-38
0.19148481 0.10185042 1.04175 1.602255e-38
0.19148481 0.10435042 1.03675 0
0.19398481 0.10435042 1.03675 4.4999393e-39
0.19148481 0.10435042 1.04175 2.1122164e-39
0.17898481 0.10935042 1.02425 7.0064923e-45
0.17898481 0.11185042 1.02175 9.1835496e-41
0.17898481 0.11185042 1.02425 1.2611686e-44
0.17898481 0.11435042 1.02175 2.8992865e-42
0.17898481 0.11435042 1.02425 0
0.17148481 0.10935042 1.03425 1.1985978e-39
0.17398481 0.10935042 1.03175 0
0.17398481 0.10935042 1.03425 0
0.17398481 0.11185042 1.03175 1.1434595e-42
0.17648481 0.10935042 1.02675 1.011631e-39
0.17648481 0.11185042 1.02675 5.6051939e-45
0.17898481 0.10935042 1.02675 1.1038294e-39
0.17898481 0.11185042 1.02675 1.2611686e-44
0.17648481 0.10935042 1.03175 2.755205e-40
0.17648481 0.10935042 1.03425 1.2611686e-44
0.17648481 0.11185042 1.03175 4.4841551e-44
0.17898481 0.10935042 1.03175 1.1038294e-39
0.17898481 0.10935042 1.03425 8.2724394e-40
0.17898481 0.11185042 1.03175 0
0.1689848 0.10935042 1.03675 9.2383684e-40
0.17148481 0.10935042 1.03675 0
0.17398481 0.10935042 1.03675 0
0.17648481 0.10935042 1.03675 2.1762165e-42
0.17898481 0.10935042 1.03675 1.1031204e-39
0.18898481 0.11185042 1.01175 1.8410441e-39
0.18898481 0.11435042 1.01175 2.3895432e-39
0.18898481 0.11685042 1.01175 1.1960251e-39
0.18898481 0.11935042 1.01175 7.3576017e-40
0.19398481 0.11435042 1.00425 1.1031204e-39
0.19398481 0.11685042 1.00175 7.3504691e-40
0.19398481 0.11685042 1.00425 8.2724394e-40
0.1989848 0.11185042 0.99924999 0
0.1964848 0.11185042 1.00175 0
0.1989848 0.11185042 1.00175 0
0.1989848 0.11185042 1.00425 0
0.1964848 0.11435042 1.00175 0
0.1964848 0.11435042 1.00425 2.7623797e-40
0.1964848 0.11685042 1.00175 2.0204818e-39
0.1964848 0.11685042 1.00425 9.2160738e-40
0.1989848 0.11435042 1.00175 0
0.1989848 0.11435042 1.00425 0
0.1989848 0.11685042 1.00175 7.3476524e-40
0.1989848 0.11685042 1.00425 5.5109005e-40
0.19148481 0.11185042 1.00925 5.5282345e-40
0.19398481 0.11185042 1.00925 2.7623797e-40
0.19148481 0.10935042 1.01175 0
0.19148481 0.11185042 1.01175 4.6026909e-40
0.19398481 0.10935042 1.01175 0
0.19398481 0.11185042 1.01175 8.4077908e-45
0.19148481 0.11685042 1.00925 1.1960251e-39
0.19398481 0.11435042 1.00675 1.0109247e-39
0.19398481 0.11435042 1.00925 5.5282345e-40
0.19398481 0.11685042 1.00675 2.7623797e-40
0.19398481 0.11685042 1.00925 6.4536941e-40
0.19148481 0.11435042 1.01175 6.4501908e-40
0.19148481 0.11685042 1.01175 6.4536941e-40
0.19398481 0.11435042 1.01175 4.6026909e-40
0.19398481 0.11685042 1.01175 1.2882207e-39
0.1964848 0.11185042 1.00925 1.4012985e-45
0.1989848 0.11185042 1.00675 0
0.1989848 0.11185042 1.00925 0
0.1964848 0.10935042 1.01175 0
0.1964848 0.11185042 1.01175 5.6051939e-45
0.1989848 0.10935042 1.01175 0
0.1989848 0.11185042 1.01175 0
0.1964848 0.11435042 1.00675 2.7658689e-40
0.1964848 0.11435042 1.00925 1.8404094e-40
0.1964848 0.11685042 1.00675 1.3825841e-39
0.1964848 0.11685042 1.00925 0
0.1989848 0.11435042 1.00675 0
0.1989848 0.11435042 1.00925 0
0.1989848 0.11685042 1.00675 2.2073856e-39
0.1964848 0.11435042 1.01175 4.6026909e-40
0.1989848 0.11435042 1.01175 0
0.19398481 0.11935042 1.00175 1.7448758e-39
0.19398481 0.11935042 1.00425 1.7448758e-39
0.19398481 0.12185042 1.00425 3.1224069e-39
0.19398481 0.12435042 1.00425 2.0203809e-39
0.1964848 0.11935042 1.00175 1.40062e-38
0.1964848 0.11935042 1.00425 1.0133243e-38
0.1964848 0.12185042 1.00175 1.0408754e-38
0.1964848 0.12185042 1.00425 1.1234548e-38
0.1989848 0.11935042 1.00175 7.3681142e-39
0.1989848 0.11935042 1.00425 7.3677611e-39
0.1989848 0.12185042 1.00175 9.3024078e-39
0.1989848 0.12185042 1.00425 9.4860731e-39
0.1964848 0.12435042 1.00175 7.1782733e-39
0.1964848 0.12435042 1.00425 4.6926263e-39
0.1989848 0.12435042 1.00175 1.0497316e-38
0.1989848 0.12435042 1.00425 1.1047593e-38
0.19148481 0.11935042 1.00925 7.3504691e-40
0.19148481 0.12185042 1.00925 6.4286249e-40
0.19398481 0.11935042 1.00675 1.7448758e-39
0.19398481 0.11935042 1.00925 0
0.19398481 0.12185042 1.00675 3.3979134e-39
0.19398481 0.12185042 1.00925 0
0.19148481 0.11935042 1.01175 5.5317378e-40
0.19398481 0.11935042 1.01175 1.0112751e-39
0.1964848 0.11935042 1.00675 1.0593863e-38
0.1964848 0.11935042 1.00925 1.2856997e-39
0.1964848 0.12185042 1.00675 1.1601161e-38
0.1964848 0.12185042 1.00925 3.3979134e-39
0.1989848 0.11935042 1.00675 1.0229065e-38
0.1989848 0.12185042 1.00675 1.0409469e-38
0.1839848 0.10935042 1.01925 1.2878704e-39
0.1839848 0.11185042 1.01925 1.1031204e-39
0.1814848 0.10935042 1.02425 1.2885682e-39
0.1814848 0.11185042 1.02175 8.279544e-40
0.1814848 0.11185042 1.02425 1.0109247e-39
0.1839848 0.10935042 1.02175 1.1031204e-39
0.1839848 0.10935042 1.02425 8.2689361e-40
0.1839848 0.11185042 1.02175 8.2689361e-40
0.1839848 0.11185042 1.02425 1.1038294e-39
0.1839848 0.11435042 1.01675 4.6026909e-40
0.1839848 0.11435042 1.01925 6.4536941e-40
0.1839848 0.11685042 1.01925 8.2760968e-40
0.1814848 0.11435042 1.02175 0
0.1814848 0.11435042 1.02425 2.5111268e-42
0.1839848 0.11435042 1.02175 1.8439126e-40
0.1839848 0.11435042 1.02425 1.1038294e-39
0.18648481 0.10935042 1.01925 6.4431283e-40
0.18648481 0.11185042 1.01675 9.2125985e-40
0.18648481 0.11185042 1.01925 1.1949685e-39
0.18898481 0.10935042 1.01675 2.7623797e-40
0.18898481 0.10935042 1.01925 6.4431283e-40
0.18898481 0.11185042 1.01675 7.3756504e-40
0.18898481 0.11185042 1.01925 1.1038294e-39
0.18648481 0.10935042 1.02175 1.2868138e-39
0.18648481 0.10935042 1.02425 1.1031204e-39
0.18648481 0.11185042 1.02175 1.2882179e-39
0.18648481 0.11185042 1.02425 1.1038266e-39
0.18898481 0.10935042 1.02175 6.4536941e-40
0.18898481 0.10935042 1.02425 1.1031204e-39
0.18898481 0.11185042 1.02175 1.4729693e-39
0.18648481 0.11435042 1.01675 8.2689361e-40
0.18648481 0.11435042 1.01925 1.011631e-39
0.18648481 0.11685042 1.01675 7.3469798e-40
0.18648481 0.11685042 1.01925 8.2724394e-40
0.18898481 0.11435042 1.01675 1.2878704e-39
0.18898481 0.11435042 1.01925 1.1038266e-39
0.18898481 0.11685042 1.01675 1.1960251e-39
0.18898481 0.11685042 1.01925 8.2724394e-40
0.18648481 0.11435042 1.02175 1.011631e-39
0.18648481 0.11435042 1.02425 1.1960251e-39
0.18898481 0.11435042 1.02175 1.1038266e-39
0.1814848 0.10935042 1.02675 1.1038294e-39
0.1814848 0.11185042 1.02675 0
0.1839848 0.10935042 1.02675 1.1031204e-39
0.1839848 0.11185042 1.02675 1.2882179e-39
0.1814848 0.10935042 1.03175 1.8381575e-39
0.1814848 0.11185042 1.03175 8.2724394e-40
0.1839848 0.10935042 1.03175 1.3804135e-39
0.1839848 0.10935042 1.03425 2.2065813e-39
0.1839848 0.11185042 1.03175 1.1038294e-39
0.18648481 0.10935042 1.02675 1.0109247e-39
0.18648481 0.11185042 1.02675 1.1038266e-39
0.18898481 0.10935042 1.02675 5.5282345e-40
0.18648481 0.10935042 1.03175 1.2878704e-39
0.18648481 0.11935042 1.01675 7.3469798e-40
0.18898481 0.11935042 1.01675 5.5317378e-40
0.19148481 0.10935042 1.01675 9.1845305e-41
0.19148481 0.10935042 1.01925 0
0.19148481 0.11185042 1.01675 8.2654609e-40
0.19148481 0.11185042 1.01925 1.1031204e-39
0.19398481 0.10935042 1.01675 0
0.19398481 0.10935042 1.01925 1.5414283e-44
0.19398481 0.11185042 1.01675 0
0.19148481 0.10935042 1.02175 1.836766e-40
0.19148481 0.11185042 1.02175 1.3793611e-39
0.19398481 0.10935042 1.02175 0
0.19148481 0.11435042 1.01675 1.2871641e-39
0.19148481 0.11435042 1.01925 1.1027728e-39
0.19148481 0.11685042 1.01675 5.5282345e-40
0.19148481 0.11685042 1.01925 1.1038294e-39
0.19398481 0.11435042 1.01675 4.6026909e-40
0.19398481 0.11435042 1.01925 6.4501908e-40
0.19398481 0.11685042 1.01675 1.1038294e-39
0.19148481 0.11435042 1.02175 1.2871641e-39
0.1964848 0.10935042 1.01675 0
0.1964848 0.10935042 1.01925 0
0.1964848 0.11185042 1.01675 0
0.1989848 0.10935042 1.01675 0
0.1989848 0.11185042 1.01675 0
0.1964848 0.10935042 1.02175 0
0.1964848 0.11435042 1.01675 1.8404094e-40
0.1989848 0.11435042 1.01675 4.2038954e-45
0.19148481 0.11935042 1.01675 8.2976067e-40
0.2014848 0.11185042 0.99924999 0
0.20398481 0.11185042 0.99924999 0
0.2014848 0.11185042 1.00175 1.3775324e-39
0.20398481 0.11185042 1.00175 8.1809164e-39
0.2014848 0.11435042 0.99924999 5.6051939e-45
0.2014848 0.11685042 0.99924999 0
0.20398481 0.11435042 0.99924999 1.6815582e-44
0.20398481 0.11685042 0.99924999 2.9387401e-39
0.2014848 0.11435042 1.00175 0
0.2014848 0.11435042 1.00425 1.5414283e-44
0.2014848 0.11685042 1.00175 0
0.2014848 0.11685042 1.00425 0
0.20398481 0.11435042 1.00175 1.2611686e-44
0.20398481 0.11435042 1.00425 9.8090893e-45
0.20398481 0.11685042 1.00175 1.6530389e-39
0.20398481 0.11685042 1.00425 0
0.20648481 0.11185042 0.99924999 1.225262e-38
0.20898481 0.11185042 0.99924999 1.6217032e-38
0.20648481 0.11185042 1.00175 1.7032056e-38
0.20648481 0.11435042 0.99924999 1.17016e-38
0.20898481 0.11435042 0.99924999 1.5389067e-38
0.20648481 0.11435042 1.00175 7.7412239e-39
0.20648481 0.11435042 1.00425 7.2806059e-39
0.20648481 0.11685042 1.00175 1.170021e-38
0.20648481 0.11685042 1.00425 1.1331428e-38
0.20898481 0.11435042 1.00175 1.1702319e-38
0.20898481 0.11435042 1.00425 1.17016e-38
0.20898481 0.11685042 1.00175 1.5206855e-38
0.20898481 0.11685042 1.00425 1.216332e-38
0.2014848 0.11185042 1.00675 0
0.2014848 0.11435042 1.00675 0
0.2014848 0.11435042 1.00925 0
0.2014848 0.11685042 1.00675 0
0.20398481 0.11685042 1.00675 0
0.20648481 0.11435042 1.00675 7.2838107e-39
0.20648481 0.11685042 1.00675 9.8620639e-39
0.20898481 0.11685042 1.00675 1.1977854e-38
0.20898481 0.11685042 1.00925 1.1979652e-38
0.2014848 0.11935042 1.00175 1.4349296e-42
0.2014848 0.11935042 1.00425 1.5414283e-44
0.2014848 0.12185042 1.00175 8.6634955e-39
0.2014848 0.12185042 1.00425 7.9270123e-39
0.20398481 0.11935042 1.00175 7.8297888e-39
0.20398481 0.11935042 1.00425 7.0947475e-39
0.20398481 0.12185042 1.00175 8.8475533e-39
0.20398481 0.12185042 1.00425 8.4780701e-39
0.2014848 0.12435042 1.00175 1.0225786e-38
0.2014848 0.12435042 1.00425 1.0871876e-38
0.20398481 0.12435042 1.00175 8.7549905e-39
0.20398481 0.12435042 1.00425 8.8446666e-39
0.20648481 0.11935042 1.00175 1.1703517e-38
0.20648481 0.11935042 1.00425 1.1703517e-38
0.20648481 0.12185042 1.00175 1.4374259e-38
0.20648481 0.12185042 1.00425 1.1798172e-38
0.20898481 0.11935042 1.00425 1.3359734e-38
0.20898481 0.12185042 1.00425 1.5017828e-38
0.20648481 0.12435042 1.00425 1.0045729e-38
0.2014848 0.11935042 1.00675 2.1622035e-42
0.2014848 0.12185042 1.00675 8.0202939e-39
0.20398481 0.11935042 1.00675 0
0.20398481 0.12185042 1.00675 7.8362628e-39
0.20648481 0.11935042 1.00675 2.7557095e-40
0.20648481 0.12185042 1.00675 8.4794798e-39
0.20898481 0.11935042 1.00675 1.326826e-38
0.20898481 0.11935042 1.00925 1.1245057e-38
0.20898481 0.12185042 1.00675 1.3544849e-38
0.20898481 0.12185042 1.00925 1.2534993e-38
0.2114848 0.11435042 1.00175 1.8426511e-38
0.2114848 0.11435042 1.00425 1.54827e-38
0.2114848 0.11685042 1.00425 1.5113597e-38
0.2114848 0.11685042 1.00675 1.5572763e-38
0.2114848 0.11685042 1.00925 1.5390167e-38
0.2114848 0.11935042 1.00925 1.5756821e-38
0.2114848 0.11935042 1.01175 1.3177141e-38
0.2014848 0.11435042 1.01675 0
0.15648481 0.089350417 1.07675 9.219563e-40
0.15898481 0.089350417 1.07675 1.4765552e-39
