# .PCD v0.7 - Point Cloud Data file format
VERSION 0.7
FIELDS x y z rgb
SIZE 4 4 4 4
TYPE F F F F
COUNT 1 1 1 1
WIDTH 544
HEIGHT 1
VIEWPOINT 0 0 0 1 0 0 0
POINTS 544
DATA ascii
-0.27806807 0.089188859 1.0617501 1.6815582e-44
-0.27806807 0.091688856 1.0617501 4.6040166e-39
-0.27306807 0.084188856 1.05925 1.5612034e-39
-0.27556807 0.084188856 1.0617501 1.3914258e-38
-0.27306807 0.081688859 1.0617501 0
-0.27306807 0.084188856 1.0617501 1.6530389e-39
-0.27056807 0.081688859 1.0567501 0
-0.27056807 0.081688859 1.05925 0
-0.27056807 0.084188856 1.0567501 0
-0.27056807 0.084188856 1.05925 1.4012985e-45
-0.26806808 0.081688859 1.0567501 0
-0.26806808 0.081688859 1.05925 0
-0.26806808 0.084188856 1.0567501 1.8439126e-40
-0.26806808 0.084188856 1.05925 7.0064923e-45
-0.27056807 0.081688859 1.0617501 0
-0.27056807 0.084188856 1.0617501 9.8090893e-45
-0.26806808 0.081688859 1.0617501 3.3060779e-39
-0.26806808 0.084188856 1.0617501 2.1122164e-39
-0.26556808 0.081688859 1.05925 3.0305714e-39
-0.26556808 0.084188856 1.05925 1.2856969e-39
-0.26306808 0.084188856 1.05925 4.6836103e-39
-0.26556808 0.081688859 1.0617501 8.7405725e-39
-0.26556808 0.084188856 1.0617501 2.3877229e-39
-0.26306808 0.084188856 1.0617501 4.1325973e-39
-0.27306807 0.086688854 1.05925 3.4919012e-39
-0.27306807 0.089188859 1.05925 3.5938317e-39
-0.27556807 0.086688854 1.0617501 1.0498401e-38
-0.27556807 0.089188859 1.0617501 2.6718614e-39
-0.27306807 0.086688854 1.0617501 3.5840955e-39
-0.27306807 0.089188859 1.0617501 3.6856546e-39
-0.27306807 0.091688856 1.05925 3.4090873e-39
-0.27306807 0.094188854 1.05925 3.6820799e-39
-0.27556807 0.091688856 1.0617501 2.7647773e-39
-0.27556807 0.094188854 1.0617501 3.1299627e-39
-0.27306807 0.091688856 1.0617501 3.4101467e-39
-0.27306807 0.094188854 1.0617501 3.9597247e-39
-0.27056807 0.086688854 1.0567501 1.1981929e-39
-0.27056807 0.086688854 1.05925 4.6422496e-40
-0.27056807 0.089188859 1.05925 2.5807742e-39
-0.26806808 0.086688854 1.0567501 1.1981929e-39
-0.26806808 0.086688854 1.05925 4.6422496e-40
-0.26806808 0.089188859 1.05925 2.5807742e-39
-0.27056807 0.086688854 1.0617501 1.1056385e-39
-0.27056807 0.089188859 1.0617501 3.1346514e-39
-0.26806808 0.086688854 1.0617501 7.0064923e-45
-0.26806808 0.089188859 1.0617501 2.3963773e-39
-0.27056807 0.091688856 1.05925 3.4097964e-39
-0.27056807 0.094188854 1.05925 3.4991179e-39
-0.26806808 0.091688856 1.0567501 3.4094404e-39
-0.26806808 0.091688856 1.05925 3.4094404e-39
-0.26806808 0.094188854 1.0567501 3.3172448e-39
-0.26806808 0.094188854 1.05925 3.5913136e-39
-0.27056807 0.091688856 1.0617501 3.3172448e-39
-0.27056807 0.094188854 1.0617501 3.4991179e-39
-0.26806808 0.091688856 1.0617501 3.5938373e-39
-0.26806808 0.094188854 1.0617501 4.1430398e-39
-0.27556807 0.096688859 1.0617501 2.759755e-39
-0.27306807 0.096688859 1.0617501 2.9441463e-39
-0.26806808 0.096688859 1.05925 2.7633522e-39
-0.27056807 0.096688859 1.0617501 2.947033e-39
-0.26806808 0.096688859 1.0617501 2.7633522e-39
-0.26556808 0.091688856 1.05425 4.052642e-39
-0.26556808 0.094188854 1.05425 3.8682508e-39
-0.26306808 0.091688856 1.05425 4.0544567e-39
-0.26306808 0.094188854 1.05425 3.6860329e-39
-0.26056808 0.089188859 1.05425 8.2906002e-40
-0.25806808 0.089188859 1.05425 9.1835496e-41
-0.25806808 0.091688856 1.04925 1.9354076e-39
-0.25806808 0.094188854 1.04925 3.6856826e-39
-0.26056808 0.091688856 1.05425 2.3974367e-39
-0.26056808 0.094188854 1.05425 3.3172448e-39
-0.25806808 0.091688856 1.05425 1.9357579e-39
-0.25806808 0.094188854 1.05425 3.133948e-39
-0.26556808 0.086688854 1.0567501 1.3775366e-39
-0.26556808 0.086688854 1.05925 4.2038954e-45
-0.26556808 0.089188859 1.0567501 3.3186895e-39
-0.26556808 0.089188859 1.05925 2.7655158e-39
-0.26306808 0.086688854 1.0567501 0
-0.26306808 0.086688854 1.05925 0
-0.26306808 0.089188859 1.0567501 1.1981929e-39
-0.26306808 0.089188859 1.05925 1.4747798e-39
-0.26556808 0.086688854 1.0617501 1.4012985e-45
-0.26556808 0.089188859 1.0617501 1.3825841e-39
-0.26306808 0.086688854 1.0617501 0
-0.26306808 0.089188859 1.0617501 4.5917748e-40
-0.26556808 0.091688856 1.0567501 3.8700641e-39
-0.26556808 0.091688856 1.05925 3.8704144e-39
-0.26556808 0.094188854 1.0567501 3.4090873e-39
-0.26556808 0.094188854 1.05925 4.1444873e-39
-0.26306808 0.091688856 1.0567501 2.947033e-39
-0.26306808 0.091688856 1.05925 3.3165414e-39
-0.26306808 0.094188854 1.0567501 3.8679005e-39
-0.26306808 0.094188854 1.05925 4.5103986e-39
-0.26556808 0.091688856 1.0617501 3.9600961e-39
-0.26556808 0.094188854 1.0617501 4.6040166e-39
-0.26056808 0.089188859 1.0567501 8.2941034e-40
-0.26056808 0.089188859 1.05925 1.8404094e-40
-0.25806808 0.089188859 1.0567501 2.7658689e-40
-0.25806808 0.089188859 1.05925 4.2038954e-45
-0.26056808 0.089188859 1.0617501 1.5612034e-39
-0.25806808 0.089188859 1.0617501 0
-0.26056808 0.091688856 1.0567501 2.3956472e-39
-0.26056808 0.091688856 1.05925 2.6711719e-39
-0.26056808 0.094188854 1.0567501 2.9484623e-39
-0.25806808 0.091688856 1.0567501 1.8435623e-39
-0.25806808 0.091688856 1.05925 2.0250865e-39
-0.25806808 0.094188854 1.0567501 2.9484679e-39
-0.25806808 0.096688859 1.04925 3.4090873e-39
-0.25806808 0.099188857 1.04925 2.7633522e-39
-0.26056808 0.096688859 1.05425 3.3179511e-39
-0.26056808 0.099188857 1.05425 3.0402852e-39
-0.25806808 0.096688859 1.05425 4.1416203e-39
-0.25806808 0.099188857 1.05425 3.4069223e-39
-0.25806808 0.10168885 1.04925 2.8526695e-39
-0.26056808 0.10168885 1.05425 3.1288963e-39
-0.25806808 0.10168885 1.05425 2.7647773e-39
-0.26556808 0.096688859 1.0567501 3.2250478e-39
-0.26556808 0.096688859 1.05925 2.9473833e-39
-0.26306808 0.096688859 1.0567501 3.0399377e-39
-0.26306808 0.096688859 1.05925 3.5913136e-39
-0.26306808 0.099188857 1.0567501 2.4860576e-39
-0.26556808 0.096688859 1.0617501 4.1423209e-39
-0.26056808 0.096688859 1.0567501 3.5909408e-39
-0.26056808 0.099188857 1.0567501 2.7633522e-39
-0.28056806 0.089188859 1.06925 2.6632658e-39
-0.27806807 0.086688854 1.06675 1.0028412e-38
-0.27806807 0.086688854 1.06925 1.1225518e-38
-0.27806807 0.089188859 1.06675 3.6784968e-39
-0.27806807 0.089188859 1.06925 3.1278397e-39
-0.28056806 0.091688856 1.06675 4.0547552e-39
-0.28056806 0.091688856 1.06925 4.052642e-39
-0.28056806 0.094188854 1.06925 7.4552357e-39
-0.27806807 0.091688856 1.06675 3.3143287e-39
-0.27806807 0.091688856 1.06925 2.7619032e-39
-0.27806807 0.094188854 1.06675 3.7681462e-39
-0.27806807 0.094188854 1.06925 3.7688497e-39
-0.28056806 0.091688856 1.07175 3.8395578e-43
-0.28056806 0.094188854 1.07175 4.6972505e-39
-0.27556807 0.084188856 1.06675 1.428268e-38
-0.27306807 0.084188856 1.06675 1.5612034e-39
-0.27556807 0.086688854 1.06675 1.0314369e-38
-0.27556807 0.089188859 1.06675 4.6908088e-39
-0.27306807 0.086688854 1.06675 3.8585258e-39
-0.27306807 0.089188859 1.06675 5.0603102e-39
-0.27556807 0.091688856 1.06675 2.7647773e-39
-0.27556807 0.091688856 1.06925 3.3168917e-39
-0.27556807 0.094188854 1.06675 2.7630018e-39
-0.27556807 0.094188854 1.06925 2.947033e-39
-0.27306807 0.091688856 1.06675 3.4097908e-39
-0.27306807 0.094188854 1.06675 3.2253953e-39
-0.27056807 0.089188859 1.06675 2.0308374e-39
-0.26806808 0.089188859 1.06675 2.2123448e-39
-0.27056807 0.091688856 1.06675 3.1346514e-39
-0.26806808 0.091688856 1.06675 3.0421027e-39
-0.26556808 0.086688854 1.06675 0
-0.26556808 0.089188859 1.06675 1.2903885e-39
-0.26306808 0.086688854 1.06675 0
-0.26306808 0.089188859 1.06675 5.6051939e-45
-0.26056808 0.089188859 1.06675 1.102026e-39
-0.22056808 0.10418886 1.02425 2.947033e-39
-0.21806808 0.10418886 1.02425 2.7630018e-39
-0.21056807 0.10418886 1.02425 0
-0.20806807 0.10418886 1.02425 0
-0.24806808 0.089188859 1.04425 1.1938615e-39
-0.24806808 0.091688856 1.04425 8.2941034e-40
-0.24806808 0.094188854 1.04425 1.9357579e-39
-0.25056806 0.099188857 1.04425 3.3140078e-39
-0.24806808 0.096688859 1.0417501 3.4991179e-39
-0.24806808 0.096688859 1.04425 4.0529924e-39
-0.24806808 0.099188857 1.0417501 4.1430398e-39
-0.24806808 0.099188857 1.04425 3.8675473e-39
-0.25056806 0.10168885 1.04425 3.0370608e-39
-0.25056806 0.10418886 1.04425 2.3949158e-39
-0.24806808 0.10168885 1.0417501 3.2218122e-39
-0.24806808 0.10168885 1.04425 3.4980389e-39
-0.24806808 0.10418886 1.0417501 3.0370608e-39
-0.24806808 0.10418886 1.04425 3.0370608e-39
-0.24556807 0.091688856 1.04425 0
-0.24556807 0.094188854 1.04425 1.8410441e-39
-0.24306807 0.091688856 1.04425 0
-0.24306807 0.094188854 1.04425 1.0109247e-39
-0.24556807 0.096688859 1.0417501 3.5913136e-39
-0.24556807 0.096688859 1.04425 4.0529924e-39
-0.24556807 0.099188857 1.0417501 4.052642e-39
-0.24556807 0.099188857 1.04425 4.0522917e-39
-0.24306807 0.096688859 1.04425 3.222531e-39
-0.24306807 0.099188857 1.0417501 3.959743e-39
-0.24306807 0.099188857 1.04425 3.7757048e-39
-0.24556807 0.10168885 1.0417501 3.5902346e-39
-0.24556807 0.10168885 1.04425 3.4998242e-39
-0.24556807 0.10418886 1.0417501 3.0370608e-39
-0.24556807 0.10418886 1.04425 3.1299627e-39
-0.24306807 0.10168885 1.0417501 3.2253953e-39
-0.24306807 0.10168885 1.04425 3.4998242e-39
-0.24306807 0.10418886 1.0417501 3.3143553e-39
-0.24306807 0.10418886 1.04425 3.2221597e-39
-0.24056807 0.096688859 1.04425 2.0250809e-39
-0.24056807 0.099188857 1.04425 2.7633522e-39
-0.23806807 0.096688859 1.04425 1.4736727e-39
-0.23806807 0.099188857 1.04425 1.5702124e-39
-0.24056807 0.10168885 1.0417501 3.2250478e-39
-0.24056807 0.10168885 1.04425 3.5913136e-39
-0.24056807 0.10418886 1.0417501 3.2218122e-39
-0.24056807 0.10418886 1.04425 3.3143553e-39
-0.23806807 0.10168885 1.0417501 3.0410167e-39
-0.23806807 0.10168885 1.04425 3.4090873e-39
-0.23806807 0.10418886 1.0417501 3.6824302e-39
-0.23806807 0.10418886 1.04425 3.4069223e-39
-0.25556809 0.089188859 1.04925 1.8367099e-40
-0.25306806 0.089188859 1.0467501 0
-0.25306806 0.089188859 1.04925 0
-0.25556809 0.089188859 1.05425 0
-0.25306806 0.089188859 1.05425 0
-0.25556809 0.091688856 1.04925 1.2900382e-39
-0.25556809 0.094188854 1.04925 3.408737e-39
-0.25306806 0.091688856 1.0467501 1.1974866e-39
-0.25306806 0.091688856 1.04925 9.2266255e-40
-0.25306806 0.094188854 1.0467501 3.4097964e-39
-0.25306806 0.094188854 1.04925 3.0424558e-39
-0.25556809 0.091688856 1.05425 1.7510079e-39
-0.25556809 0.094188854 1.05425 2.6729698e-39
-0.25306806 0.091688856 1.05425 1.3793611e-39
-0.25306806 0.094188854 1.05425 2.5786092e-39
-0.25056806 0.089188859 1.0467501 0
-0.25056806 0.089188859 1.04925 0
-0.24806808 0.089188859 1.0467501 8.2651947e-40
-0.25056806 0.089188859 1.05425 1.1938615e-39
-0.25056806 0.091688856 1.0467501 6.4679453e-40
-0.25056806 0.091688856 1.04925 6.4287089e-40
-0.25056806 0.094188854 1.0467501 2.8580645e-39
-0.25056806 0.094188854 1.04925 2.7630018e-39
-0.24806808 0.091688856 1.0467501 4.591971e-40
-0.24806808 0.091688856 1.04925 1.2856969e-39
-0.24806808 0.094188854 1.0467501 1.9361082e-39
-0.24806808 0.094188854 1.04925 1.1985432e-39
-0.25056806 0.091688856 1.05425 1.6530614e-39
-0.25056806 0.094188854 1.05425 2.3938592e-39
-0.24806808 0.091688856 1.05425 1.0101905e-39
-0.24806808 0.094188854 1.05425 0
-0.25556809 0.089188859 1.0567501 0
-0.25556809 0.089188859 1.0617501 0
-0.25556809 0.091688856 1.0567501 1.7510079e-39
-0.25556809 0.094188854 1.0567501 2.5793252e-39
-0.25556809 0.096688859 1.04925 3.3168917e-39
-0.25556809 0.099188857 1.04925 2.7633522e-39
-0.25306806 0.096688859 1.0467501 3.8679005e-39
-0.25306806 0.096688859 1.04925 3.3172448e-39
-0.25306806 0.099188857 1.0467501 3.2253953e-39
-0.25306806 0.099188857 1.04925 2.8562667e-39
-0.25556809 0.096688859 1.05425 3.9600961e-39
-0.25556809 0.099188857 1.05425 3.5913136e-39
-0.25306806 0.096688859 1.05425 3.4069223e-39
-0.25306806 0.099188857 1.05425 3.5902346e-39
-0.25556809 0.10168885 1.04925 2.4867639e-39
-0.25306806 0.10168885 1.0467501 2.7647773e-39
-0.25306806 0.10168885 1.04925 2.7647773e-39
-0.25556809 0.10168885 1.05425 3.2218122e-39
-0.25306806 0.10168885 1.05425 2.7633522e-39
-0.25056806 0.096688859 1.0467501 3.4069223e-39
-0.25056806 0.096688859 1.04925 3.2250478e-39
-0.25056806 0.099188857 1.0467501 3.0410167e-39
-0.25056806 0.099188857 1.04925 3.0410167e-39
-0.24806808 0.096688859 1.0467501 2.7637179e-39
-0.24806808 0.096688859 1.04925 2.5796784e-39
-0.24806808 0.099188857 1.0467501 3.408737e-39
-0.25056806 0.10168885 1.0467501 2.7647773e-39
-0.25056806 0.10168885 1.04925 3.3143553e-39
-0.25056806 0.10418886 1.0467501 2.5789595e-39
-0.24556807 0.091688856 1.0467501 0
-0.24556807 0.091688856 1.04925 4.3162683e-39
-0.24556807 0.094188854 1.0467501 2.0254368e-39
-0.24556807 0.094188854 1.04925 1.1963726e-39
-0.24306807 0.091688856 1.0467501 0
-0.24306807 0.094188854 1.0467501 7.3469798e-40
-0.24306807 0.094188854 1.04925 8.2651947e-40
-0.24556807 0.091688856 1.05425 4.3162683e-39
-0.24556807 0.094188854 1.05425 0
-0.24306807 0.091688856 1.05425 7.6223462e-39
-0.24306807 0.094188854 1.05425 1.4693679e-39
-0.24056807 0.091688856 1.0467501 3.0309301e-39
-0.24056807 0.094188854 1.0467501 9.1837318e-40
-0.24056807 0.094188854 1.04925 9.1835496e-40
-0.23806807 0.094188854 1.0467501 4.3162683e-39
-0.23806807 0.094188854 1.04925 3.9489263e-39
-0.24056807 0.094188854 1.05425 3.4911866e-39
-0.24556807 0.096688859 1.0467501 1.8435623e-39
-0.24556807 0.096688859 1.04925 1.3829344e-39
-0.24556807 0.099188857 1.0467501 2.9484623e-39
-0.24556807 0.099188857 1.04925 3.3172448e-39
-0.24306807 0.096688859 1.0467501 1.1056385e-39
-0.24306807 0.096688859 1.04925 7.3899016e-40
-0.24306807 0.099188857 1.0467501 2.764071e-39
-0.24306807 0.099188857 1.04925 1.9357579e-39
-0.24056807 0.096688859 1.0467501 2.7623797e-40
-0.24056807 0.096688859 1.04925 1.8582339e-40
-0.24056807 0.099188857 1.0467501 2.764071e-39
-0.24056807 0.099188857 1.04925 1.3825841e-39
-0.23806807 0.096688859 1.0467501 0
-0.23806807 0.096688859 1.04925 0
-0.23806807 0.099188857 1.0467501 2.0276032e-39
-0.23806807 0.099188857 1.04925 1.2903885e-39
-0.24056807 0.10168885 1.0467501 3.7757048e-39
-0.24056807 0.10418886 1.0467501 4.1419706e-39
-0.23806807 0.10168885 1.0467501 3.3168917e-39
-0.22806807 0.10168885 1.03425 2.3938592e-39
-0.22806807 0.10418886 1.0317501 3.7753517e-39
-0.22806807 0.10418886 1.03425 2.9484623e-39
-0.23556808 0.096688859 1.04425 2.7623797e-40
-0.23556808 0.099188857 1.0417501 2.1176324e-39
-0.23556808 0.099188857 1.04425 4.6422496e-40
-0.23306808 0.096688859 1.04425 1.0101905e-39
-0.23306808 0.099188857 1.0417501 9.2160738e-40
-0.23306808 0.099188857 1.04425 5.5282345e-40
-0.23556808 0.10418886 1.0367501 3.3140078e-39
-0.23306808 0.10168885 1.0367501 2.7633522e-39
-0.23306808 0.10418886 1.0367501 3.5913136e-39
-0.23556808 0.10168885 1.0417501 2.6715223e-39
-0.23556808 0.10168885 1.04425 2.764071e-39
-0.23556808 0.10418886 1.0417501 3.4991179e-39
-0.23556808 0.10418886 1.04425 3.4069223e-39
-0.23306808 0.10168885 1.0417501 1.9357579e-39
-0.23306808 0.10168885 1.04425 2.7633522e-39
-0.23306808 0.10418886 1.0417501 3.3172448e-39
-0.23306808 0.10418886 1.04425 2.8562667e-39
-0.22806807 0.096688859 1.0367501 3.3979134e-39
-0.22806807 0.099188857 1.0367501 0
-0.23056808 0.096688859 1.04425 3.9489263e-39
-0.23056808 0.099188857 1.0417501 7.0064923e-45
-0.23056808 0.099188857 1.04425 8.2651947e-40
-0.22806807 0.096688859 1.0417501 4.8672813e-39
-0.22806807 0.096688859 1.04425 4.9591168e-39
-0.22806807 0.099188857 1.0417501 0
-0.22806807 0.099188857 1.04425 9.1835496e-41
-0.23056808 0.10168885 1.0367501 2.6711551e-39
-0.23056808 0.10418886 1.0367501 3.4094404e-39
-0.22806807 0.10168885 1.0367501 1.5666265e-39
-0.22806807 0.10418886 1.0367501 3.3165414e-39
-0.23056808 0.10168885 1.0417501 1.5669768e-39
-0.23056808 0.10168885 1.04425 2.1176324e-39
-0.23056808 0.10418886 1.0417501 2.6718754e-39
-0.23056808 0.10418886 1.04425 2.6708048e-39
-0.22806807 0.10168885 1.0417501 2.2055149e-39
-0.22806807 0.10168885 1.04425 1.472263e-39
-0.22806807 0.10418886 1.0417501 9.2125705e-40
-0.22806807 0.10418886 1.04425 1.9332398e-39
-0.22306807 0.099188857 1.03425 1.102026e-39
-0.22306807 0.10418886 1.02675 2.2123448e-39
-0.22556807 0.10168885 1.03425 8.2689361e-40
-0.22556807 0.10418886 1.0317501 3.2221779e-39
-0.22556807 0.10418886 1.03425 2.9484623e-39
-0.22306807 0.10168885 1.03425 1.011631e-39
-0.22306807 0.10418886 1.03425 1.7510079e-39
-0.22056808 0.099188857 1.03425 1.0201632e-38
-0.22056808 0.10418886 1.02675 1.9332398e-39
-0.21806808 0.10418886 1.02675 1.7481423e-39
-0.22056808 0.10168885 1.0317501 0
-0.22056808 0.10168885 1.03425 3.6734198e-40
-0.22056808 0.10418886 1.0317501 2.6668531e-39
-0.22056808 0.10418886 1.03425 2.0254368e-39
-0.21806808 0.10168885 1.0317501 0
-0.21806808 0.10168885 1.03425 0
-0.21806808 0.10418886 1.0317501 2.2984294e-39
-0.21806808 0.10418886 1.03425 1.472263e-39
-0.22556807 0.096688859 1.0367501 3.8570908e-39
-0.22556807 0.099188857 1.0367501 0
-0.22306807 0.099188857 1.0367501 8.2651947e-40
-0.22556807 0.099188857 1.0417501 0
-0.22556807 0.099188857 1.04425 0
-0.22306807 0.099188857 1.0417501 7.3468397e-40
-0.22306807 0.099188857 1.04425 1.0101905e-39
-0.22556807 0.10168885 1.0367501 1.3775324e-39
-0.22556807 0.10418886 1.0367501 1.9357579e-39
-0.22306807 0.10168885 1.0367501 4.6240607e-40
-0.22306807 0.10418886 1.0367501 2.3938592e-39
-0.22556807 0.10168885 1.0417501 6.4320721e-40
-0.22556807 0.10168885 1.04425 6.4284847e-40
-0.22556807 0.10418886 1.0417501 3.7021184e-40
-0.22306807 0.10168885 1.0417501 0
-0.22306807 0.10168885 1.04425 3.1224069e-39
-0.22306807 0.10418886 1.0417501 1.3775366e-39
-0.22056808 0.099188857 1.0367501 1.0201632e-38
-0.22056808 0.10168885 1.0367501 5.5101298e-40
-0.22056808 0.10418886 1.0367501 2.4817416e-39
-0.21806808 0.10168885 1.0367501 0
-0.21806808 0.10418886 1.0367501 7.3504691e-40
-0.22056808 0.10168885 1.0417501 3.9489263e-39
-0.22056808 0.10418886 1.0417501 2.1129605e-39
-0.22056808 0.10418886 1.04425 1.6562941e-39
-0.21806808 0.10418886 1.0417501 1.3775465e-39
-0.21806808 0.10418886 1.04425 1.4700854e-39
-0.23556808 0.094188854 1.0467501 4.7754458e-39
-0.23556808 0.094188854 1.04925 4.2244328e-39
-0.23306808 0.094188854 1.0467501 6.7039912e-39
-0.23556808 0.096688859 1.0467501 0
-0.23556808 0.096688859 1.04925 3.6734198e-40
-0.23556808 0.099188857 1.0467501 8.2906002e-40
-0.23556808 0.099188857 1.04925 0
-0.23306808 0.096688859 1.0467501 1.7448744e-39
-0.23306808 0.096688859 1.04925 1.9285454e-39
-0.23306808 0.099188857 1.0467501 2.7801762e-40
-0.23306808 0.099188857 1.04925 6.4284847e-40
-0.23556808 0.10168885 1.0467501 2.6715223e-39
-0.23306808 0.10168885 1.0467501 2.3938592e-39
-0.23306808 0.10168885 1.04925 2.3938592e-39
-0.23056808 0.096688859 1.0467501 1.1126803e-38
-0.23056808 0.096688859 1.04925 1.1490916e-38
-0.23056808 0.099188857 1.0467501 3.1224069e-39
-0.23056808 0.099188857 1.04925 4.3162683e-39
-0.23056808 0.10168885 1.04925 1.1974866e-39
-0.22056808 0.10418886 1.0467501 0
-0.21556808 0.10418886 1.0317501 1.3775324e-39
-0.21556808 0.10418886 1.03425 6.4284847e-40
-0.21556808 0.10418886 1.0367501 0
-0.21556808 0.10418886 1.0417501 0
-0.22556807 0.10918885 1.02425 2.9473833e-39
-0.22306807 0.10668886 1.02425 3.4076286e-39
-0.22306807 0.10918885 1.02425 3.4980389e-39
-0.22556807 0.11168886 1.02425 3.0370608e-39
-0.22306807 0.11168886 1.02425 3.3140078e-39
-0.21806808 0.10918885 1.01925 4.0414919e-39
-0.22056808 0.10668886 1.02425 3.5913136e-39
-0.22056808 0.10918885 1.02175 2.2073001e-39
-0.22056808 0.10918885 1.02425 3.1306829e-39
-0.21806808 0.10668886 1.02425 3.2214619e-39
-0.21806808 0.10918885 1.02175 4.2265894e-39
-0.21806808 0.10918885 1.02425 3.1299627e-39
-0.22056808 0.11168886 1.02175 9.1835496e-41
-0.22056808 0.11168886 1.02425 9.1835496e-41
-0.22056808 0.11418886 1.02425 9.1835496e-41
-0.21806808 0.11168886 1.02175 5.6948812e-39
-0.21806808 0.11168886 1.02425 5.9693073e-39
-0.21806808 0.11418886 1.02425 5.3264588e-39
-0.21556808 0.10668886 1.02425 2.1190519e-39
-0.21556808 0.10918885 1.02425 3.037767e-39
-0.21556808 0.11168886 1.02425 1.5556935e-38
-0.21556808 0.11418886 1.02425 1.6112263e-38
-0.21306807 0.11418886 1.02425 1.3169955e-38
-0.21056807 0.10668886 1.02425 0
-0.20806807 0.10668886 1.02425 0
-0.21056807 0.11168886 1.02425 8.1064163e-39
-0.21056807 0.11418886 1.02425 1.418988e-38
-0.20806807 0.11168886 1.02425 1.0862929e-38
-0.20806807 0.11418886 1.02425 1.3820357e-38
-0.20556808 0.10668886 1.02425 1.2446044e-38
-0.20306808 0.10668886 1.02175 1.5110392e-38
-0.20306808 0.10668886 1.02425 1.8428719e-38
-0.20306808 0.10918885 1.02175 1.6214209e-38
-0.20306808 0.10918885 1.02425 1.861309e-38
-0.24806808 0.10668886 1.0417501 1.3800674e-39
-0.24556807 0.10668886 1.0417501 1.8413945e-39
-0.24306807 0.10668886 1.0417501 2.118689e-39
-0.24056807 0.10668886 1.0367501 2.6711551e-39
-0.24056807 0.10918885 1.0367501 2.3945654e-39
-0.23806807 0.10668886 1.0367501 2.9473833e-39
-0.23806807 0.10918885 1.0367501 3.0363419e-39
-0.24056807 0.10668886 1.0417501 3.1296151e-39
-0.23806807 0.10668886 1.0417501 3.1296151e-39
-0.23306808 0.10668886 1.03425 3.2221597e-39
-0.23306808 0.10918885 1.03425 2.3949158e-39
-0.22806807 0.10668886 1.02675 3.5909408e-39
-0.22806807 0.10918885 1.02675 2.7633522e-39
-0.23056808 0.10668886 1.0317501 3.2218122e-39
-0.23056808 0.10668886 1.03425 3.3140078e-39
-0.23056808 0.10918885 1.0317501 2.9448652e-39
-0.23056808 0.10918885 1.03425 3.0370608e-39
-0.22806807 0.10668886 1.0317501 3.4998242e-39
-0.22806807 0.10668886 1.03425 3.9600961e-39
-0.22806807 0.10918885 1.0317501 3.3140078e-39
-0.22806807 0.10918885 1.03425 3.3140078e-39
-0.22806807 0.11168886 1.02675 2.0257857e-39
-0.23056808 0.11168886 1.0317501 1.7484898e-39
-0.22806807 0.11168886 1.0317501 2.9448652e-39
-0.23556808 0.10668886 1.0367501 3.3143553e-39
-0.23556808 0.10918885 1.0367501 3.3143553e-39
-0.23306808 0.10668886 1.0367501 3.5913136e-39
-0.23306808 0.10918885 1.0367501 3.3150742e-39
-0.23556808 0.10668886 1.0417501 3.5902346e-39
-0.23056808 0.10668886 1.0367501 3.8679005e-39
-0.22806807 0.10668886 1.0367501 3.957578e-39
-0.22556807 0.10668886 1.02675 3.5902346e-39
-0.22556807 0.10918885 1.02675 3.3140078e-39
-0.22306807 0.10668886 1.02675 3.2253981e-39
-0.22306807 0.10918885 1.02675 3.4076286e-39
-0.22556807 0.10668886 1.0317501 3.5920198e-39
-0.22556807 0.10668886 1.03425 3.8653823e-39
-0.22306807 0.10668886 1.0317501 2.9484623e-39
-0.22306807 0.10668886 1.03425 3.5920226e-39
-0.22556807 0.11168886 1.02675 3.3132749e-39
-0.22306807 0.11168886 1.02675 2.6711551e-39
-0.22056808 0.10668886 1.02675 3.2253981e-39
-0.22056808 0.10918885 1.02675 2.764071e-39
-0.21806808 0.10668886 1.02675 2.9466532e-39
-0.21806808 0.10918885 1.02675 2.8533758e-39
-0.22056808 0.10668886 1.0317501 3.2218122e-39
-0.21806808 0.10668886 1.0317501 2.4842457e-39
-0.21806808 0.10668886 1.03425 1.6566445e-39
-0.22056808 0.11168886 1.02675 1.8367099e-40
-0.21806808 0.11168886 1.02675 1.5373623e-38
-0.22556807 0.10668886 1.0367501 3.0410138e-39
-0.21806808 0.10668886 1.0367501 1.5619209e-39
-0.21556808 0.10668886 1.02675 2.4845806e-39
-0.21556808 0.10918885 1.02675 3.0374714e-39
-0.21306807 0.10918885 1.02675 4.1431029e-39
-0.21556808 0.10668886 1.0317501 1.7495464e-39
-0.21556808 0.10668886 1.03425 1.7495464e-39
-0.21306807 0.10668886 1.0317501 1.8104776e-42
-0.21306807 0.10668886 1.03425 5.51034e-40
-0.21306807 0.10918885 1.0317501 2.9517595e-39
-0.21556808 0.11168886 1.02675 1.5377628e-38
-0.21306807 0.11168886 1.02675 1.5562018e-38
-0.21306807 0.11168886 1.0317501 9.6755623e-39
-0.21056807 0.10668886 1.02675 2.8025969e-45
-0.21056807 0.10918885 1.02675 2.9427268e-44
-0.20806807 0.10668886 1.02675 0
-0.20806807 0.10918885 1.02675 0
-0.21056807 0.10668886 1.0317501 0
-0.21056807 0.10668886 1.03425 0
-0.21056807 0.10918885 1.0317501 2.9427268e-44
-0.21056807 0.10918885 1.03425 0
-0.20806807 0.10668886 1.0317501 0
-0.20806807 0.10668886 1.03425 1.2446044e-38
-0.20806807 0.10918885 1.0317501 0
-0.20806807 0.10918885 1.03425 1.4285637e-38
-0.21056807 0.11168886 1.02675 8.3804893e-39
-0.20806807 0.11168886 1.02675 1.1321386e-38
-0.21056807 0.11168886 1.0317501 4.2038954e-44
-0.20806807 0.11168886 1.0317501 3.7653352e-39
-0.21556808 0.10668886 1.0367501 2.757576e-39
-0.21556808 0.10918885 1.0367501 2.118689e-39
-0.21306807 0.10668886 1.0367501 0
-0.21306807 0.10918885 1.0367501 0
-0.21056807 0.10918885 1.0367501 0
-0.20806807 0.10918885 1.0367501 1.2446041e-38
-0.20556808 0.10668886 1.02675 1.2353849e-38
-0.20556808 0.10918885 1.02675 1.4285637e-38
-0.20556808 0.10668886 1.0317501 1.464977e-38
-0.20556808 0.10668886 1.03425 1.492528e-38
-0.20556808 0.10918885 1.0317501 1.5847944e-38
-0.20556808 0.10918885 1.03425 1.6213853e-38
-0.20306808 0.10918885 1.03425 1.8151759e-38
-0.20556808 0.11168886 1.02675 1.777868e-38
-0.20556808 0.11168886 1.0317501 1.8702018e-38
-0.20306808 0.11168886 1.0317501 1.9992757e-38
-0.20556808 0.10918885 1.0367501 1.4925283e-38
