# .PCD v0.7 - Point Cloud Data file format
VERSION 0.7
FIELDS x y z rgb
SIZE 4 4 4 4
TYPE F F F F
COUNT 1 1 1 1
WIDTH 597
HEIGHT 1
VIEWPOINT 0 0 0 1 0 0 0
POINTS 597
DATA ascii
-0.27679563 0.086052649 1.05925 9.474902e-39
-0.27679563 0.086052649 1.0617501 9.5685073e-39
-0.27679563 0.088552646 1.05925 2.9434484e-39
-0.27679563 0.091052651 1.05925 6.1208717e-42
-0.27679563 0.088552646 1.0617501 3.954355e-39
-0.27679563 0.091052651 1.0617501 2.5778623e-39
-0.27929562 0.093552649 1.0617501 6.9949736e-39
-0.27679563 0.093552649 1.0617501 3.7684993e-39
-0.27679563 0.096052647 1.0617501 3.0327448e-39
-0.27679563 0.098552652 1.0617501 1.3814869e-39
-0.27179563 0.083552651 1.05425 9.1835496e-40
-0.27179563 0.086052649 1.05425 2.7561411e-39
-0.26929563 0.081052653 1.05425 0
-0.26679564 0.081052653 1.05425 0
-0.26679564 0.083552651 1.04925 7.0064923e-45
-0.26929563 0.083552651 1.05425 5.6051939e-45
-0.26929563 0.086052649 1.05425 1.1063476e-39
-0.26679564 0.083552651 1.05425 1.5414283e-44
-0.26679564 0.086052649 1.05425 1.751717e-39
-0.27429563 0.083552651 1.05925 1.3914258e-38
-0.27429563 0.086052649 1.0567501 1.0129625e-38
-0.27429563 0.086052649 1.05925 9.9452338e-39
-0.27179563 0.083552651 1.0567501 1.5612034e-39
-0.27179563 0.083552651 1.05925 1.3775324e-39
-0.27179563 0.086052649 1.0567501 3.7681266e-39
-0.27179563 0.086052649 1.05925 3.3993483e-39
-0.27429563 0.083552651 1.0617501 1.3775324e-39
-0.27429563 0.086052649 1.0617501 3.123846e-39
-0.27179563 0.083552651 1.0617501 2.8025969e-45
-0.27179563 0.086052649 1.0617501 9.5082305e-41
-0.26929563 0.083552651 1.0567501 1.4012985e-45
-0.26929563 0.083552651 1.05925 1.6815582e-44
-0.26929563 0.086052649 1.0567501 3.7202933e-40
-0.26929563 0.086052649 1.05925 2.7947356e-40
-0.26679564 0.083552651 1.0567501 2.3877229e-39
-0.26679564 0.083552651 1.05925 1.4693679e-39
-0.26679564 0.086052649 1.0567501 2.5153307e-42
-0.26679564 0.086052649 1.05925 6.4501908e-40
-0.26929563 0.083552651 1.0617501 1.4012985e-44
-0.26929563 0.086052649 1.0617501 9.5082305e-41
-0.26679564 0.083552651 1.0617501 2.2958874e-39
-0.26679564 0.086052649 1.0617501 0
-0.26429564 0.081052653 1.05425 2.6632294e-39
-0.26429564 0.083552651 1.05425 1.3775324e-39
-0.26429564 0.083552651 1.0567501 1.2856969e-39
-0.26429564 0.083552651 1.05925 1.2856969e-39
-0.26429564 0.086052649 1.0567501 0
-0.26429564 0.086052649 1.05925 4.2038954e-45
-0.26179564 0.083552651 1.05925 4.6836103e-39
-0.26179564 0.086052649 1.0567501 0
-0.26179564 0.086052649 1.05925 0
-0.26429564 0.083552651 1.0617501 4.4999393e-39
-0.26429564 0.086052649 1.0617501 0
-0.26179564 0.086052649 1.0617501 0
-0.27429563 0.088552646 1.0567501 3.4973075e-39
-0.27429563 0.088552646 1.05925 4.4142191e-39
-0.27429563 0.091052651 1.0567501 2.9484679e-39
-0.27429563 0.091052651 1.05925 3.0406635e-39
-0.27179563 0.088552646 1.0567501 4.0501211e-39
-0.27179563 0.088552646 1.05925 5.0595871e-39
-0.27179563 0.091052651 1.0567501 3.2246764e-39
-0.27179563 0.091052651 1.05925 3.3168917e-39
-0.27429563 0.088552646 1.0617501 4.6904584e-39
-0.27429563 0.091052651 1.0617501 3.3165245e-39
-0.27179563 0.088552646 1.0617501 2.947033e-39
-0.27179563 0.091052651 1.0617501 3.3172448e-39
-0.27429563 0.093552649 1.0567501 2.4871114e-39
-0.27429563 0.093552649 1.05925 2.3016636e-39
-0.27429563 0.096052647 1.05925 1.7510079e-39
-0.27179563 0.093552649 1.0567501 2.7637081e-39
-0.27179563 0.093552649 1.05925 2.947033e-39
-0.27179563 0.096052647 1.05925 2.2123448e-39
-0.27429563 0.093552649 1.0617501 2.3938592e-39
-0.27429563 0.096052647 1.0617501 2.3938592e-39
-0.27179563 0.093552649 1.0617501 3.3143553e-39
-0.27179563 0.096052647 1.0617501 3.037767e-39
-0.26929563 0.088552646 1.0567501 1.8471594e-39
-0.26929563 0.088552646 1.05925 2.3967332e-39
-0.26929563 0.091052651 1.0567501 2.9484623e-39
-0.26929563 0.091052651 1.05925 2.9491713e-39
-0.26679564 0.088552646 1.0567501 1.9357579e-39
-0.26679564 0.088552646 1.05925 2.2126951e-39
-0.26679564 0.091052651 1.0567501 2.9484623e-39
-0.26679564 0.091052651 1.05925 3.2250478e-39
-0.26929563 0.088552646 1.0617501 2.947033e-39
-0.26929563 0.091052651 1.0617501 3.225045e-39
-0.26679564 0.088552646 1.0617501 1.7491988e-39
-0.26679564 0.091052651 1.0617501 2.7637179e-39
-0.26929563 0.093552649 1.0567501 3.3140078e-39
-0.26929563 0.093552649 1.05925 2.7647773e-39
-0.26929563 0.096052647 1.05925 3.2221597e-39
-0.26679564 0.093552649 1.0567501 3.4991179e-39
-0.26679564 0.093552649 1.05925 3.5913136e-39
-0.26679564 0.096052647 1.0567501 2.6711551e-39
-0.26679564 0.096052647 1.05925 3.4076286e-39
-0.26929563 0.093552649 1.0617501 3.0410167e-39
-0.26929563 0.096052647 1.0617501 2.7647773e-39
-0.27429563 0.098552652 1.05925 1.4747798e-39
-0.27179563 0.098552652 1.05925 1.5669768e-39
-0.27429563 0.098552652 1.0617501 2.1179828e-39
-0.27179563 0.098552652 1.0617501 2.1179828e-39
-0.26929563 0.098552652 1.05925 2.4867639e-39
-0.26679564 0.098552652 1.0567501 2.1179828e-39
-0.26679564 0.098552652 1.05925 3.0370608e-39
-0.26929563 0.098552652 1.0617501 2.3945654e-39
-0.26429564 0.091052651 1.05425 3.4094404e-39
-0.26179564 0.088552646 1.05425 1.8428532e-39
-0.26179564 0.091052651 1.05425 2.6736733e-39
-0.26429564 0.093552649 1.05425 3.8679005e-39
-0.26429564 0.096052647 1.05425 3.3143553e-39
-0.26179564 0.093552649 1.05425 3.3172448e-39
-0.26179564 0.096052647 1.05425 3.2221597e-39
-0.25929564 0.091052651 1.04925 2.3963829e-39
-0.25679561 0.088552646 1.04925 1.8367099e-40
-0.25679561 0.091052651 1.0467501 1.1974866e-39
-0.25679561 0.091052651 1.04925 1.4747798e-39
-0.25929564 0.088552646 1.05425 4.5991877e-40
-0.25929564 0.091052651 1.05425 1.9361082e-39
-0.25679561 0.088552646 1.05425 0
-0.25679561 0.091052651 1.05425 5.5607026e-40
-0.25929564 0.093552649 1.04925 2.9484623e-39
-0.25929564 0.096052647 1.04925 3.4987452e-39
-0.25679561 0.093552649 1.0467501 3.5938373e-39
-0.25679561 0.093552649 1.04925 2.6733201e-39
-0.25679561 0.096052647 1.0467501 3.5913192e-39
-0.25679561 0.096052647 1.04925 3.4069223e-39
-0.25929564 0.093552649 1.05425 3.222531e-39
-0.25929564 0.096052647 1.05425 3.0399377e-39
-0.25679561 0.093552649 1.05425 2.5789595e-39
-0.26429564 0.088552646 1.0567501 1.1981929e-39
-0.26429564 0.088552646 1.05925 1.9361082e-39
-0.26429564 0.091052651 1.0567501 3.5938317e-39
-0.26429564 0.091052651 1.05925 2.3970864e-39
-0.26179564 0.088552646 1.0567501 9.2125985e-40
-0.26179564 0.088552646 1.05925 0
-0.26179564 0.091052651 1.0567501 1.1092384e-39
-0.26179564 0.091052651 1.05925 4.6026909e-40
-0.26429564 0.088552646 1.0617501 1.1056385e-39
-0.26179564 0.088552646 1.0617501 5.6051939e-45
-0.26429564 0.093552649 1.0567501 4.1444873e-39
-0.26429564 0.093552649 1.05925 4.0519386e-39
-0.26429564 0.096052647 1.0567501 3.1296151e-39
-0.26429564 0.096052647 1.05925 3.4980389e-39
-0.26179564 0.093552649 1.0567501 3.8679005e-39
-0.26179564 0.096052647 1.0567501 2.7633522e-39
-0.25929564 0.088552646 1.0567501 1.821688e-44
-0.25929564 0.088552646 1.05925 1.2856969e-39
-0.25929564 0.091052651 1.0567501 6.4284847e-40
-0.25929564 0.091052651 1.05925 4.5917748e-40
-0.25679561 0.091052651 1.0567501 1.7484898e-39
-0.25679561 0.091052651 1.05925 0
-0.25929564 0.093552649 1.0567501 2.4889289e-39
-0.25679561 0.093552649 1.0567501 2.1205051e-39
-0.26429564 0.098552652 1.05425 2.3020139e-39
-0.26429564 0.10105265 1.05425 2.3909725e-39
-0.26179564 0.098552652 1.05425 2.5789595e-39
-0.26179564 0.10105265 1.05425 2.118689e-39
-0.25929564 0.098552652 1.04925 2.6711551e-39
-0.25929564 0.10105265 1.04925 1.7495464e-39
-0.25679561 0.098552652 1.0467501 3.3143553e-39
-0.25679561 0.098552652 1.04925 3.0370608e-39
-0.25679561 0.10105265 1.0467501 2.8533758e-39
-0.25679561 0.10105265 1.04925 2.3027201e-39
-0.25929564 0.098552652 1.05425 2.7640584e-39
-0.25929564 0.10105265 1.05425 2.3949158e-39
-0.26429564 0.098552652 1.0567501 2.3945654e-39
-0.26429564 0.098552652 1.05925 2.6711551e-39
-0.26179564 0.098552652 1.0567501 2.7640584e-39
-0.22679563 0.10605265 1.02425 2.7647773e-39
-0.22429563 0.096052647 1.02425 3.5815844e-39
-0.22179563 0.098552652 1.01925 1.2857082e-39
-0.22429563 0.098552652 1.02425 1.0109247e-39
-0.22179563 0.10105265 1.02425 7.3469798e-40
-0.22429563 0.10605265 1.02175 2.9473833e-39
-0.22429563 0.10605265 1.02425 2.8569729e-39
-0.22179563 0.10605265 1.02175 2.9484623e-39
-0.22179563 0.10605265 1.02425 2.9491685e-39
-0.21929564 0.098552652 1.01925 0
-0.21679562 0.098552652 1.01925 3.3979134e-39
-0.21929564 0.10105265 1.02425 0
-0.21679562 0.10105265 1.02425 0
-0.21929564 0.10355265 1.02425 1.7484898e-39
-0.21929564 0.10605265 1.02175 2.9491685e-39
-0.21929564 0.10605265 1.02425 2.5786092e-39
-0.21679562 0.10355265 1.02425 1.3800674e-39
-0.21679562 0.10605265 1.02175 2.8562667e-39
-0.21679562 0.10605265 1.02425 1.934309e-39
-0.25429562 0.091052651 1.0417501 3.2246947e-39
-0.25179562 0.091052651 1.0417501 1.1981929e-39
-0.25179562 0.091052651 1.04425 1.1056385e-39
-0.25429562 0.093552649 1.0417501 3.8675473e-39
-0.25429562 0.093552649 1.04425 3.408737e-39
-0.25429562 0.096052647 1.04425 3.8668313e-39
-0.25179562 0.093552649 1.0417501 3.3175951e-39
-0.25179562 0.093552649 1.04425 3.2253981e-39
-0.25179562 0.096052647 1.0417501 3.5913136e-39
-0.25179562 0.096052647 1.04425 3.3175951e-39
-0.24929562 0.091052651 1.0417501 6.4501908e-40
-0.24929562 0.091052651 1.04425 4.5918589e-40
-0.24679562 0.091052651 1.0417501 0
-0.24679562 0.091052651 1.04425 9.1835496e-40
-0.24929562 0.093552649 1.0417501 2.3038019e-39
-0.24929562 0.093552649 1.04425 2.856617e-39
-0.24929562 0.096052647 1.04425 3.3147267e-39
-0.24679562 0.093552649 1.0417501 2.3945654e-39
-0.24679562 0.093552649 1.04425 1.7481423e-39
-0.24679562 0.096052647 1.0417501 2.7633522e-39
-0.24679562 0.096052647 1.04425 2.6708048e-39
-0.25429562 0.098552652 1.04425 3.4980389e-39
-0.25179562 0.098552652 1.04425 2.9448652e-39
-0.25179562 0.10105265 1.04425 2.6668531e-39
-0.25179562 0.10355265 1.04425 2.2987769e-39
-0.24679562 0.098552652 1.0367501 3.772828e-39
-0.24679562 0.10105265 1.0367501 3.0370608e-39
-0.24929562 0.098552652 1.0417501 3.0370608e-39
-0.24929562 0.098552652 1.04425 2.9473833e-39
-0.24929562 0.10105265 1.0417501 2.8516031e-39
-0.24929562 0.10105265 1.04425 3.1299627e-39
-0.24679562 0.098552652 1.0417501 3.4069223e-39
-0.24679562 0.098552652 1.04425 3.2250478e-39
-0.24679562 0.10105265 1.0417501 2.7647773e-39
-0.24679562 0.10355265 1.0367501 2.8519507e-39
-0.24679562 0.10605265 1.0367501 7.3756504e-40
-0.24929562 0.10355265 1.0417501 2.6679055e-39
-0.24929562 0.10355265 1.04425 2.3020139e-39
-0.24929562 0.10605265 1.0417501 1.4726133e-39
-0.24929562 0.10605265 1.04425 1.7491988e-39
-0.24679562 0.10355265 1.0417501 2.8526695e-39
-0.24679562 0.10605265 1.0417501 8.2976067e-40
-0.24429563 0.091052651 1.0417501 0
-0.24429563 0.093552649 1.0417501 1.1056385e-39
-0.24429563 0.093552649 1.04425 7.3650846e-40
-0.24429563 0.096052647 1.0417501 2.6711551e-39
-0.24429563 0.096052647 1.04425 1.751717e-39
-0.24179563 0.093552649 1.0417501 2.7623797e-40
-0.24179563 0.093552649 1.04425 1.3775324e-39
-0.24179563 0.096052647 1.0417501 1.472263e-39
-0.24179563 0.096052647 1.04425 6.4284847e-40
-0.23929563 0.093552649 1.0417501 7.3469938e-40
-0.23929563 0.093552649 1.04425 3.6734198e-40
-0.23929563 0.096052647 1.0417501 5.6051939e-45
-0.23929563 0.096052647 1.04425 0
-0.23679563 0.093552649 1.0417501 3.6734198e-39
-0.23679563 0.093552649 1.04425 3.6734198e-39
-0.23679563 0.096052647 1.0417501 0
-0.23679563 0.096052647 1.04425 0
-0.24429563 0.098552652 1.0367501 4.1419706e-39
-0.24429563 0.10105265 1.0367501 2.8569729e-39
-0.24179563 0.098552652 1.0367501 3.5913136e-39
-0.24179563 0.10105265 1.0367501 3.4987452e-39
-0.24429563 0.098552652 1.0417501 3.2250478e-39
-0.24429563 0.098552652 1.04425 2.8580701e-39
-0.24429563 0.10105265 1.0417501 3.4980389e-39
-0.24179563 0.098552652 1.0417501 2.8562667e-39
-0.24179563 0.098552652 1.04425 1.8439126e-39
-0.24179563 0.10105265 1.0417501 3.4980389e-39
-0.24429563 0.10355265 1.0367501 3.0370608e-39
-0.24429563 0.10605265 1.0367501 1.8413945e-39
-0.24179563 0.10355265 1.0367501 3.0363419e-39
-0.24179563 0.10605265 1.0367501 2.3945654e-39
-0.24429563 0.10355265 1.0417501 3.1296151e-39
-0.24429563 0.10605265 1.0417501 2.2987769e-39
-0.24179563 0.10355265 1.0417501 3.4980389e-39
-0.24179563 0.10605265 1.0417501 2.759755e-39
-0.23929563 0.098552652 1.0367501 2.7633522e-39
-0.23929563 0.10105265 1.0367501 2.9484623e-39
-0.23679563 0.098552652 1.0367501 2.6711551e-39
-0.23679563 0.10105265 1.0367501 3.0403132e-39
-0.23929563 0.098552652 1.0417501 2.5789595e-39
-0.23929563 0.098552652 1.04425 1.751717e-39
-0.23929563 0.10105265 1.0417501 2.8562667e-39
-0.23679563 0.098552652 1.0417501 2.3938592e-39
-0.23679563 0.098552652 1.04425 1.1056385e-39
-0.23679563 0.10105265 1.0417501 3.2246947e-39
-0.23929563 0.10355265 1.0367501 2.7633522e-39
-0.23929563 0.10605265 1.0367501 2.8526695e-39
-0.23679563 0.10355265 1.0367501 2.9484623e-39
-0.23679563 0.10605265 1.0367501 3.0370608e-39
-0.23929563 0.10355265 1.0417501 3.7749846e-39
-0.23929563 0.10605265 1.0417501 3.4987452e-39
-0.23679563 0.10355265 1.0417501 3.3140078e-39
-0.25429562 0.088552646 1.04925 0
-0.25429562 0.091052651 1.0467501 9.2125985e-40
-0.25429562 0.091052651 1.04925 1.2871641e-39
-0.25179562 0.088552646 1.04925 0
-0.25179562 0.091052651 1.0467501 6.4285968e-40
-0.25179562 0.091052651 1.04925 6.4287089e-40
-0.25429562 0.088552646 1.05425 0
-0.25429562 0.091052651 1.05425 1.472263e-39
-0.25429562 0.093552649 1.0467501 3.3172448e-39
-0.25429562 0.093552649 1.04925 1.8428532e-39
-0.25429562 0.096052647 1.0467501 3.5913136e-39
-0.25429562 0.096052647 1.04925 4.1444873e-39
-0.25179562 0.093552649 1.0467501 3.0403132e-39
-0.25179562 0.093552649 1.04925 9.2125705e-40
-0.25179562 0.096052647 1.0467501 3.129632e-39
-0.25179562 0.096052647 1.04925 2.3027482e-39
-0.25429562 0.093552649 1.05425 1.2903885e-39
-0.24929562 0.091052651 1.0467501 6.428737e-40
-0.24929562 0.091052651 1.04925 9.1835496e-40
-0.24679562 0.091052651 1.0467501 5.510368e-40
-0.24929562 0.093552649 1.0467501 1.9357579e-39
-0.24929562 0.093552649 1.04925 5.521172e-40
-0.24929562 0.096052647 1.0467501 2.3963773e-39
-0.24929562 0.096052647 1.04925 1.9357579e-39
-0.24679562 0.093552649 1.0467501 1.5669768e-39
-0.24679562 0.093552649 1.04925 0
-0.24679562 0.096052647 1.0467501 2.1201492e-39
-0.24679562 0.096052647 1.04925 1.6562941e-39
-0.25429562 0.091052651 1.0567501 1.3793611e-39
-0.25429562 0.093552649 1.0567501 1.2896822e-39
-0.25429562 0.098552652 1.0467501 3.2218122e-39
-0.25429562 0.098552652 1.04925 2.8562667e-39
-0.25429562 0.10105265 1.0467501 2.3949158e-39
-0.25429562 0.10105265 1.04925 2.1179828e-39
-0.25179562 0.098552652 1.0467501 3.5898842e-39
-0.25179562 0.10105265 1.0467501 3.037767e-39
-0.25429562 0.10355265 1.0467501 1.8413945e-39
-0.25179562 0.10355265 1.0467501 2.1179828e-39
-0.24429563 0.093552649 1.0467501 1.9618179e-44
-0.24429563 0.093552649 1.04925 0
-0.24429563 0.096052647 1.0467501 3.7202933e-40
-0.24429563 0.096052647 1.04925 5.521172e-40
-0.24179563 0.093552649 1.0467501 3.6734198e-40
-0.24179563 0.093552649 1.04925 3.6734198e-40
-0.24179563 0.096052647 1.0467501 3.2369995e-42
-0.24179563 0.096052647 1.04925 6.4285968e-40
-0.23929563 0.093552649 1.0467501 0
-0.23929563 0.093552649 1.04925 1.1593917e-38
-0.23929563 0.096052647 1.0467501 1.0761972e-42
-0.23929563 0.096052647 1.04925 3.3979134e-39
-0.23679563 0.093552649 1.0467501 3.5815844e-39
-0.23679563 0.096052647 1.0467501 0
-0.23679563 0.096052647 1.04925 0
-0.24429563 0.098552652 1.0467501 2.4857101e-39
-0.24179563 0.098552652 1.0467501 1.5666265e-39
-0.23929563 0.098552652 1.0467501 1.5666265e-39
-0.23679563 0.098552652 1.0467501 1.1056385e-39
-0.22679563 0.096052647 1.03175 3.0305714e-39
-0.22679563 0.096052647 1.03425 3.0305714e-39
-0.23429564 0.096052647 1.0367501 0
-0.23179562 0.096052647 1.0367501 0
-0.23429564 0.093552649 1.04425 4.4999393e-39
-0.23429564 0.096052647 1.0417501 0
-0.23429564 0.096052647 1.04425 0
-0.23179562 0.096052647 1.0417501 1.7448744e-39
-0.23179562 0.096052647 1.04425 1.102026e-39
-0.22929563 0.096052647 1.0367501 1.2856969e-39
-0.22929563 0.096052647 1.04425 1.1034609e-38
-0.23179562 0.098552652 1.03425 4.5917748e-40
-0.23179562 0.10105265 1.03425 2.1176324e-39
-0.23429564 0.10355265 1.03425 3.4998242e-39
-0.23429564 0.10605265 1.03425 2.7633522e-39
-0.23179562 0.10355265 1.03425 3.2253953e-39
-0.23179562 0.10605265 1.03425 2.9473833e-39
-0.22929563 0.098552652 1.03425 0
-0.22929563 0.10105265 1.03175 2.7633522e-39
-0.22929563 0.10105265 1.03425 1.6562941e-39
-0.22679563 0.098552652 1.03175 0
-0.22679563 0.098552652 1.03425 0
-0.22679563 0.10105265 1.03175 2.3938592e-39
-0.22679563 0.10105265 1.03425 7.3469798e-40
-0.22929563 0.10605265 1.02675 2.7647773e-39
-0.22679563 0.10355265 1.02675 2.8562667e-39
-0.22679563 0.10605265 1.02675 2.8569729e-39
-0.22929563 0.10355265 1.03175 3.4980389e-39
-0.22929563 0.10355265 1.03425 3.3179511e-39
-0.22929563 0.10605265 1.03175 3.5920198e-39
-0.22929563 0.10605265 1.03425 3.1321333e-39
-0.22679563 0.10355265 1.03175 3.0403132e-39
-0.22679563 0.10355265 1.03425 2.3959948e-39
-0.22679563 0.10605265 1.03175 2.9473833e-39
-0.22679563 0.10605265 1.03425 3.8682508e-39
-0.23429564 0.098552652 1.0367501 1.749196e-39
-0.23429564 0.10105265 1.0367501 2.5793252e-39
-0.23179562 0.098552652 1.0367501 6.4286249e-40
-0.23179562 0.10105265 1.0367501 2.3945654e-39
-0.23429564 0.098552652 1.0417501 1.6562941e-39
-0.23429564 0.098552652 1.04425 3.6734198e-40
-0.23429564 0.10105265 1.0417501 2.5789763e-39
-0.23179562 0.098552652 1.0417501 3.6734198e-40
-0.23179562 0.098552652 1.04425 0
-0.23179562 0.10105265 1.0417501 2.3016636e-39
-0.23429564 0.10355265 1.0367501 2.6718754e-39
-0.23429564 0.10605265 1.0367501 3.3140078e-39
-0.23179562 0.10355265 1.0367501 2.7633522e-39
-0.22929563 0.098552652 1.0367501 0
-0.22929563 0.10105265 1.0367501 1.1056385e-39
-0.22679563 0.098552652 1.0367501 0
-0.22679563 0.10105265 1.0367501 2.7623797e-40
-0.22929563 0.098552652 1.0417501 3.1224069e-39
-0.22929563 0.098552652 1.04425 3.5815844e-39
-0.22929563 0.10355265 1.0367501 1.3829344e-39
-0.22679563 0.10355265 1.0367501 7.3756504e-40
-0.22429563 0.10105265 1.02675 1.472263e-39
-0.22429563 0.098552652 1.03175 0
-0.22429563 0.098552652 1.03425 0
-0.22429563 0.10105265 1.03175 6.4287089e-40
-0.22429563 0.10105265 1.03425 3.6734198e-40
-0.22179563 0.098552652 1.03175 0
-0.22179563 0.098552652 1.03425 1.4693679e-39
-0.22179563 0.10105265 1.03175 9.8090893e-45
-0.22179563 0.10105265 1.03425 0
-0.22429563 0.10355265 1.02675 2.3956472e-39
-0.22429563 0.10605265 1.02675 3.0399377e-39
-0.22179563 0.10355265 1.02675 1.7510079e-39
-0.22179563 0.10605265 1.02675 2.7633522e-39
-0.22429563 0.10355265 1.03175 2.5789763e-39
-0.22429563 0.10355265 1.03425 6.4536941e-40
-0.22429563 0.10605265 1.03175 3.2221779e-39
-0.22179563 0.10355265 1.03175 2.1176324e-39
-0.22179563 0.10355265 1.03425 2.7658689e-40
-0.22179563 0.10605265 1.03175 2.6711551e-39
-0.21929564 0.10105265 1.02675 9.1835496e-41
-0.21929564 0.10105265 1.03175 3.3060779e-39
-0.21929564 0.10105265 1.03425 3.6734198e-39
-0.21679562 0.10105265 1.03175 0
-0.21929564 0.10355265 1.02675 1.7481423e-39
-0.21929564 0.10605265 1.02675 2.5789595e-39
-0.21679562 0.10355265 1.02675 2.0211194e-39
-0.21679562 0.10605265 1.02675 1.7491988e-39
-0.21929564 0.10355265 1.03175 2.4817416e-39
-0.21929564 0.10355265 1.03425 1.3793611e-39
-0.21929564 0.10605265 1.03175 2.3938592e-39
-0.21679562 0.10355265 1.03175 7.3504691e-40
-0.21679562 0.10355265 1.03425 7.3576017e-40
-0.21679562 0.10605265 1.03175 1.1963726e-39
-0.21679562 0.10605265 1.03425 1.2914451e-39
-0.22429563 0.098552652 1.0367501 0
-0.22429563 0.10105265 1.0367501 9.1835496e-40
-0.22179563 0.10105265 1.0367501 1.8367099e-40
-0.22429563 0.10355265 1.0367501 8.2724394e-40
-0.22179563 0.10355265 1.0367501 0
-0.21929564 0.10355265 1.0367501 0
-0.21679562 0.10355265 1.0367501 0
-0.21929564 0.10355265 1.0417501 0
-0.23429564 0.096052647 1.0467501 1.8367099e-40
-0.23429564 0.096052647 1.04925 0
-0.27679563 0.086052649 1.06675 9.3942278e-39
-0.27679563 0.088552646 1.06675 4.3213158e-39
-0.27679563 0.091052651 1.06675 1.8980167e-40
-0.27929562 0.093552649 1.06675 6.9935443e-39
-0.27679563 0.093552649 1.06675 3.4911894e-39
-0.21429563 0.10605265 1.02425 7.3504691e-40
-0.21179563 0.10605265 1.02425 2.155197e-42
-0.20929563 0.10605265 1.02175 0
-0.20929563 0.10605265 1.02425 0
-0.20679563 0.10605265 1.02175 0
-0.20679563 0.10605265 1.02425 1.2261653e-38
-0.20179562 0.10355265 1.01925 1.8244986e-38
-0.20179562 0.10605265 1.01675 1.4557224e-38
-0.20179562 0.10605265 1.01925 1.7692225e-38
-0.20429564 0.10605265 1.02175 1.4739814e-38
-0.20429564 0.10605265 1.02425 1.0408695e-38
-0.20179562 0.10605265 1.02175 1.7966661e-38
-0.21429563 0.10605265 1.02675 6.4536941e-40
-0.21179563 0.10605265 1.02675 1.821688e-44
-0.21429563 0.10355265 1.03175 0
-0.21429563 0.10355265 1.03425 0
-0.21429563 0.10605265 1.03175 4.5917748e-40
-0.21429563 0.10605265 1.03425 9.1835496e-40
-0.21179563 0.10355265 1.03425 2.5713939e-39
-0.21179563 0.10605265 1.03175 0
-0.21179563 0.10605265 1.03425 0
-0.20929563 0.10605265 1.02675 0
-0.20679563 0.10605265 1.02675 1.1894308e-38
-0.20429564 0.10605265 1.02675 1.4740533e-38
-0.22679563 0.10855265 1.02425 2.4871114e-39
-0.22679563 0.11105265 1.02425 2.9441463e-39
-0.22679563 0.11355265 1.02425 8.2835377e-40
-0.22429563 0.10855265 1.02175 2.7633522e-39
-0.22429563 0.10855265 1.02425 2.7633522e-39
-0.22429563 0.11105265 1.02175 2.6718614e-39
-0.22429563 0.11105265 1.02425 2.6718614e-39
-0.22179563 0.10855265 1.02175 2.7647773e-39
-0.22179563 0.10855265 1.02425 3.2218122e-39
-0.22179563 0.11105265 1.02175 2.6718614e-39
-0.22179563 0.11105265 1.02425 2.7633522e-39
-0.22429563 0.11355265 1.02425 1.6562941e-39
-0.22179563 0.11355265 1.02175 1.3825841e-39
-0.22179563 0.11355265 1.02425 1.8413945e-39
-0.22179563 0.11605265 1.02175 1.1056385e-39
-0.21929564 0.10855265 1.01925 3.037767e-39
-0.21929564 0.11105265 1.01925 1.4740385e-39
-0.21679562 0.10855265 1.01925 2.6689859e-39
-0.21679562 0.11105265 1.01925 4.2265894e-39
-0.21929564 0.10855265 1.02175 2.5800259e-39
-0.21929564 0.10855265 1.02425 2.6718614e-39
-0.21929564 0.11105265 1.02175 0
-0.21929564 0.11105265 1.02425 3.7670504e-39
-0.21679562 0.10855265 1.02175 2.8533758e-39
-0.21679562 0.10855265 1.02425 2.7604613e-39
-0.21679562 0.11105265 1.02175 1.5374339e-38
-0.21679562 0.11105265 1.02425 1.1970316e-38
-0.21929564 0.11355265 1.02175 0
-0.21929564 0.11355265 1.02425 0
-0.21929564 0.11605265 1.02175 9.1835496e-41
-0.21679562 0.11355265 1.02175 1.5835677e-38
-0.21679562 0.11355265 1.02425 1.5280002e-38
-0.21679562 0.11605265 1.02175 1.260848e-38
-0.23679563 0.10855265 1.03425 1.8410441e-39
-0.24429563 0.10855265 1.0367501 1.1038294e-39
-0.24179563 0.10855265 1.0367501 1.6562941e-39
-0.23929563 0.10855265 1.0367501 2.6689859e-39
-0.23679563 0.10855265 1.0367501 2.6689859e-39
-0.23429564 0.10855265 1.03425 2.3909725e-39
-0.23179562 0.10855265 1.03175 2.3020139e-39
-0.23179562 0.10855265 1.03425 2.759755e-39
-0.23179562 0.11105265 1.03175 1.7491988e-39
-0.22929563 0.10855265 1.02675 2.4871114e-39
-0.22929563 0.11105265 1.02675 2.4835269e-39
-0.22679563 0.10855265 1.02675 3.0370608e-39
-0.22679563 0.11105265 1.02675 2.1179828e-39
-0.22929563 0.10855265 1.03175 2.8526695e-39
-0.22929563 0.11105265 1.03175 1.8413945e-39
-0.22929563 0.11355265 1.02675 1.6562941e-39
-0.22679563 0.11355265 1.02675 1.7484898e-39
-0.22429563 0.11355265 1.02675 2.3949158e-39
-0.22179563 0.11355265 1.02675 2.5789595e-39
-0.21679562 0.10855265 1.03175 1.3811226e-39
-0.21429563 0.10855265 1.02175 2.9423919e-39
-0.21429563 0.10855265 1.02425 2.3013553e-39
-0.21429563 0.11105265 1.02175 1.4734782e-38
-0.21429563 0.11105265 1.02425 1.3264687e-38
-0.21179563 0.10855265 1.02425 2.765932e-39
-0.21179563 0.11105265 1.02175 1.2160507e-38
-0.21179563 0.11105265 1.02425 8.847245e-39
-0.21429563 0.11355265 1.02175 1.4183034e-38
-0.21429563 0.11355265 1.02425 1.4918081e-38
-0.21429563 0.11605265 1.02175 8.6638753e-39
-0.21179563 0.11355265 1.02175 1.1700598e-38
-0.21179563 0.11355265 1.02425 1.3260717e-38
-0.21179563 0.11605265 1.02175 1.0687133e-38
-0.20929563 0.11105265 1.01925 7.8273127e-39
-0.20679563 0.11105265 1.01925 1.0771086e-38
-0.20929563 0.10855265 1.02175 3.2229865e-44
-0.20929563 0.10855265 1.02425 3.2229865e-44
-0.20929563 0.11105265 1.02175 7.8280372e-39
-0.20929563 0.11105265 1.02425 3.7835059e-44
-0.20679563 0.10855265 1.02175 0
-0.20679563 0.10855265 1.02425 1.4101243e-38
-0.20679563 0.11105265 1.02175 1.0770014e-38
-0.20679563 0.11105265 1.02425 1.6490168e-38
-0.20929563 0.11355265 1.01925 1.372746e-38
-0.20929563 0.11605265 1.01925 1.4376397e-38
-0.20679563 0.11355265 1.01925 1.3728864e-38
-0.20679563 0.11605265 1.01925 1.3455873e-38
-0.20929563 0.11355265 1.02175 1.3636707e-38
-0.20929563 0.11355265 1.02425 1.4005849e-38
-0.20929563 0.11605265 1.02175 1.437496e-38
-0.20679563 0.11355265 1.02175 1.3820344e-38
-0.20679563 0.11355265 1.02425 8.3808004e-39
-0.20679563 0.11605265 1.02175 1.3363322e-38
-0.20429564 0.11105265 1.01925 1.722478e-38
-0.20179562 0.10855265 1.01675 1.5386256e-38
-0.20179562 0.10855265 1.01925 1.7967368e-38
-0.20429564 0.10855265 1.02175 1.2907383e-38
-0.20429564 0.11105265 1.02175 1.6946806e-38
-0.20429564 0.11105265 1.02425 1.8241764e-38
-0.20179562 0.10855265 1.02175 1.769186e-38
-0.20179562 0.11105265 1.02425 1.8980404e-38
-0.20429564 0.11355265 1.01925 8.2896809e-39
-0.20429564 0.11355265 1.02175 8.2889761e-39
-0.20429564 0.11355265 1.02425 9.2032799e-39
-0.20429564 0.11605265 1.02175 7.1847753e-39
-0.20179562 0.11355265 1.02425 1.9531376e-38
-0.19929563 0.10855265 1.01675 1.7691507e-38
-0.21429563 0.10855265 1.02675 3.5920941e-39
-0.21429563 0.11105265 1.02675 1.5385187e-38
-0.21179563 0.10855265 1.02675 2.6755356e-39
-0.21179563 0.11105265 1.02675 9.4911655e-39
-0.21429563 0.10855265 1.03175 8.2976067e-40
-0.21429563 0.10855265 1.03425 1.1963726e-39
-0.21429563 0.11105265 1.03175 1.5293692e-38
-0.21179563 0.10855265 1.03175 0
-0.21179563 0.10855265 1.03425 0
-0.21179563 0.11105265 1.03175 3.0828566e-44
-0.21429563 0.11355265 1.02675 1.5103192e-38
-0.20929563 0.10855265 1.02675 0
-0.20929563 0.11105265 1.02675 2.8469803e-39
-0.20679563 0.10855265 1.02675 1.3275445e-38
-0.20679563 0.11105265 1.02675 1.6862079e-38
-0.20929563 0.10855265 1.03175 0
-0.20929563 0.10855265 1.03425 0
-0.20929563 0.11105265 1.03175 3.4898385e-39
-0.20679563 0.10855265 1.03175 1.2262019e-38
-0.20679563 0.10855265 1.03425 1.557065e-38
-0.20679563 0.11105265 1.03175 1.7131556e-38
-0.20679563 0.11355265 1.02675 1.786656e-38
-0.20929563 0.10855265 1.0367501 1.1984706e-38
-0.20429564 0.10855265 1.02675 1.5018184e-38
-0.20429564 0.11105265 1.02675 1.7779734e-38
-0.20179562 0.11105265 1.02675 1.9163728e-38
-0.20429564 0.10855265 1.03175 1.5294047e-38
-0.20429564 0.11105265 1.03175 1.8241058e-38
-0.20429564 0.11355265 1.02675 1.7688906e-38
-0.20179562 0.11355265 1.02675 1.9349133e-38
