# .PCD v0.7 - Point Cloud Data file format
VERSION 0.7
FIELDS x y z rgb
SIZE 4 4 4 4
TYPE F F F F
COUNT 1 1 1 1
WIDTH 601
HEIGHT 1
VIEWPOINT 0 0 0 1 0 0 0
POINTS 601
DATA ascii
-0.19882329 0.10903069 1.0102501 1.6530389e-39
-0.19632329 0.10903069 1.0102501 0
-0.19882329 0.10903069 1.01275 0
-0.19882329 0.10903069 1.0152501 5.6051939e-45
-0.19632329 0.10653069 1.0152501 2.8698593e-42
-0.19632329 0.10903069 1.01275 8.2941034e-40
-0.19632329 0.10903069 1.0152501 9.2197592e-40
-0.19882329 0.10903069 1.01775 9.1835496e-41
-0.19632329 0.10903069 1.01775 5.5317378e-40
-0.19382328 0.10903069 1.01275 1.105291e-39
-0.19382328 0.10903069 1.0152501 1.7510079e-39
-0.19382328 0.10903069 1.01775 1.3829344e-39
-0.19132328 0.10903069 1.01775 2.8562667e-39
-0.19632329 0.099030688 1.0377501 3.6734198e-40
-0.19632329 0.099030688 1.0402501 0
-0.19632329 0.10403069 1.0252501 4.5917748e-40
-0.19632329 0.10153069 1.0302501 4.1325973e-39
-0.19632329 0.10403069 1.0277501 2.7550649e-40
-0.19632329 0.10403069 1.0302501 1.5658838e-39
-0.19882329 0.10653069 1.0227501 1.102026e-39
-0.19882329 0.10653069 1.0252501 2.0203809e-39
-0.19882329 0.10903069 1.0227501 3.7237545e-40
-0.19882329 0.10903069 1.0252501 3.9460565e-42
-0.19632329 0.10653069 1.0227501 1.7495464e-39
-0.19632329 0.10653069 1.0252501 2.0250809e-39
-0.19632329 0.10903069 1.0227501 1.6562941e-39
-0.19632329 0.10903069 1.0252501 1.8410441e-39
-0.19632329 0.10653069 1.0277501 6.4501908e-40
-0.19632329 0.10653069 1.0302501 1.6566445e-39
-0.19632329 0.10153069 1.0327501 4.1325973e-39
-0.19632329 0.10403069 1.0327501 9.187151e-40
-0.19632329 0.10153069 1.0377501 4.6097815e-40
-0.19632329 0.10153069 1.0402501 6.4285968e-40
-0.19632329 0.10403069 1.0377501 1.6562941e-39
-0.19632329 0.10403069 1.0402501 1.2885682e-39
-0.19632329 0.10653069 1.0327501 1.8413945e-39
-0.19632329 0.10653069 1.0377501 1.3804163e-39
-0.19632329 0.094030693 1.0502501 1.0101905e-39
-0.19632329 0.099030688 1.0427501 1.4349296e-42
-0.19632329 0.096530691 1.0477501 4.7754458e-39
-0.19632329 0.096530691 1.0502501 4.7754458e-39
-0.19632329 0.099030688 1.0477501 1.0101919e-39
-0.19632329 0.094030693 1.0527501 8.2651947e-40
-0.19632329 0.094030693 1.06025 0
-0.19882329 0.10153069 1.0427501 1.3775324e-39
-0.19882329 0.10403069 1.0427501 4.5917748e-39
-0.19632329 0.10153069 1.0427501 4.6097815e-40
-0.19132328 0.08903069 1.0502501 1.4726133e-39
-0.18882328 0.086530693 1.0502501 1.7517366e-39
-0.18882328 0.08903069 1.0502501 1.9361082e-39
-0.18632329 0.086530693 1.0502501 2.8562667e-39
-0.18632329 0.08903069 1.0502501 2.3970864e-39
-0.19132328 0.086530693 1.0527501 0
-0.19132328 0.08903069 1.0527501 2.1143856e-39
-0.19382328 0.08903069 1.06025 2.6632294e-39
-0.19132328 0.08903069 1.0577501 1.1031204e-39
-0.19132328 0.08903069 1.06025 2.947033e-39
-0.18882328 0.084030695 1.0527501 4.4999393e-39
-0.18632329 0.084030695 1.0527501 5.3275434e-39
-0.18882328 0.086530693 1.0527501 3.3140078e-39
-0.18882328 0.08903069 1.0527501 3.0370608e-39
-0.18632329 0.086530693 1.0527501 3.2250478e-39
-0.18632329 0.08903069 1.0527501 3.3190427e-39
-0.18882328 0.08903069 1.0577501 2.9484623e-39
-0.18882328 0.08903069 1.06025 2.8562667e-39
-0.18632329 0.086530693 1.06025 1.4697267e-39
-0.18632329 0.08903069 1.0577501 3.5927527e-39
-0.18632329 0.08903069 1.06025 4.1434083e-39
-0.18382329 0.086530693 1.0502501 3.3161742e-39
-0.18382329 0.08903069 1.0477501 3.9600961e-39
-0.18382329 0.08903069 1.0502501 3.4094404e-39
-0.18132329 0.086530693 1.0502501 3.3172448e-39
-0.18132329 0.08903069 1.0477501 4.0522917e-39
-0.18132329 0.08903069 1.0502501 4.3270807e-39
-0.17882328 0.086530693 1.0502501 3.9600961e-39
-0.17882328 0.08903069 1.0477501 4.3270807e-39
-0.17882328 0.08903069 1.0502501 4.6958633e-39
-0.18382329 0.086530693 1.0527501 3.8682508e-39
-0.18382329 0.08903069 1.0527501 4.237392e-39
-0.18132329 0.086530693 1.0527501 4.0494233e-39
-0.18132329 0.08903069 1.0527501 3.7753517e-39
-0.18382329 0.08903069 1.0577501 4.052642e-39
-0.18382329 0.08903069 1.06025 4.4214246e-39
-0.18132329 0.08903069 1.0577501 4.052642e-39
-0.18132329 0.08903069 1.06025 4.4210742e-39
-0.17882328 0.08903069 1.0527501 3.7742657e-39
-0.17882328 0.08903069 1.06025 2.8537485e-39
-0.18632329 0.099030688 1.0302501 3.4083712e-39
-0.19132328 0.091530688 1.0402501 9.2482756e-40
-0.19132328 0.094030693 1.0402501 1.7510079e-39
-0.19382328 0.099030688 1.0327501 1.4762021e-39
-0.19382328 0.099030688 1.0377501 1.4769083e-39
-0.19382328 0.099030688 1.0402501 1.7509813e-39
-0.19132328 0.096530691 1.0377501 1.6562941e-39
-0.19132328 0.096530691 1.0402501 2.1176324e-39
-0.19132328 0.099030688 1.0377501 2.9480895e-39
-0.19132328 0.099030688 1.0402501 2.6718614e-39
-0.18882328 0.094030693 1.0402501 2.3938592e-39
-0.18632329 0.091530688 1.0402501 3.3139812e-39
-0.18632329 0.094030693 1.0402501 3.3140078e-39
-0.18882328 0.099030688 1.0327501 2.9473833e-39
-0.18632329 0.096530691 1.0327501 3.3161742e-39
-0.18632329 0.099030688 1.0327501 3.3165245e-39
-0.18882328 0.096530691 1.0377501 2.3016636e-39
-0.18882328 0.096530691 1.0402501 2.1204995e-39
-0.18882328 0.099030688 1.0377501 2.6736733e-39
-0.18882328 0.099030688 1.0402501 2.759755e-39
-0.18632329 0.096530691 1.0377501 3.3161742e-39
-0.18632329 0.096530691 1.0402501 3.0424558e-39
-0.18632329 0.099030688 1.0377501 3.3190427e-39
-0.18632329 0.099030688 1.0402501 3.7767936e-39
-0.19382328 0.10403069 1.0227501 1.7495464e-39
-0.19382328 0.10403069 1.0252501 1.6566445e-39
-0.19132328 0.10403069 1.0252501 3.2243289e-39
-0.19382328 0.10153069 1.0302501 6.4536941e-40
-0.19382328 0.10403069 1.0277501 6.4607706e-40
-0.19382328 0.10403069 1.0302501 1.2903885e-39
-0.19132328 0.10153069 1.0302501 1.1974866e-39
-0.19132328 0.10403069 1.0277501 2.3016636e-39
-0.19132328 0.10403069 1.0302501 1.3825841e-39
-0.19382328 0.10653069 1.0227501 1.6573507e-39
-0.19382328 0.10653069 1.0252501 1.7484898e-39
-0.19382328 0.10903069 1.0227501 2.6708048e-39
-0.19382328 0.10903069 1.0252501 1.7484898e-39
-0.19132328 0.10653069 1.0252501 3.1310767e-39
-0.19132328 0.10903069 1.0227501 3.4083712e-39
-0.19132328 0.10903069 1.0252501 3.2239786e-39
-0.19382328 0.10653069 1.0277501 1.7484898e-39
-0.19382328 0.10653069 1.0302501 2.2072875e-39
-0.19132328 0.10653069 1.0277501 2.9484623e-39
-0.19132328 0.10653069 1.0302501 2.3945654e-39
-0.19132328 0.10903069 1.0277501 3.4097964e-39
-0.18882328 0.10153069 1.0302501 2.8580645e-39
-0.18882328 0.10403069 1.0302501 3.0417467e-39
-0.18632329 0.10153069 1.0302501 3.5945408e-39
-0.18632329 0.10403069 1.0302501 3.5920226e-39
-0.18882328 0.10653069 1.0252501 3.2253981e-39
-0.18882328 0.10903069 1.0227501 3.7753517e-39
-0.18882328 0.10903069 1.0252501 3.5016361e-39
-0.18632329 0.10653069 1.0252501 3.408737e-39
-0.18632329 0.10903069 1.0227501 1.1077769e-39
-0.18632329 0.10903069 1.0252501 1.751717e-39
-0.18882328 0.10653069 1.0277501 3.4090873e-39
-0.18882328 0.10653069 1.0302501 3.5938317e-39
-0.18882328 0.10903069 1.0277501 3.5016361e-39
-0.18632329 0.10653069 1.0277501 3.3165414e-39
-0.18632329 0.10653069 1.0302501 1.6577291e-39
-0.18632329 0.10903069 1.0277501 1.3858211e-39
-0.18632329 0.10903069 1.0302501 5.5642059e-40
-0.19382328 0.10153069 1.0327501 1.2885682e-39
-0.19382328 0.10403069 1.0327501 1.7484898e-39
-0.19132328 0.10153069 1.0327501 1.6566445e-39
-0.19132328 0.10403069 1.0327501 2.0250809e-39
-0.19382328 0.10153069 1.0377501 8.2976067e-40
-0.19382328 0.10153069 1.0402501 1.7484898e-39
-0.19382328 0.10403069 1.0377501 1.1960251e-39
-0.19382328 0.10403069 1.0402501 1.7495464e-39
-0.19132328 0.10153069 1.0377501 2.7630018e-39
-0.19132328 0.10153069 1.0402501 1.1074069e-39
-0.19132328 0.10403069 1.0377501 1.1981929e-39
-0.19382328 0.10653069 1.0327501 2.759755e-39
-0.19132328 0.10653069 1.0327501 2.5789595e-39
-0.19382328 0.10653069 1.0377501 2.7640584e-39
-0.19132328 0.10653069 1.0377501 2.489282e-39
-0.18882328 0.10153069 1.0327501 3.7757048e-39
-0.18882328 0.10403069 1.0327501 4.052642e-39
-0.18632329 0.10153069 1.0327501 3.7757048e-39
-0.18632329 0.10403069 1.0327501 3.2228814e-39
-0.18882328 0.10153069 1.0377501 3.4980389e-39
-0.18882328 0.10403069 1.0377501 4.052642e-39
-0.18632329 0.10153069 1.0377501 3.7749846e-39
-0.18632329 0.10403069 1.0377501 3.2228814e-39
-0.18882328 0.10653069 1.0327501 3.959743e-39
-0.18632329 0.10653069 1.0327501 2.208026e-39
-0.18382329 0.099030688 1.0302501 3.8675473e-39
-0.18132329 0.099030688 1.0302501 4.5129167e-39
-0.18382329 0.094030693 1.0402501 3.9593772e-39
-0.18382329 0.096530691 1.0327501 4.1448377e-39
-0.18382329 0.099030688 1.0327501 3.6863861e-39
-0.18132329 0.096530691 1.0327501 4.052642e-39
-0.18132329 0.099030688 1.0327501 4.1470055e-39
-0.18382329 0.096530691 1.0377501 3.5945408e-39
-0.18382329 0.096530691 1.0402501 3.5016361e-39
-0.18382329 0.099030688 1.0377501 4.3314023e-39
-0.18132329 0.096530691 1.0377501 4.6955101e-39
-0.18132329 0.096530691 1.0402501 4.1444873e-39
-0.18132329 0.099030688 1.0377501 4.3321058e-39
-0.18132329 0.099030688 1.0402501 4.2399102e-39
-0.17882328 0.099030688 1.0327501 3.4097908e-39
-0.17632328 0.099030688 1.0327501 4.6026909e-40
-0.17882328 0.096530691 1.0377501 5.0646514e-39
-0.17882328 0.096530691 1.0402501 4.7898568e-39
-0.17882328 0.099030688 1.0377501 3.8707675e-39
-0.17882328 0.099030688 1.0402501 4.6026909e-40
-0.17632328 0.096530691 1.0377501 3.1267845e-39
-0.17632328 0.096530691 1.0402501 0
-0.17632328 0.099030688 1.0377501 1.836766e-40
-0.18382329 0.10153069 1.0277501 2.6704531e-39
-0.18382329 0.10153069 1.0302501 2.6704531e-39
-0.18382329 0.10403069 1.0277501 2.4857045e-39
-0.18382329 0.10403069 1.0302501 2.1176324e-39
-0.18132329 0.10153069 1.0277501 2.6704531e-39
-0.18132329 0.10153069 1.0302501 2.7626487e-39
-0.18132329 0.10403069 1.0277501 3.2232695e-39
-0.18132329 0.10403069 1.0302501 3.4083712e-39
-0.18382329 0.10903069 1.0252501 7.3721471e-40
-0.18382329 0.10653069 1.0277501 1.1960405e-39
-0.18382329 0.10653069 1.0302501 3.3168398e-39
-0.18382329 0.10903069 1.0277501 6.4501908e-40
-0.18382329 0.10903069 1.0302501 7.3655666e-39
-0.18132329 0.10653069 1.0302501 1.3825735e-38
-0.18132329 0.10903069 1.0302501 1.7690411e-38
-0.17882328 0.10153069 1.0302501 1.4086847e-38
-0.17882328 0.10403069 1.0302501 2.3501576e-38
-0.18382329 0.10153069 1.0327501 3.2214619e-39
-0.18382329 0.10403069 1.0327501 2.0250809e-39
-0.18132329 0.10153069 1.0327501 2.9445148e-39
-0.18132329 0.10403069 1.0327501 3.131427e-39
-0.18382329 0.10153069 1.0377501 4.5129167e-39
-0.18382329 0.10403069 1.0377501 3.9593772e-39
-0.18132329 0.10153069 1.0377501 6.7183685e-39
-0.18132329 0.10403069 1.0377501 1.2707122e-38
-0.18382329 0.10653069 1.0327501 1.1045371e-39
-0.18382329 0.10903069 1.0327501 7.1815103e-39
-0.18132329 0.10653069 1.0327501 7.0972432e-39
-0.18132329 0.10903069 1.0327501 1.7783673e-38
-0.18382329 0.10653069 1.0377501 7.9215963e-39
-0.18382329 0.10903069 1.0377501 1.4378492e-38
-0.18132329 0.10653069 1.0377501 1.3727445e-38
-0.18132329 0.10653069 1.0402501 1.2807296e-38
-0.18132329 0.10903069 1.0377501 1.6672721e-38
-0.17882328 0.10153069 1.0327501 1.3628393e-38
-0.17882328 0.10403069 1.0327501 2.3500861e-38
-0.17882328 0.10153069 1.0377501 8.6544754e-39
-0.17882328 0.10153069 1.0402501 5.0635724e-39
-0.17882328 0.10403069 1.0377501 2.3500853e-38
-0.17882328 0.10403069 1.0402501 2.2674364e-38
-0.17632328 0.10153069 1.0377501 5.0664436e-39
-0.17632328 0.10403069 1.0377501 1.1792156e-38
-0.17882328 0.10653069 1.0327501 2.3502342e-38
-0.17882328 0.10903069 1.0327501 2.3127836e-38
-0.17882328 0.10653069 1.0377501 2.3502341e-38
-0.17882328 0.10653069 1.0402501 2.258328e-38
-0.17882328 0.10903069 1.0377501 2.3495895e-38
-0.19382328 0.094030693 1.0502501 7.0064923e-45
-0.19132328 0.091530688 1.0477501 7.404335e-40
-0.19132328 0.094030693 1.0477501 1.5669768e-39
-0.19132328 0.094030693 1.0502501 1.6577025e-39
-0.19382328 0.096530691 1.0427501 1.6566445e-39
-0.19382328 0.099030688 1.0427501 1.6562941e-39
-0.19132328 0.096530691 1.0427501 8.2976067e-40
-0.19132328 0.099030688 1.0427501 1.8403379e-39
-0.19382328 0.096530691 1.0477501 1.1063476e-39
-0.19382328 0.096530691 1.0502501 8.3264734e-40
-0.19382328 0.099030688 1.0477501 7.3863003e-40
-0.19132328 0.096530691 1.0477501 1.1988907e-39
-0.19132328 0.096530691 1.0502501 2.7947356e-40
-0.19132328 0.099030688 1.0477501 1.2917954e-39
-0.18882328 0.091530688 1.0427501 2.8533758e-39
-0.18882328 0.094030693 1.0427501 3.3143315e-39
-0.18632329 0.094030693 1.0427501 2.9484623e-39
-0.18882328 0.091530688 1.0477501 3.037767e-39
-0.18882328 0.091530688 1.0502501 2.6704503e-39
-0.18882328 0.094030693 1.0477501 3.0392286e-39
-0.18882328 0.094030693 1.0502501 2.7644045e-39
-0.18632329 0.091530688 1.0477501 3.3150742e-39
-0.18632329 0.091530688 1.0502501 2.9445148e-39
-0.18632329 0.094030693 1.0477501 3.4097908e-39
-0.18632329 0.094030693 1.0502501 2.9484623e-39
-0.18882328 0.096530691 1.0427501 3.0424558e-39
-0.18882328 0.099030688 1.0427501 2.0250809e-39
-0.18632329 0.096530691 1.0427501 3.7757048e-39
-0.18882328 0.096530691 1.0477501 2.118689e-39
-0.19382328 0.094030693 1.0527501 1.0152253e-39
-0.19132328 0.091530688 1.0527501 1.8410441e-39
-0.19132328 0.094030693 1.0527501 2.7590488e-39
-0.19382328 0.091530688 1.0577501 9.1835917e-40
-0.19382328 0.091530688 1.06025 0
-0.19382328 0.094030693 1.0577501 1.1084986e-39
-0.19382328 0.094030693 1.06025 1.0152253e-39
-0.19132328 0.091530688 1.0577501 1.3790108e-39
-0.19132328 0.091530688 1.06025 2.3906222e-39
-0.19132328 0.094030693 1.0577501 2.6679055e-39
-0.19132328 0.094030693 1.06025 2.8516031e-39
-0.19382328 0.096530691 1.06025 1.3825841e-39
-0.18882328 0.091530688 1.0527501 2.9445148e-39
-0.18882328 0.094030693 1.0527501 2.9484623e-39
-0.18632329 0.091530688 1.0527501 3.4083712e-39
-0.18632329 0.094030693 1.0527501 3.5016361e-39
-0.18882328 0.091530688 1.0577501 2.3938592e-39
-0.18882328 0.091530688 1.06025 2.6708048e-39
-0.18882328 0.094030693 1.0577501 2.8526569e-39
-0.18882328 0.094030693 1.06025 3.1289061e-39
-0.18632329 0.091530688 1.0577501 3.8668313e-39
-0.18632329 0.091530688 1.06025 3.4083712e-39
-0.18632329 0.094030693 1.0577501 3.5927527e-39
-0.18632329 0.094030693 1.06025 3.7775027e-39
-0.19382328 0.10153069 1.0427501 1.1985432e-39
-0.18382329 0.094030693 1.0427501 3.8704172e-39
-0.18132329 0.094030693 1.0427501 4.7902071e-39
-0.18382329 0.091530688 1.0477501 3.9626142e-39
-0.18382329 0.091530688 1.0502501 4.052642e-39
-0.18382329 0.094030693 1.0477501 4.6036662e-39
-0.18382329 0.094030693 1.0502501 4.0519386e-39
-0.18132329 0.091530688 1.0477501 4.0548098e-39
-0.18132329 0.091530688 1.0502501 4.78734e-39
-0.18132329 0.094030693 1.0477501 5.2490356e-39
-0.18132329 0.094030693 1.0502501 5.5274274e-39
-0.18382329 0.096530691 1.0427501 4.4210742e-39
-0.18132329 0.096530691 1.0427501 6.0787977e-39
-0.18132329 0.099030688 1.0427501 5.155768e-39
-0.18382329 0.096530691 1.0477501 4.6958633e-39
-0.18132329 0.096530691 1.0477501 5.7103739e-39
-0.17882328 0.094030693 1.0427501 4.1473558e-39
-0.17882328 0.091530688 1.0477501 4.9724501e-39
-0.17882328 0.091530688 1.0502501 4.971018e-39
-0.17882328 0.094030693 1.0477501 4.6980114e-39
-0.17882328 0.094030693 1.0502501 2.0246885e-39
-0.17632328 0.094030693 1.0477501 1.4743916e-39
-0.17882328 0.096530691 1.0427501 4.8852796e-39
-0.17632328 0.096530691 1.0427501 7.361189e-40
-0.17882328 0.096530691 1.0477501 5.4355765e-39
-0.17882328 0.096530691 1.0502501 1.0112667e-39
-0.17882328 0.099030688 1.0477501 4.6097815e-40
-0.17882328 0.099030688 1.0502501 0
-0.17632328 0.096530691 1.0477501 5.5101298e-40
-0.17632328 0.099030688 1.0477501 0
-0.18382329 0.091530688 1.0527501 4.1448377e-39
-0.18382329 0.094030693 1.0527501 3.8704172e-39
-0.18132329 0.091530688 1.0527501 4.2359795e-39
-0.18132329 0.094030693 1.0527501 4.7898568e-39
-0.18382329 0.091530688 1.06025 4.4210742e-39
-0.18382329 0.094030693 1.0577501 4.0522917e-39
-0.18132329 0.091530688 1.0577501 4.5125664e-39
-0.18132329 0.091530688 1.06025 4.6976611e-39
-0.18132329 0.094030693 1.0577501 5.0635668e-39
-0.18132329 0.096530691 1.0527501 4.7927308e-39
-0.18132329 0.096530691 1.0577501 4.6058158e-39
-0.17882328 0.091530688 1.0527501 4.6054655e-39
-0.17882328 0.094030693 1.0527501 4.237392e-39
-0.17882328 0.091530688 1.0577501 5.1579358e-39
-0.17882328 0.094030693 1.0577501 4.4203708e-39
-0.17882328 0.096530691 1.0527501 9.1835496e-41
-0.17882328 0.10153069 1.0427501 5.341583e-39
-0.17882328 0.10403069 1.0427501 2.2766916e-38
-0.17882328 0.10153069 1.0477501 5.8933331e-39
-0.17882328 0.10153069 1.0502501 0
-0.17882328 0.10403069 1.0477501 1.2341009e-38
-0.20132329 0.11403069 0.9977501 0
-0.20132329 0.11403069 1.0002501 0
-0.20132329 0.11903069 0.99275011 1.1703848e-38
-0.20132329 0.11653069 0.9977501 0
-0.20132329 0.11653069 1.0002501 5.5101298e-40
-0.20132329 0.11903069 0.9977501 5.9887951e-39
-0.19882329 0.11403069 0.99525011 9.8090893e-45
-0.19882329 0.11403069 0.9977501 3.9460565e-42
-0.19882329 0.11403069 1.0002501 2.155197e-42
-0.19632329 0.11403069 1.0002501 2.5111268e-42
-0.19882329 0.11653069 0.99525011 2.7554292e-40
-0.19882329 0.11903069 0.99275011 6.2643058e-39
-0.19882329 0.11903069 0.99525011 3.4051104e-39
-0.19632329 0.11653069 0.99525011 2.1019477e-44
-0.19632329 0.11903069 0.99275011 9.1835496e-41
-0.19632329 0.11903069 0.99525011 1.8367099e-40
-0.19882329 0.11653069 0.9977501 1.2885682e-39
-0.19882329 0.11653069 1.0002501 2.1523944e-42
-0.19882329 0.11903069 0.9977501 3.2196234e-39
-0.19632329 0.11653069 0.9977501 7.3756504e-40
-0.19632329 0.11653069 1.0002501 6.4286249e-40
-0.19632329 0.11903069 0.9977501 1.5612034e-39
-0.19632329 0.11903069 1.0002501 7.3473442e-40
-0.20132329 0.12153069 0.99275011 1.5854431e-38
-0.20132329 0.12153069 0.99525011 1.548709e-38
-0.20132329 0.12403069 0.99525011 1.2442384e-38
-0.20132329 0.12153069 0.9977501 6.9128954e-39
-0.20132329 0.12403069 0.9977501 1.2166143e-38
-0.20132329 0.12653069 0.9977501 1.3352434e-38
-0.19882329 0.12153069 0.99275011 7.372433e-39
-0.19882329 0.12153069 0.99525011 1.9618179e-44
-0.19882329 0.12403069 0.99525011 1.087445e-38
-0.19632329 0.12153069 0.99275011 3.2229865e-44
-0.19632329 0.12153069 0.99525011 4.2038954e-45
-0.19632329 0.12403069 0.99275011 1.0319857e-38
-0.19632329 0.12403069 0.99525011 1.0229817e-38
-0.19882329 0.12153069 0.9977501 4.2038954e-45
-0.19882329 0.12403069 0.9977501 1.0875186e-38
-0.19632329 0.12153069 0.9977501 8.2651947e-40
-0.19632329 0.12403069 0.9977501 1.0967005e-38
-0.19632329 0.12653069 0.99525011 1.5386243e-38
-0.19882329 0.12653069 0.9977501 1.5292976e-38
-0.19632329 0.12653069 0.9977501 1.5385171e-38
-0.20382328 0.11153069 1.0102501 4.1415656e-39
-0.20382328 0.11403069 1.0102501 4.5917748e-40
-0.20132329 0.11153069 1.00775 0
-0.20132329 0.11153069 1.0102501 0
-0.20132329 0.11403069 1.00775 0
-0.20132329 0.11403069 1.0102501 0
-0.20132329 0.11653069 1.00275 0
-0.20132329 0.11653069 1.00775 7.3568169e-43
-0.19882329 0.11153069 1.00775 5.5137171e-40
-0.19882329 0.11153069 1.0102501 9.1871369e-40
-0.19882329 0.11403069 1.00775 1.1981746e-39
-0.19882329 0.11403069 1.0102501 1.0159344e-39
-0.19632329 0.11153069 1.0102501 1.1027728e-39
-0.19632329 0.11403069 1.00775 1.6566445e-39
-0.19632329 0.11403069 1.0102501 2.2987769e-39
-0.19882329 0.11653069 1.00275 2.8768657e-42
-0.19632329 0.11653069 1.00275 3.5873241e-43
-0.19882329 0.11653069 1.00775 4.3370187e-42
-0.19882329 0.11653069 1.0102501 9.5432629e-41
-0.19632329 0.11653069 1.00775 1.9361082e-39
-0.19632329 0.11653069 1.0102501 1.9350516e-39
-0.20132329 0.11153069 1.0152501 2.3877229e-39
-0.20132329 0.11403069 1.01275 0
-0.20132329 0.11403069 1.0152501 8.2759987e-40
-0.20382328 0.11403069 1.01775 0
-0.20132329 0.11403069 1.01775 3.6806225e-40
-0.19882329 0.11153069 1.01275 6.4501908e-40
-0.19882329 0.11153069 1.0152501 2.1143856e-39
-0.19882329 0.11403069 1.01275 1.3825841e-39
-0.19882329 0.11403069 1.0152501 7.3722733e-40
-0.19632329 0.11153069 1.01275 1.1981929e-39
-0.19632329 0.11153069 1.0152501 2.0221886e-39
-0.19632329 0.11403069 1.01275 1.4726133e-39
-0.19632329 0.11403069 1.0152501 1.1981929e-39
-0.19882329 0.11153069 1.01775 1.011631e-39
-0.19632329 0.11153069 1.01775 1.6566445e-39
-0.19382328 0.11903069 0.99275011 2.1122164e-39
-0.19382328 0.11903069 0.99525011 1.0870808e-38
-0.19132328 0.11903069 0.99275011 1.0231939e-38
-0.19132328 0.11903069 0.99525011 1.0048627e-38
-0.19382328 0.11653069 1.0002501 1.1985432e-39
-0.19382328 0.11903069 0.9977501 1.0594213e-38
-0.19382328 0.11903069 1.0002501 3.6839002e-39
-0.19132328 0.11653069 1.0002501 2.1179828e-39
-0.19132328 0.11903069 0.9977501 1.0139742e-38
-0.19132328 0.11903069 1.0002501 9.6787657e-39
-0.18882328 0.11903069 0.99275011 9.5865701e-39
-0.18882328 0.11903069 0.99525011 9.5872889e-39
-0.18882328 0.11903069 0.9977501 7.2806438e-39
-0.18882328 0.11903069 1.0002501 7.0055002e-39
-0.18632329 0.11903069 1.0002501 2.0272949e-39
-0.19382328 0.12153069 0.99275011 7.6931286e-43
-0.19382328 0.12153069 0.99525011 1.1020274e-39
-0.19382328 0.12403069 0.99275011 1.0966649e-38
-0.19382328 0.12403069 0.99525011 1.262653e-38
-0.19132328 0.12153069 0.99275011 1.4840973e-38
-0.19132328 0.12153069 0.99525011 1.5392021e-38
-0.19132328 0.12403069 0.99275011 7.5589655e-39
-0.19132328 0.12403069 0.99525011 7.5586123e-39
-0.19382328 0.12153069 0.9977501 1.4653347e-38
-0.19132328 0.12153069 0.9977501 1.5390224e-38
-0.19382328 0.12653069 0.99525011 1.2441741e-38
-0.19382328 0.12903069 0.99525011 1.308458e-38
-0.19132328 0.12653069 0.99275011 2.6801178e-39
-0.19132328 0.12653069 0.99525011 4.517897e-39
-0.19132328 0.12903069 0.99275011 5.9894986e-39
-0.19132328 0.12903069 0.99525011 6.3554196e-39
-0.18882328 0.12153069 0.99275011 1.4933168e-38
-0.18882328 0.12153069 0.99525011 1.5481698e-38
-0.18882328 0.12403069 0.99275011 8.2043349e-39
-0.18882328 0.12403069 0.99525011 7.8355593e-39
-0.18632329 0.12153069 0.99275011 1.6128885e-38
-0.18632329 0.12153069 0.99525011 1.4103804e-38
-0.18632329 0.12403069 0.99275011 0
-0.18632329 0.12403069 0.99525011 0
-0.18882328 0.12153069 0.9977501 1.5298029e-38
-0.18882328 0.12153069 1.0002501 1.419637e-38
-0.18882328 0.12403069 0.9977501 8.2050383e-39
-0.18632329 0.12153069 0.9977501 1.012022e-39
-0.18632329 0.12153069 1.0002501 1.1964174e-39
-0.18632329 0.12403069 0.9977501 0
-0.18632329 0.12403069 1.0002501 1.0105996e-39
-0.18882328 0.12653069 0.99275011 5.0222537e-42
-0.18882328 0.12653069 0.99525011 7.3791256e-40
-0.18882328 0.12903069 0.99275011 0
-0.18882328 0.12903069 0.99525011 7.0064923e-45
-0.18632329 0.12653069 0.99275011 1.4012985e-45
-0.18632329 0.12653069 0.99525011 0
-0.18632329 0.12903069 0.99275011 0
-0.18632329 0.12903069 0.99525011 0
-0.18882328 0.12653069 0.9977501 1.7481423e-39
-0.18632329 0.12653069 0.9977501 0
-0.18632329 0.12653069 1.0002501 0
-0.18382329 0.11903069 1.0002501 0
-0.18382329 0.12403069 0.98775005 0
-0.18132329 0.12403069 0.98775005 5.3477123e-39
-0.18382329 0.12653069 0.98775005 0
-0.18132329 0.12653069 0.98775005 9.4043074e-39
-0.18382329 0.12403069 0.99275011 0
-0.18382329 0.12403069 0.99525011 0
-0.18132329 0.12403069 0.99275011 4.5175859e-39
-0.18132329 0.12403069 0.99525011 4.6104976e-39
-0.18382329 0.12153069 1.0002501 0
-0.18382329 0.12403069 0.9977501 4.9785612e-39
-0.18382329 0.12403069 1.0002501 0
-0.18382329 0.12653069 0.99275011 0
-0.18382329 0.12653069 0.99525011 0
-0.18382329 0.12903069 0.99525011 0
-0.18132329 0.12653069 0.99275011 8.758938e-39
-0.18132329 0.12653069 0.99525011 8.5752656e-39
-0.18132329 0.12903069 0.99525011 1.5203647e-38
-0.18382329 0.12653069 0.9977501 9.6776545e-39
-0.18382329 0.12653069 1.0002501 4.7948958e-39
-0.18132329 0.12653069 0.9977501 1.2164434e-38
-0.18132329 0.12653069 1.0002501 8.0996214e-39
-0.19382328 0.11653069 1.00275 2.3945654e-39
-0.19382328 0.11903069 1.00275 3.9579283e-39
-0.19132328 0.11653069 1.00275 2.4867639e-39
-0.19132328 0.11903069 1.00275 4.3263521e-39
-0.19382328 0.11653069 1.00775 2.5811245e-39
-0.19382328 0.11653069 1.0102501 2.3963773e-39
-0.19132328 0.11653069 1.00775 2.7637081e-39
-0.19132328 0.11653069 1.0102501 2.9473833e-39
-0.18882328 0.11903069 1.00275 3.5913136e-39
-0.18632329 0.11903069 1.00275 4.0555105e-39
-0.18882328 0.11653069 1.00775 2.947033e-39
-0.18882328 0.11653069 1.0102501 2.0257857e-39
-0.18882328 0.11903069 1.00775 3.8682508e-39
-0.18882328 0.11903069 1.0102501 3.868248e-39
-0.18632329 0.11653069 1.00775 8.4524712e-39
-0.18632329 0.11653069 1.0102501 8.4542887e-39
-0.18632329 0.11903069 1.00775 4.3166733e-39
-0.18632329 0.11903069 1.0102501 4.8673289e-39
-0.19382328 0.11153069 1.01275 2.1179828e-39
-0.19382328 0.11153069 1.0152501 2.0315409e-39
-0.19382328 0.11403069 1.01275 1.3825841e-39
-0.19382328 0.11403069 1.0152501 2.4006835e-39
-0.19132328 0.11153069 1.0152501 2.9484623e-39
-0.19132328 0.11403069 1.01275 3.4090873e-39
-0.19132328 0.11403069 1.0152501 3.5938317e-39
-0.19382328 0.11153069 1.01775 3.0399377e-39
-0.19382328 0.11403069 1.01775 2.1219246e-39
-0.19132328 0.11153069 1.01775 2.8562667e-39
-0.19132328 0.11403069 1.01775 2.9491713e-39
-0.19382328 0.11653069 1.01275 3.3186924e-39
-0.19132328 0.11653069 1.01275 3.5016417e-39
-0.18882328 0.11153069 1.0152501 3.1346514e-39
-0.18882328 0.11403069 1.01275 1.9339558e-39
-0.18882328 0.11403069 1.0152501 1.1038294e-39
-0.18632329 0.11403069 1.01275 2.0221886e-39
-0.18882328 0.11153069 1.01775 2.9484623e-39
-0.18882328 0.11403069 1.01775 2.1179828e-39
-0.18632329 0.11403069 1.01775 5.0682415e-39
-0.18882328 0.11653069 1.01275 1.5655334e-39
-0.18882328 0.11653069 1.0152501 5.5151744e-39
-0.18882328 0.11903069 1.01275 1.4726133e-39
-0.18632329 0.11653069 1.01275 5.697049e-39
-0.18632329 0.11653069 1.0152501 1.5838567e-38
-0.18632329 0.11903069 1.01275 1.4631036e-38
-0.18632329 0.11903069 1.0152501 1.4539176e-38
-0.18632329 0.11653069 1.01775 1.5469784e-38
-0.18882328 0.12153069 1.00275 7.1902502e-39
-0.18632329 0.12153069 1.00275 1.1971335e-39
-0.18632329 0.12403069 1.00275 0
-0.18882328 0.12153069 1.00775 1.3811772e-39
-0.18632329 0.12153069 1.00775 0
-0.18382329 0.11653069 1.0102501 1.4999098e-38
-0.18382329 0.11903069 1.00775 2.2040589e-39
-0.18382329 0.11903069 1.0102501 2.7550803e-39
-0.18382329 0.11903069 1.01275 9.1082158e-39
-0.18382329 0.11903069 1.0152501 1.8333919e-38
-0.18382329 0.11653069 1.01775 1.7505982e-38
-0.18382329 0.12153069 1.00275 0
-0.18382329 0.12403069 1.00275 0
-0.18382329 0.12153069 1.00775 0
-0.18382329 0.12153069 1.0102501 0
-0.20382328 0.11153069 1.0227501 9.6664413e-39
-0.20132329 0.11153069 1.0252501 0
-0.19882329 0.11153069 1.0227501 1.7491988e-39
-0.19382328 0.11153069 1.0227501 2.6736733e-39
-0.19382328 0.11153069 1.0252501 2.5814776e-39
-0.19132328 0.11153069 1.0227501 3.0424558e-39
-0.19132328 0.11153069 1.0252501 3.0424558e-39
-0.18882328 0.11153069 1.0227501 2.7633522e-39
-0.18882328 0.11153069 1.0252501 1.6580794e-39
-0.18882328 0.11403069 1.0227501 2.3016636e-39
-0.18882328 0.11403069 1.0252501 1.472263e-39
-0.18632329 0.11153069 1.0227501 3.6734198e-40
-0.18632329 0.11153069 1.0252501 2.8501388e-39
-0.18632329 0.11403069 1.0227501 7.7332772e-39
-0.18632329 0.11403069 1.0252501 7.5478153e-39
-0.18882328 0.11153069 1.0277501 2.0261529e-39
-0.18632329 0.11153069 1.0277501 1.6573507e-39
-0.18632329 0.11153069 1.0302501 8.2032404e-39
-0.18632329 0.11653069 1.0227501 1.1326749e-38
-0.18382329 0.11153069 1.0252501 1.4830176e-38
-0.18382329 0.11403069 1.0252501 1.9071542e-38
-0.18382329 0.11153069 1.0277501 1.3267886e-38
-0.18382329 0.11153069 1.0302501 9.5830136e-39
-0.18132329 0.11153069 1.0302501 1.7325656e-38
-0.19382328 0.08903069 1.0627501 7.0064923e-45
-0.19132328 0.08903069 1.0627501 2.9473833e-39
-0.18882328 0.086530693 1.0627501 2.3945654e-39
-0.18632329 0.08903069 1.0627501 3.7757048e-39
-0.19382328 0.091530688 1.0627501 6.4284847e-40
-0.19382328 0.094030693 1.0627501 1.4762021e-39
-0.19132328 0.091530688 1.0627501 2.9473833e-39
-0.18632329 0.091530688 1.0627501 4.0522917e-39
-0.18382329 0.091530688 1.0627501 4.1444873e-39
-0.18132329 0.091530688 1.0627501 4.236683e-39
