# .PCD v0.7 - Point Cloud Data file format
VERSION 0.7
FIELDS x y z rgb
SIZE 4 4 4 4
TYPE F F F F
COUNT 1 1 1 1
WIDTH 518
HEIGHT 1
VIEWPOINT 0 0 0 1 0 0 0
POINTS 518
DATA ascii
-0.0040159407 0.10294086 1.0312501 7.3468397e-40
-0.0040159407 0.10044086 1.0412501 6.4284847e-40
-0.0040159407 0.10294086 1.0412501 2.7550649e-40
-0.0040159407 0.10044086 1.04375 7.3468397e-40
-0.0015159406 0.10294086 1.0312501 2.1176324e-39
0.0009840593 0.10294086 1.0312501 2.0257829e-39
0.0059840595 0.10294086 1.0237501 2.4842457e-39
0.0034840594 0.10294086 1.0287501 2.8526695e-39
0.0034840594 0.10294086 1.0312501 2.1183387e-39
0.0059840595 0.10044086 1.0312501 2.3020139e-39
0.0059840595 0.10294086 1.0287501 2.5767903e-39
0.0059840595 0.10294086 1.0312501 2.9448652e-39
0.010984059 0.10294086 1.0187501 1.0133594e-38
0.010984059 0.10294086 1.0212501 9.6751335e-39
0.013484059 0.10294086 1.0187501 1.6955711e-38
0.013484059 0.10294086 1.0212501 1.6405054e-38
0.008484059 0.10294086 1.0237501 7.3504691e-40
0.010984059 0.10044086 1.0237501 9.6747804e-39
0.010984059 0.10294086 1.0237501 2.3945682e-39
0.008484059 0.10044086 1.0312501 8.2724394e-40
0.008484059 0.10294086 1.0287501 4.5917748e-40
0.008484059 0.10294086 1.0312501 6.4284847e-40
0.010984059 0.10044086 1.0287501 1.0132515e-38
0.010984059 0.10044086 1.0312501 1.022471e-38
0.010984059 0.10294086 1.0287501 9.8566479e-39
0.010984059 0.10294086 1.0312501 1.0961554e-38
0.013484059 0.10044086 1.0237501 1.640506e-38
0.013484059 0.10294086 1.0237501 1.713974e-38
0.013484059 0.10044086 1.0287501 1.7139384e-38
0.013484059 0.10294086 1.0287501 1.7047907e-38
0.013484059 0.10294086 1.0312501 1.713795e-38
-0.0015159406 0.097940862 1.0412501 5.5317378e-40
-0.0015159406 0.10294086 1.0337501 1.9335873e-39
0.0009840593 0.10044086 1.0337501 2.0250809e-39
0.0009840593 0.10294086 1.0337501 2.2987769e-39
-0.0015159406 0.10044086 1.0387501 1.5673257e-39
-0.0015159406 0.10044086 1.0412501 1.8410441e-39
-0.0015159406 0.10294086 1.0387501 1.9335901e-39
-0.0015159406 0.10294086 1.0412501 1.1038294e-39
0.0009840593 0.10044086 1.0387501 2.4835269e-39
0.0009840593 0.10044086 1.0412501 1.2907388e-39
0.0009840593 0.10294086 1.0387501 2.4835269e-39
0.0034840594 0.10044086 1.0337501 2.3020139e-39
0.0034840594 0.10294086 1.0337501 2.759755e-39
0.0059840595 0.10044086 1.0337501 3.2185626e-39
0.0034840594 0.10044086 1.0387501 2.8501388e-39
0.0034840594 0.10044086 1.0412501 2.8526695e-39
0.0034840594 0.10294086 1.0387501 2.759755e-39
0.0059840595 0.10044086 1.0387501 2.6668531e-39
0.0059840595 0.10044086 1.0412501 3.1296151e-39
-0.0015159406 0.097940862 1.04375 1.9361082e-39
-0.0015159406 0.097940862 1.0462501 2.3938592e-39
0.0009840593 0.097940862 1.04375 1.6562941e-39
0.0009840593 0.097940862 1.0462501 1.5669768e-39
-0.0015159406 0.095440857 1.0487502 1.1077741e-39
-0.0015159406 0.097940862 1.0487502 2.4867611e-39
0.0009840593 0.095440857 1.0487502 2.1179828e-39
0.0009840593 0.097940862 1.0487502 2.1179828e-39
-0.0015159406 0.10044086 1.04375 8.2689361e-40
-0.0015159406 0.10044086 1.0462501 7.3504691e-40
-0.0015159406 0.10294086 1.0462501 1.1031204e-39
0.0009840593 0.10044086 1.04375 2.667558e-39
0.0009840593 0.10044086 1.0462501 2.759755e-39
0.0034840594 0.097940862 1.04375 2.4828206e-39
0.0034840594 0.097940862 1.0462501 2.1179828e-39
0.0059840595 0.095440857 1.0462501 3.1296151e-39
0.0059840595 0.097940862 1.04375 2.9441463e-39
0.0059840595 0.097940862 1.0462501 2.3945682e-39
0.0034840594 0.095440857 1.0487502 2.3020139e-39
0.0034840594 0.097940862 1.0487502 2.0257857e-39
0.0059840595 0.095440857 1.0487502 2.5789595e-39
0.0059840595 0.097940862 1.0487502 2.8519507e-39
0.0034840594 0.10044086 1.04375 2.759755e-39
0.0034840594 0.10044086 1.0462501 2.759755e-39
0.0059840595 0.10044086 1.04375 3.0363419e-39
0.0059840595 0.10044086 1.0462501 2.4864135e-39
0.008484059 0.10044086 1.0337501 6.4286249e-40
0.010984059 0.10044086 1.0337501 9.6729825e-39
0.008484059 0.10044086 1.0387501 7.3504691e-40
0.008484059 0.10044086 1.0412501 1.1038294e-39
0.010984059 0.10044086 1.0387501 1.7491988e-39
0.010984059 0.10044086 1.0412501 1.0039247e-38
0.013484059 0.10044086 1.0337501 1.6955711e-38
0.013484059 0.10044086 1.0387501 1.6864242e-38
0.013484059 0.10044086 1.0412501 1.6954988e-38
0.008484059 0.095440857 1.0462501 2.1179828e-39
0.008484059 0.097940862 1.04375 1.3804163e-39
0.008484059 0.097940862 1.0462501 1.4726133e-39
0.010984059 0.097940862 1.04375 9.1187298e-39
0.010984059 0.097940862 1.0462501 1.4726133e-39
0.008484059 0.095440857 1.0487502 2.0257829e-39
0.008484059 0.097940862 1.0487502 1.6566445e-39
0.010984059 0.095440857 1.0487502 1.1038294e-39
0.010984059 0.097940862 1.0487502 1.472263e-39
0.008484059 0.10044086 1.04375 8.2689361e-40
0.008484059 0.10044086 1.0462501 4.6026909e-40
0.010984059 0.10044086 1.04375 1.0133591e-38
0.010984059 0.10044086 1.0462501 9.487871e-39
0.010984059 0.10294086 1.0462501 9.856285e-39
0.010984059 0.10044086 1.0487502 9.7640992e-39
0.013484059 0.097940862 1.04375 1.5296915e-38
0.013484059 0.097940862 1.0462501 1.5388391e-38
0.01598406 0.097940862 1.04375 1.5478789e-38
0.01598406 0.097940862 1.0462501 1.5847915e-38
0.013484059 0.097940862 1.0487502 1.5480234e-38
0.01598406 0.097940862 1.0487502 1.5756802e-38
0.013484059 0.10044086 1.04375 1.5849364e-38
0.013484059 0.10044086 1.0462501 1.612523e-38
0.013484059 0.10294086 1.0462501 1.7048263e-38
0.013484059 0.10044086 1.0487502 1.5941918e-38
0.013484059 0.10294086 1.0487502 1.7508165e-38
-0.0040159407 0.087940857 1.0662501 8.2651947e-40
-0.0040159407 0.087940857 1.0687501 8.2651947e-40
-0.0040159407 0.090440862 1.0687501 3.6734198e-40
-0.0040159407 0.092940859 1.0687501 4.5917748e-40
-0.0040159407 0.095440857 1.0562501 7.3576017e-40
-0.0040159407 0.097940862 1.0537502 8.279544e-40
-0.0040159407 0.097940862 1.0562501 1.1960251e-39
-0.0040159407 0.095440857 1.0587502 1.8367099e-40
-0.0040159407 0.10044086 1.0537502 8.2689361e-40
-0.0040159407 0.095440857 1.0662501 1.1963726e-39
-0.0040159407 0.097940862 1.0637501 7.3504691e-40
-0.0040159407 0.087940857 1.0737501 0
-0.0040159407 0.087940857 1.0762501 9.1835496e-40
-0.0040159407 0.085440859 1.0787501 9.1835496e-40
-0.0040159407 0.087940857 1.0787501 9.1835496e-41
-0.0040159407 0.090440862 1.0737501 9.1835496e-40
-0.0040159407 0.090440862 1.0762501 2.3913102e-39
-0.0040159407 0.092940859 1.0737501 6.4320721e-40
-0.0040159407 0.090440862 1.0787501 2.2076392e-39
-0.0040159407 0.085440859 1.0837501 9.1835496e-40
0.0009840593 0.080440857 1.0687501 3.680282e-39
0.0009840593 0.082940862 1.0687501 3.4980389e-39
0.0034840594 0.080440857 1.0687501 3.5913136e-39
0.0034840594 0.082940862 1.0687501 3.4991179e-39
0.0059840595 0.080440857 1.0687501 3.8679005e-39
0.0059840595 0.082940862 1.0687501 3.4069223e-39
0.008484059 0.077940859 1.0687501 4.5975566e-39
0.010984059 0.077940859 1.0687501 3.6734198e-40
0.008484059 0.080440857 1.0687501 3.0367105e-39
0.008484059 0.082940862 1.0687501 3.2218122e-39
0.010984059 0.080440857 1.0687501 6.618676e-39
0.010984059 0.082940862 1.0687501 7.0807233e-39
0.013484059 0.080440857 1.0687501 2.0355825e-38
0.013484059 0.082940862 1.0687501 1.9803722e-38
-0.0015159406 0.082940862 1.0737501 2.9430533e-39
-0.0015159406 0.082940862 1.0762501 4.1347539e-39
0.0009840593 0.082940862 1.0737501 3.3136575e-39
0.0009840593 0.082940862 1.0762501 3.3136575e-39
-0.0015159406 0.082940862 1.0787501 3.6741373e-39
0.0009840593 0.082940862 1.0787501 3.4973355e-39
0.0059840595 0.077940859 1.0737501 7.5319722e-39
0.0059840595 0.077940859 1.0762501 7.9007225e-39
0.0034840594 0.075440861 1.0787501 1.9995653e-38
0.0034840594 0.077940859 1.0787501 8.7297994e-39
0.0059840595 0.075440861 1.0787501 1.3449764e-38
0.0059840595 0.077940859 1.0787501 7.9915141e-39
0.0034840594 0.080440857 1.0762501 6.4284847e-40
0.0034840594 0.082940862 1.0737501 3.4976886e-39
0.0034840594 0.082940862 1.0762501 3.4976886e-39
0.0059840595 0.080440857 1.0737501 1.8367239e-39
0.0059840595 0.080440857 1.0762501 1.5615622e-39
0.0059840595 0.082940862 1.0737501 3.5898842e-39
0.0059840595 0.082940862 1.0762501 3.7724776e-39
0.0034840594 0.080440857 1.0787501 0
0.0034840594 0.082940862 1.0787501 3.3133044e-39
0.0059840595 0.080440857 1.0787501 1.4693693e-39
0.0059840595 0.082940862 1.0787501 3.7742755e-39
0.0009840593 0.080440857 1.0837501 3.4901146e-39
0.0009840593 0.082940862 1.0837501 3.3133044e-39
0.0034840594 0.077940859 1.0837501 9.5681276e-39
0.0034840594 0.077940859 1.0862501 9.2901128e-39
0.0059840595 0.075440861 1.0837501 1.5011683e-38
0.0059840595 0.077940859 1.0837501 7.8067641e-39
0.0034840594 0.080440857 1.0837501 8.2651947e-40
0.0034840594 0.080440857 1.0862501 7.3468397e-40
0.0034840594 0.082940862 1.0837501 3.5895311e-39
0.0059840595 0.080440857 1.0837501 1.9285524e-39
0.008484059 0.077940859 1.0737501 4.2291202e-39
0.008484059 0.077940859 1.0762501 4.5975566e-39
0.010984059 0.077940859 1.0762501 3.6734198e-40
0.008484059 0.077940859 1.0787501 4.3198991e-39
0.008484059 0.080440857 1.0737501 3.1267397e-39
0.008484059 0.080440857 1.0762501 3.5877164e-39
0.008484059 0.082940862 1.0737501 3.3140078e-39
0.008484059 0.082940862 1.0762501 3.3118372e-39
0.010984059 0.080440857 1.0737501 0
0.010984059 0.080440857 1.0762501 1.8367099e-40
0.010984059 0.082940862 1.0737501 7.082503e-39
0.010984059 0.082940862 1.0762501 1.8367099e-40
0.008484059 0.080440857 1.0787501 3.2218122e-39
0.008484059 0.082940862 1.0787501 3.3140078e-39
0.010984059 0.080440857 1.0787501 0
0.010984059 0.082940862 1.0787501 0
0.013484059 0.080440857 1.0762501 5.6037982e-39
0.013484059 0.082940862 1.0737501 1.9989891e-38
0.013484059 0.082940862 1.0762501 2.026433e-38
0.013484059 0.082940862 1.0787501 6.5257517e-39
0.008484059 0.077940859 1.0837501 4.5053609e-39
0.008484059 0.080440857 1.0837501 3.1296151e-39
0.010984059 0.080440857 1.0837501 0
-0.0015159406 0.092940859 1.0562501 2.3945654e-39
0.0009840593 0.092940859 1.0562501 2.759755e-39
-0.0015159406 0.092940859 1.0587502 2.3027201e-39
0.0009840593 0.092940859 1.0587502 2.7590488e-39
0.0034840594 0.092940859 1.0537502 2.8519507e-39
0.0034840594 0.092940859 1.0562501 2.3020139e-39
0.0059840595 0.090440862 1.0562501 2.6686384e-39
0.0059840595 0.092940859 1.0537502 2.4864135e-39
0.0059840595 0.092940859 1.0562501 2.1179828e-39
0.0034840594 0.090440862 1.0587502 2.5789595e-39
0.0034840594 0.092940859 1.0587502 2.3020139e-39
0.0059840595 0.090440862 1.0587502 2.4867639e-39
0.0059840595 0.092940859 1.0587502 2.6711551e-39
-0.0015159406 0.087940857 1.0662501 3.4051216e-39
0.0009840593 0.087940857 1.0662501 2.7590488e-39
-0.0015159406 0.085440859 1.0687501 2.8515849e-39
-0.0015159406 0.087940857 1.0687501 3.3129246e-39
0.0009840593 0.085440859 1.0687501 3.5877164e-39
0.0009840593 0.087940857 1.0687501 3.5877164e-39
-0.0015159406 0.090440862 1.0662501 2.6711523e-39
-0.0015159406 0.092940859 1.0637501 2.579307e-39
-0.0015159406 0.092940859 1.0662501 2.7640584e-39
0.0009840593 0.090440862 1.0637501 2.8526695e-39
0.0009840593 0.090440862 1.0662501 2.7590488e-39
0.0009840593 0.092940859 1.0637501 2.1179828e-39
0.0009840593 0.092940859 1.0662501 2.3938592e-39
-0.0015159406 0.090440862 1.0687501 3.0370482e-39
-0.0015159406 0.092940859 1.0687501 3.3129274e-39
0.0009840593 0.090440862 1.0687501 2.9448652e-39
0.0009840593 0.092940859 1.0687501 2.3938592e-39
0.0034840594 0.087940857 1.0637501 2.8516031e-39
0.0034840594 0.087940857 1.0662501 3.2218122e-39
0.0059840595 0.087940857 1.0637501 3.4044182e-39
0.0059840595 0.087940857 1.0662501 3.3122226e-39
0.0034840594 0.085440859 1.0687501 2.5786092e-39
0.0034840594 0.087940857 1.0687501 3.5877164e-39
0.0059840595 0.085440859 1.0687501 3.4980389e-39
0.0059840595 0.087940857 1.0687501 2.7640584e-39
0.0034840594 0.090440862 1.0637501 2.9448652e-39
0.0034840594 0.090440862 1.0662501 2.1176324e-39
0.0034840594 0.092940859 1.0637501 2.0254368e-39
0.0059840595 0.090440862 1.0637501 3.1296151e-39
0.0059840595 0.092940859 1.0637501 2.6711523e-39
-0.0015159406 0.095440857 1.0537502 1.6573507e-39
-0.0015159406 0.095440857 1.0562501 2.026492e-39
-0.0015159406 0.097940862 1.0537502 2.118689e-39
-0.0015159406 0.097940862 1.0562501 1.4733196e-39
0.0009840593 0.095440857 1.0537502 1.7484898e-39
0.0009840593 0.095440857 1.0562501 1.8410441e-39
0.0009840593 0.097940862 1.0537502 2.7590488e-39
0.0009840593 0.097940862 1.0562501 2.1176324e-39
-0.0015159406 0.095440857 1.0587502 2.6711523e-39
-0.0015159406 0.097940862 1.0587502 1.3829344e-39
0.0009840593 0.095440857 1.0587502 2.3016636e-39
0.0034840594 0.095440857 1.0537502 2.3016636e-39
0.0034840594 0.095440857 1.0562501 2.0250809e-39
0.0034840594 0.097940862 1.0537502 2.7590488e-39
0.0034840594 0.097940862 1.0562501 2.0254368e-39
0.0059840595 0.095440857 1.0537502 2.4864135e-39
0.0059840595 0.095440857 1.0562501 2.3016664e-39
0.0059840595 0.097940862 1.0537502 2.9441463e-39
0.0034840594 0.095440857 1.0587502 2.1176324e-39
-0.0015159406 0.095440857 1.0637501 2.4871114e-39
-0.0015159406 0.095440857 1.0662501 2.3949158e-39
-0.0015159406 0.097940862 1.0637501 2.1179828e-39
0.010984059 0.087940857 1.0537502 6.9899724e-39
0.010984059 0.087940857 1.0562501 6.7144463e-39
0.010984059 0.087940857 1.0587502 6.4392986e-39
0.008484059 0.090440862 1.0562501 2.9448652e-39
0.008484059 0.092940859 1.0537502 2.0257829e-39
0.008484059 0.092940859 1.0562501 2.0257829e-39
0.010984059 0.090440862 1.0537502 7.1783055e-39
0.010984059 0.090440862 1.0562501 6.5318529e-39
0.010984059 0.092940859 1.0537502 7.0875574e-39
0.010984059 0.092940859 1.0562501 6.9035235e-39
0.008484059 0.090440862 1.0587502 2.4871114e-39
0.008484059 0.092940859 1.0587502 2.8533758e-39
0.010984059 0.090440862 1.0587502 6.1641592e-39
0.010984059 0.092940859 1.0587502 6.9020774e-39
0.013484059 0.087940857 1.0537502 1.7039297e-38
0.013484059 0.087940857 1.0562501 1.6947802e-38
0.01598406 0.087940857 1.0537502 1.6954597e-38
0.01598406 0.087940857 1.0562501 1.7321941e-38
0.013484059 0.087940857 1.0587502 1.6857405e-38
0.01598406 0.087940857 1.0587502 1.7046793e-38
0.013484059 0.090440862 1.0537502 1.6213836e-38
0.013484059 0.090440862 1.0562501 1.6580816e-38
0.013484059 0.092940859 1.0537502 1.5938698e-38
0.013484059 0.092940859 1.0562501 1.5846498e-38
0.01598406 0.090440862 1.0537502 1.5664252e-38
0.01598406 0.090440862 1.0562501 1.621526e-38
0.01598406 0.092940859 1.0537502 1.5479861e-38
0.01598406 0.092940859 1.0562501 1.5203281e-38
0.013484059 0.090440862 1.0587502 1.6397515e-38
0.013484059 0.092940859 1.0587502 1.6030891e-38
0.01598406 0.090440862 1.0587502 1.5021035e-38
0.01598406 0.092940859 1.0587502 1.5111448e-38
0.008484059 0.087940857 1.0637501 3.1299627e-39
0.008484059 0.087940857 1.0662501 2.8519507e-39
0.010984059 0.085440859 1.0637501 6.5311439e-39
0.010984059 0.085440859 1.0662501 6.8952544e-39
0.010984059 0.087940857 1.0637501 6.6215416e-39
0.010984059 0.087940857 1.0662501 6.3467526e-39
0.008484059 0.085440859 1.0687501 2.759755e-39
0.008484059 0.087940857 1.0687501 3.0370608e-39
0.010984059 0.085440859 1.0687501 6.6215416e-39
0.010984059 0.087940857 1.0687501 6.529346e-39
0.008484059 0.090440862 1.0637501 2.9448652e-39
0.008484059 0.092940859 1.0637501 3.037767e-39
0.010984059 0.090440862 1.0637501 2.7550649e-40
0.010984059 0.090440862 1.0662501 6.4389482e-39
0.013484059 0.085440859 1.0637501 1.7963402e-38
0.013484059 0.085440859 1.0662501 1.9434219e-38
0.013484059 0.087940857 1.0637501 1.6857405e-38
0.013484059 0.087940857 1.0662501 1.7041804e-38
0.01598406 0.087940857 1.0637501 1.6953884e-38
0.013484059 0.085440859 1.0687501 1.8975756e-38
0.013484059 0.087940857 1.0687501 1.8238191e-38
0.013484059 0.090440862 1.0637501 1.630459e-38
0.013484059 0.090440862 1.0662501 1.6857054e-38
0.008484059 0.095440857 1.0537502 2.1179828e-39
0.008484059 0.095440857 1.0562501 2.1179828e-39
0.008484059 0.097940862 1.0537502 1.4726133e-39
0.010984059 0.095440857 1.0537502 7.6425291e-39
0.010984059 0.095440857 1.0562501 7.5503335e-39
0.010984059 0.097940862 1.0537502 1.2882179e-39
0.010984059 0.097940862 1.0562501 8.7499528e-39
0.010984059 0.095440857 1.0587502 8.2724394e-40
0.010984059 0.097940862 1.0587502 8.3804472e-39
0.010984059 0.10044086 1.0537502 9.488943e-39
0.013484059 0.095440857 1.0537502 1.566355e-38
0.013484059 0.095440857 1.0562501 1.5571353e-38
0.013484059 0.097940862 1.0537502 1.538911e-38
0.013484059 0.097940862 1.0562501 1.5388038e-38
0.01598406 0.095440857 1.0537502 1.5478792e-38
0.01598406 0.095440857 1.0562501 1.529584e-38
0.01598406 0.097940862 1.0537502 1.5202925e-38
0.01598406 0.097940862 1.0562501 1.5202925e-38
0.013484059 0.095440857 1.0587502 1.5755746e-38
0.013484059 0.097940862 1.0587502 1.5480234e-38
0.01598406 0.097940862 1.0587502 1.5571338e-38
0.013484059 0.10044086 1.0537502 1.5941565e-38
0.01598406 0.10044086 1.0537502 1.6030161e-38
0.01598406 0.095440857 1.0637501 1.5111451e-38
0.01598406 0.097940862 1.0637501 1.5203281e-38
-0.0015159406 0.085440859 1.0737501 3.8588929e-39
-0.0015159406 0.085440859 1.0762501 3.2192912e-39
-0.0015159406 0.087940857 1.0737501 3.7713664e-39
-0.0015159406 0.087940857 1.0762501 3.1296151e-39
0.0009840593 0.085440859 1.0737501 3.2218122e-39
0.0009840593 0.085440859 1.0762501 3.0367105e-39
0.0009840593 0.087940857 1.0737501 3.037767e-39
-0.0015159406 0.085440859 1.0787501 4.4091828e-39
0.0009840593 0.085440859 1.0787501 3.3136575e-39
-0.0015159406 0.090440862 1.0737501 3.0370482e-39
-0.0015159406 0.090440862 1.0762501 2.7637081e-39
-0.0015159406 0.092940859 1.0737501 2.7637081e-39
0.0009840593 0.090440862 1.0737501 2.3949158e-39
0.0034840594 0.085440859 1.0737501 3.3140078e-39
0.0034840594 0.085440859 1.0762501 3.3140078e-39
0.0034840594 0.087940857 1.0737501 3.4951705e-39
0.0059840595 0.085440859 1.0737501 3.2218122e-39
0.0059840595 0.085440859 1.0762501 3.2218122e-39
0.0059840595 0.087940857 1.0737501 3.3140078e-39
0.0034840594 0.085440859 1.0787501 3.4069223e-39
0.008484059 0.085440859 1.0737501 3.1296151e-39
0.008484059 0.085440859 1.0762501 3.2221597e-39
0.008484059 0.087940857 1.0737501 3.6809827e-39
0.010984059 0.085440859 1.0737501 6.9903073e-39
0.010984059 0.085440859 1.0762501 0
0.010984059 0.087940857 1.0737501 7.2625978e-39
0.008484059 0.085440859 1.0787501 3.3143553e-39
0.010984059 0.085440859 1.0787501 0
0.013484059 0.085440859 1.0737501 1.9252326e-38
0.013484059 0.085440859 1.0762501 1.9343453e-38
0.013484059 0.087940857 1.0737501 1.7687524e-38
0.013484059 0.085440859 1.0787501 1.9804796e-38
-0.0040159407 0.11294086 1.0212501 1.4835571e-38
-0.0040159407 0.10544086 1.0287501 2.7550649e-40
-0.0040159407 0.10544086 1.0312501 8.2651947e-40
-0.0040159407 0.10794086 1.0287501 8.2651947e-40
-0.0040159407 0.10794086 1.0312501 7.3468397e-40
-0.0040159407 0.11044086 1.0312501 1.4697267e-39
-0.0065159407 0.11544086 1.0162501 1.3998637e-38
-0.0040159407 0.11544086 1.0162501 1.8144534e-38
-0.0040159407 0.11794086 1.0162501 8.1982014e-39
-0.0065159407 0.11794086 1.0187501 1.3540177e-38
-0.0040159407 0.11544086 1.0187501 1.7871184e-38
-0.0040159407 0.11794086 1.0187501 1.234234e-38
-0.0040159407 0.10544086 1.0337501 1.2856969e-39
-0.0040159407 0.10794086 1.0337501 1.4697267e-39
-0.0040159407 0.10544086 1.0387501 4.5917748e-40
-0.0040159407 0.10544086 1.0412501 8.2651947e-40
-0.0040159407 0.10794086 1.0387501 4.5917748e-40
-0.0040159407 0.10794086 1.0412501 3.6734198e-40
-0.0065159407 0.10544086 1.04375 9.2138008e-39
-0.0015159406 0.11044086 1.0162501 7.3617775e-40
-0.0015159406 0.11294086 1.0162501 3.039181e-39
0.0009840593 0.11044086 1.0162501 1.1041783e-39
0.0009840593 0.11294086 1.0162501 7.0064923e-45
-0.0015159406 0.11044086 1.0187501 1.3776067e-39
-0.0015159406 0.11044086 1.0212501 2.7982949e-40
-0.0015159406 0.11294086 1.0187501 3.1313878e-39
-0.0015159406 0.11294086 1.0212501 1.2996322e-38
0.0009840593 0.11044086 1.0187501 1.6534075e-39
0.0009840593 0.11044086 1.0212501 1.6562941e-39
0.0009840593 0.11294086 1.0187501 0
0.0009840593 0.11294086 1.0212501 1.4693749e-39
0.0034840594 0.10544086 1.0212501 1.8410441e-39
0.0034840594 0.10794086 1.0212501 2.3938592e-39
0.0059840595 0.10544086 1.0212501 1.7484898e-39
0.0059840595 0.10794086 1.0212501 1.3800674e-39
0.0034840594 0.11044086 1.0162501 3.673602e-40
0.0034840594 0.11294086 1.0162501 7.0064923e-45
0.0034840594 0.11044086 1.0187501 3.673602e-40
0.0034840594 0.11044086 1.0212501 1.2868138e-39
0.0034840594 0.11294086 1.0187501 3.8571315e-39
0.0034840594 0.11294086 1.0212501 1.8368781e-40
0.0059840595 0.11044086 1.0187501 1.2611686e-44
0.0059840595 0.11044086 1.0212501 1.821688e-44
0.0059840595 0.11294086 1.0187501 1.3904661e-38
0.0059840595 0.11294086 1.0212501 9.8090893e-45
-0.0015159406 0.10794086 1.0237501 2.0254368e-39
0.0009840593 0.10794086 1.0237501 1.8413945e-39
-0.0015159406 0.10544086 1.0287501 1.8410441e-39
-0.0015159406 0.10544086 1.0312501 2.0254368e-39
-0.0015159406 0.10794086 1.0287501 8.2689361e-40
0.0009840593 0.10544086 1.0287501 2.0257829e-39
0.0009840593 0.10544086 1.0312501 2.4835269e-39
0.0009840593 0.10794086 1.0287501 1.6566445e-39
-0.0015159406 0.11044086 1.0237501 5.5606466e-40
-0.0015159406 0.11294086 1.0237501 6.4291153e-40
0.0009840593 0.11044086 1.0237501 1.472263e-39
-0.0015159406 0.11044086 1.0287501 0
0.0034840594 0.10544086 1.0237501 3.1267397e-39
0.0034840594 0.10794086 1.0237501 2.3016636e-39
0.0059840595 0.10544086 1.0237501 3.0345441e-39
0.0059840595 0.10794086 1.0237501 1.3800674e-39
0.0034840594 0.10544086 1.0287501 2.1183387e-39
0.0034840594 0.10544086 1.0312501 2.1179828e-39
0.0034840594 0.10794086 1.0287501 1.6570004e-39
0.0059840595 0.10544086 1.0287501 1.1981929e-39
0.0034840594 0.11044086 1.0237501 1.472263e-39
-0.0015159406 0.11544086 1.0137501 8.2907487e-39
-0.0015159406 0.11544086 1.0162501 8.2903872e-39
-0.0015159406 0.11794086 1.0137501 1.0231544e-38
-0.0015159406 0.11794086 1.0162501 1.0417683e-38
0.0009840593 0.11544086 1.0137501 5.4309494e-39
0.0009840593 0.11544086 1.0162501 5.8029521e-39
0.0009840593 0.11794086 1.0137501 1.1515471e-38
0.0009840593 0.11794086 1.0162501 1.1881014e-38
-0.0015159406 0.11544086 1.0187501 1.548096e-38
-0.0015159406 0.12044086 1.0137501 1.1334963e-38
0.0009840593 0.12044086 1.0137501 1.4649382e-38
0.0034840594 0.11544086 1.0137501 5.0621655e-39
0.0034840594 0.11544086 1.0162501 8.1881863e-39
0.0034840594 0.11794086 1.0137501 1.1238885e-38
0.0034840594 0.11794086 1.0162501 1.1515096e-38
0.0059840595 0.11544086 1.0162501 1.3074553e-38
0.0059840595 0.11794086 1.0162501 9.486792e-39
0.0034840594 0.11544086 1.0187501 6.3366632e-39
0.0059840595 0.11544086 1.0187501 1.6846252e-38
0.0059840595 0.11794086 1.0187501 1.2984134e-38
0.0034840594 0.12044086 1.0137501 1.4649382e-38
0.008484059 0.10544086 1.0212501 7.3504691e-40
0.008484059 0.10794086 1.0212501 1.6534075e-39
0.010984059 0.10544086 1.0187501 1.0594219e-38
0.010984059 0.10544086 1.0212501 1.0410548e-38
0.010984059 0.10794086 1.0187501 1.0686767e-38
0.010984059 0.10794086 1.0212501 5.2490356e-39
0.008484059 0.11044086 1.0187501 0
0.008484059 0.11044086 1.0212501 0
0.008484059 0.11294086 1.0187501 1.2991675e-38
0.008484059 0.11294086 1.0212501 1.2899476e-38
0.010984059 0.11044086 1.0187501 2.4910967e-39
0.010984059 0.11044086 1.0212501 3.3211979e-39
0.010984059 0.11294086 1.0187501 1.160874e-38
0.010984059 0.11294086 1.0212501 1.1608738e-38
0.013484059 0.10544086 1.0187501 1.667913e-38
0.013484059 0.10544086 1.0212501 1.6218872e-38
0.013484059 0.10794086 1.0187501 1.6494733e-38
0.013484059 0.10794086 1.0212501 1.6585137e-38
0.013484059 0.11044086 1.0212501 1.6036632e-38
0.008484059 0.10544086 1.0237501 7.3504691e-40
0.008484059 0.10794086 1.0237501 1.6534075e-39
0.010984059 0.10544086 1.0237501 2.7633522e-39
0.010984059 0.10794086 1.0237501 1.1053749e-38
0.008484059 0.10544086 1.0287501 4.5917748e-40
0.010984059 0.10544086 1.0287501 3.0399377e-39
0.010984059 0.10794086 1.0287501 1.1055191e-38
0.008484059 0.11044086 1.0237501 0
0.008484059 0.11294086 1.0237501 0
0.010984059 0.11044086 1.0237501 9.8591647e-39
0.010984059 0.11294086 1.0237501 1.0131796e-38
0.010984059 0.11044086 1.0287501 9.8591703e-39
0.010984059 0.11294086 1.0287501 9.7644523e-39
0.013484059 0.10544086 1.0237501 1.6494733e-38
0.013484059 0.10794086 1.0237501 1.6585487e-38
0.013484059 0.10794086 1.0287501 1.6585131e-38
0.013484059 0.11044086 1.0237501 1.5759685e-38
0.013484059 0.11044086 1.0287501 1.6128474e-38
0.013484059 0.11044086 1.0312501 1.594373e-38
0.008484059 0.11544086 1.0162501 1.4926258e-38
0.008484059 0.11794086 1.0162501 9.2069331e-39
0.010984059 0.11544086 1.0162501 1.5202844e-38
0.010984059 0.11794086 1.0162501 1.0407994e-38
0.008484059 0.11544086 1.0187501 1.7596395e-38
0.008484059 0.11544086 1.0212501 1.7321603e-38
0.008484059 0.11794086 1.0187501 1.4832266e-38
0.010984059 0.11544086 1.0187501 1.649077e-38
0.010984059 0.11544086 1.0212501 1.6397852e-38
0.010984059 0.11794086 1.0187501 1.5016659e-38
-0.0015159406 0.10544086 1.0337501 2.4867639e-39
-0.0015159406 0.10794086 1.0337501 5.5282345e-40
0.0009840593 0.10544086 1.0337501 2.0250809e-39
-0.0015159406 0.10544086 1.0387501 1.1960251e-39
0.0034840594 0.10544086 1.0337501 2.1179828e-39
