# .PCD v0.7 - Point Cloud Data file format
VERSION 0.7
FIELDS x y z rgb
SIZE 4 4 4 4
TYPE F F F F
COUNT 1 1 1 1
WIDTH 653
HEIGHT 1
VIEWPOINT 0 0 0 1 0 0 0
POINTS 653
DATA ascii
-0.18423143 0.14193113 0.96075004 2.0276579e-39
-0.18423143 0.14193113 0.96325004 4.9045446e-44
-0.17923142 0.13943113 0.94825006 2.1179828e-39
-0.17423142 0.13693114 0.94325006 4.2280538e-39
-0.17673142 0.13943113 0.94825006 2.6668531e-39
-0.17423142 0.13693114 0.94825006 3.7702972e-39
-0.17423142 0.13943113 0.94575006 2.6708048e-39
-0.17423142 0.13943113 0.94825006 3.3165245e-39
-0.16923143 0.13943113 0.93825006 3.3172448e-39
-0.16673142 0.13943113 0.93825006 3.0410167e-39
-0.16423142 0.13943113 0.93825006 2.5811245e-39
-0.17173143 0.13693114 0.94325006 3.5016361e-39
-0.17173143 0.13943113 0.94075006 3.4097964e-39
-0.17173143 0.13943113 0.94325006 3.4094404e-39
-0.16923143 0.13693114 0.94325006 3.0410167e-39
-0.16923143 0.13943113 0.94075006 3.225045e-39
-0.16923143 0.13943113 0.94325006 3.4094404e-39
-0.17173143 0.13943113 0.94575006 3.1346514e-39
-0.16923143 0.13693114 0.94575006 2.4817416e-39
-0.16923143 0.13943113 0.94575006 3.0424558e-39
-0.16923143 0.13943113 0.94825006 3.0392286e-39
-0.16673142 0.13943113 0.94325006 2.9484679e-39
-0.16673142 0.13693114 0.94575006 2.4817416e-39
-0.16673142 0.13943113 0.94575006 2.8562667e-39
-0.16673142 0.13943113 0.94825006 2.7637179e-39
-0.16423142 0.13693114 0.94825006 0
-0.16423142 0.13943113 0.94575006 2.8894774e-42
-0.16423142 0.13943113 0.94825006 7.4045171e-40
-0.17923142 0.13943113 0.95325005 4.1362057e-39
-0.17923142 0.13943113 0.95575005 3.4026063e-39
-0.17673142 0.13943113 0.95075005 3.9510913e-39
-0.17673142 0.13943113 0.95325005 3.8657326e-39
-0.17423142 0.13943113 0.95075005 3.9572066e-39
-0.17673142 0.13943113 0.95575005 3.6809827e-39
-0.17673142 0.13943113 0.95825005 4.8737707e-39
-0.17423142 0.13943113 0.95575005 3.4094404e-39
-0.17423142 0.13943113 0.95825005 3.5016361e-39
-0.17923142 0.13943113 0.96325004 8.6581103e-39
-0.17673142 0.13693114 0.96325004 3.3111001e-39
-0.17673142 0.13943113 0.96075004 3.8621397e-39
-0.17673142 0.13943113 0.96325004 4.2305565e-39
-0.17423142 0.13693114 0.96075004 1.1960251e-39
-0.17423142 0.13693114 0.96325004 1.4726133e-39
-0.17423142 0.13943113 0.96075004 2.9491685e-39
-0.17423142 0.13943113 0.96325004 2.4867639e-39
-0.17673142 0.13693114 0.96575004 1.1038294e-39
-0.17673142 0.13943113 0.96575004 3.2218122e-39
-0.17423142 0.13693114 0.96575004 0
-0.17423142 0.13943113 0.96575004 2.4842457e-39
-0.16923143 0.13943113 0.95325005 2.4864135e-39
-0.17173143 0.13693114 0.95825005 1.7463094e-39
-0.17173143 0.13943113 0.95575005 3.3172448e-39
-0.17173143 0.13943113 0.95825005 2.7630018e-39
-0.16923143 0.13693114 0.95575005 1.2611686e-44
-0.16923143 0.13693114 0.95825005 0
-0.16923143 0.13943113 0.95575005 2.7630018e-39
-0.16923143 0.13943113 0.95825005 8.2724394e-40
-0.16673142 0.13693114 0.95325005 6.4284847e-40
-0.16673142 0.13943113 0.95075005 1.7510079e-39
-0.16673142 0.13943113 0.95325005 1.8435623e-39
-0.16423142 0.13693114 0.95325005 0
-0.16423142 0.13943113 0.95075005 8.2941034e-40
-0.16423142 0.13943113 0.95325005 1.1960223e-39
-0.16673142 0.13693114 0.95575005 2.8469004e-39
-0.16673142 0.13693114 0.95825005 3.1224069e-39
-0.16673142 0.13943113 0.95575005 8.2651947e-40
-0.16423142 0.13693114 0.95575005 3.2142424e-39
-0.16423142 0.13943113 0.95575005 0
-0.17173143 0.13693114 0.96075004 1.4693749e-39
-0.17173143 0.13693114 0.96325004 2.1129605e-39
-0.17173143 0.13943113 0.96075004 2.6650413e-39
-0.16923143 0.13693114 0.96075004 0
-0.16923143 0.13693114 0.96325004 0
-0.17173143 0.13693114 0.96575004 0
-0.16173142 0.13693114 0.94825006 0
-0.16173142 0.13943113 0.94575006 9.5082305e-41
-0.16173142 0.13943113 0.94825006 3.7237825e-40
-0.15923142 0.13693114 0.94575006 1.0017961e-38
-0.15923142 0.13693114 0.94825006 9.5595012e-39
-0.15923142 0.13943113 0.94575006 0
-0.15923142 0.13943113 0.94825006 0
-0.15673143 0.13693114 0.94325006 3.1224069e-39
-0.15423143 0.13693114 0.94325006 6.2448137e-39
-0.15423143 0.13943113 0.94325006 0
-0.15673143 0.13693114 0.94575006 1.7946759e-38
-0.15673143 0.13693114 0.94825006 1.7488302e-38
-0.15673143 0.13943113 0.94575006 0
-0.15673143 0.13943113 0.94825006 0
-0.15423143 0.13693114 0.94575006 1.9801849e-38
-0.15423143 0.13943113 0.94575006 0
-0.15423143 0.13943113 0.94825006 6.6121557e-39
-0.15173142 0.13693114 0.94325006 1.3982404e-38
-0.15173142 0.13943113 0.94075006 1.0389967e-38
-0.15173142 0.13943113 0.94325006 1.0756591e-38
-0.14923142 0.13943113 0.94075006 1.8134374e-38
-0.14923142 0.13943113 0.94325006 1.8501012e-38
-0.14673142 0.13943113 0.94325006 1.989513e-38
-0.16173142 0.13693114 0.95075005 0
-0.16173142 0.13693114 0.95325005 0
-0.16173142 0.13943113 0.95075005 1.1045371e-39
-0.15923142 0.13693114 0.95075005 9.6463144e-39
-0.15673143 0.13693114 0.95075005 1.8404512e-38
-0.15173142 0.15443113 0.92825007 3.6798995e-39
-0.14923142 0.15443113 0.92825007 3.7738845e-39
-0.15173142 0.15693113 0.92825007 2.1143856e-39
-0.14923142 0.15693113 0.92825007 2.1150919e-39
-0.14923142 0.15943113 0.92825007 4.5917748e-40
-0.14673142 0.15443113 0.92825007 3.6860329e-39
-0.14423142 0.15443113 0.92825007 3.8682508e-39
-0.14673142 0.15693113 0.92825007 3.957578e-39
-0.14673142 0.15943113 0.92825007 2.2987769e-39
-0.14423142 0.15693113 0.92575008 2.4864135e-39
-0.14423142 0.15693113 0.92825007 4.5107517e-39
-0.14423142 0.15943113 0.92575008 2.759755e-39
-0.14423142 0.15943113 0.92825007 3.1288963e-39
-0.17923142 0.14193113 0.94825006 2.0221886e-39
-0.17923142 0.14443113 0.94825006 6.4284847e-40
-0.17423142 0.14193113 0.94325006 3.7757048e-39
-0.17423142 0.14443113 0.94325006 3.2253981e-39
-0.17673142 0.14193113 0.94825006 4.0504938e-39
-0.17673142 0.14443113 0.94825006 3.3165217e-39
-0.17423142 0.14193113 0.94575006 3.5913136e-39
-0.17423142 0.14193113 0.94825006 3.2246947e-39
-0.17423142 0.14443113 0.94575006 3.2253981e-39
-0.17423142 0.14443113 0.94825006 3.4998242e-39
-0.17423142 0.14693114 0.94575006 3.1321333e-39
-0.17423142 0.14693114 0.94825006 2.6718614e-39
-0.17423142 0.14943114 0.94575006 1.1985432e-39
-0.16923143 0.14193113 0.93825006 3.2250478e-39
-0.16923143 0.14443113 0.93825006 3.4097908e-39
-0.16673142 0.14193113 0.93825006 3.6820799e-39
-0.16673142 0.14443113 0.93825006 3.5016417e-39
-0.16423142 0.14193113 0.93825006 2.9484679e-39
-0.16423142 0.14443113 0.93825006 3.0410167e-39
-0.17173143 0.14193113 0.94075006 3.3172448e-39
-0.17173143 0.14193113 0.94325006 3.3172448e-39
-0.17173143 0.14443113 0.94075006 3.3175951e-39
-0.17173143 0.14443113 0.94325006 3.4097908e-39
-0.16923143 0.14193113 0.94075006 3.3172448e-39
-0.16923143 0.14193113 0.94325006 3.2250478e-39
-0.16923143 0.14443113 0.94075006 3.5019864e-39
-0.17173143 0.14193113 0.94575006 3.3172448e-39
-0.16923143 0.14193113 0.94575006 3.3172448e-39
-0.17173143 0.14693114 0.94075006 2.8562667e-39
-0.17173143 0.14693114 0.94325006 2.7640584e-39
-0.17173143 0.14943114 0.94325006 1.841742e-39
-0.16923143 0.14693114 0.94075006 3.4094404e-39
-0.16923143 0.14693114 0.94325006 2.9480895e-39
-0.16923143 0.14943114 0.94075006 2.1179828e-39
-0.16923143 0.14943114 0.94325006 2.118689e-39
-0.17173143 0.14943114 0.94575006 1.7484898e-39
-0.16673142 0.14193113 0.94075006 2.8580701e-39
-0.16673142 0.14193113 0.94325006 2.6736733e-39
-0.16673142 0.14443113 0.94075006 3.2246947e-39
-0.16673142 0.14443113 0.94325006 3.3172448e-39
-0.16423142 0.14193113 0.94075006 2.6729698e-39
-0.16423142 0.14193113 0.94325006 2.6736733e-39
-0.16423142 0.14443113 0.94075006 3.0406635e-39
-0.16423142 0.14443113 0.94325006 3.0410167e-39
-0.16673142 0.14193113 0.94575006 3.0410167e-39
-0.16423142 0.14193113 0.94575006 2.1204995e-39
-0.16423142 0.14193113 0.94825006 2.1204995e-39
-0.16423142 0.14443113 0.94575006 2.3967332e-39
-0.16673142 0.14693114 0.94075006 3.0406635e-39
-0.16673142 0.14693114 0.94325006 3.2253953e-39
-0.16673142 0.14943114 0.94075006 3.5902346e-39
-0.16673142 0.14943114 0.94325006 3.2218122e-39
-0.16423142 0.14693114 0.94075006 3.7757048e-39
-0.16423142 0.14693114 0.94325006 3.2250478e-39
-0.16423142 0.14943114 0.94325006 2.9491685e-39
-0.16423142 0.14943114 0.94575006 3.2253953e-39
-0.16923143 0.15193114 0.94325006 6.4679453e-40
-0.16673142 0.15193114 0.94325006 2.3020139e-39
-0.16423142 0.15193114 0.94325006 3.1299627e-39
-0.18173142 0.14443113 0.95325005 4.4135338e-39
-0.17923142 0.14193113 0.95075005 1.6562941e-39
-0.17923142 0.14193113 0.95325005 3.3165245e-39
-0.17923142 0.14443113 0.95075005 8.2651947e-40
-0.17923142 0.14443113 0.95325005 3.5927527e-39
-0.18173142 0.14193113 0.95575005 2.3931978e-39
-0.18173142 0.14193113 0.95825005 2.667558e-39
-0.18173142 0.14443113 0.95575005 4.7826723e-39
-0.18173142 0.14443113 0.95825005 2.0221886e-39
-0.17923142 0.14193113 0.95575005 2.3909725e-39
-0.17923142 0.14443113 0.95575005 1.6566445e-39
-0.18173142 0.14693114 0.95325005 1.6530389e-39
-0.17923142 0.14693114 0.95075005 1.3825841e-39
-0.17923142 0.14693114 0.95325005 3.2243261e-39
-0.18173142 0.14693114 0.95575005 1.9285454e-39
-0.17673142 0.14193113 0.95075005 3.4083712e-39
-0.17673142 0.14193113 0.95325005 2.4867639e-39
-0.17673142 0.14443113 0.95075005 3.958294e-39
-0.17423142 0.14193113 0.95075005 3.8679005e-39
-0.17423142 0.14193113 0.95325005 3.2243289e-39
-0.17423142 0.14443113 0.95075005 3.4094404e-39
-0.17673142 0.14193113 0.95575005 2.5789595e-39
-0.17423142 0.14193113 0.95575005 3.3165245e-39
-0.17673142 0.14693114 0.95075005 2.7633522e-39
-0.17423142 0.14693114 0.95075005 3.2218122e-39
-0.18173142 0.14193113 0.96075004 1.7491988e-39
-0.18173142 0.14193113 0.96325004 2.2987769e-39
-0.17923142 0.14193113 0.96075004 1.8413945e-39
-0.17923142 0.14193113 0.96325004 4.4131653e-39
-0.17673142 0.14193113 0.96075004 4.5964776e-39
-0.17673142 0.14193113 0.96325004 4.3263521e-39
-0.17423142 0.14193113 0.96075004 3.3172448e-39
-0.17423142 0.14193113 0.96325004 3.3172448e-39
-0.17173143 0.14193113 0.95075005 3.317242e-39
-0.16923143 0.14193113 0.95075005 2.9484679e-39
-0.16923143 0.14193113 0.95325005 3.0403132e-39
-0.17173143 0.14193113 0.95825005 2.9484679e-39
-0.16923143 0.14193113 0.95575005 2.9484679e-39
-0.16673142 0.14193113 0.95075005 2.7633676e-39
-0.16423142 0.14193113 0.95075005 9.2160738e-40
-0.17173143 0.14193113 0.96075004 3.4094404e-39
-0.15423143 0.14943114 0.93825006 3.0410167e-39
-0.16173142 0.14193113 0.94325006 2.489282e-39
-0.16173142 0.14443113 0.94325006 2.5814776e-39
-0.15923142 0.14193113 0.94325006 2.1201492e-39
-0.15923142 0.14443113 0.94325006 2.3970864e-39
-0.16173142 0.14193113 0.94575006 1.8439126e-39
-0.16173142 0.14193113 0.94825006 1.9357579e-39
-0.16173142 0.14443113 0.94575006 2.6711551e-39
-0.15923142 0.14193113 0.94575006 5.5317378e-40
-0.15923142 0.14193113 0.94825006 1.6562941e-39
-0.15923142 0.14443113 0.94575006 2.1179828e-39
-0.15923142 0.14443113 0.94825006 1.2903885e-39
-0.16173142 0.14693114 0.94325006 3.0410167e-39
-0.16173142 0.14943114 0.94325006 3.4991179e-39
-0.15923142 0.14693114 0.94075006 2.7637179e-39
-0.15923142 0.14693114 0.94325006 2.9484623e-39
-0.15923142 0.14943114 0.94075006 2.9484623e-39
-0.15923142 0.14943114 0.94325006 3.4991179e-39
-0.16173142 0.14943114 0.94575006 2.7658689e-39
-0.15923142 0.14693114 0.94575006 2.3963773e-39
-0.15923142 0.14943114 0.94575006 3.2250478e-39
-0.15673143 0.14193113 0.94325006 1.3829344e-39
-0.15673143 0.14443113 0.94325006 2.1201492e-39
-0.15423143 0.14193113 0.94325006 8.2689361e-40
-0.15423143 0.14443113 0.94325006 1.2903885e-39
-0.15673143 0.14193113 0.94575006 1.8439126e-40
-0.15673143 0.14193113 0.94825006 8.2689361e-40
-0.15673143 0.14443113 0.94575006 1.8435623e-39
-0.15673143 0.14443113 0.94825006 6.4536941e-40
-0.15423143 0.14193113 0.94575006 1.4693834e-39
-0.15423143 0.14443113 0.94575006 1.1031204e-39
-0.15423143 0.14443113 0.94825006 6.4501908e-40
-0.15673143 0.14693114 0.94075006 2.947033e-39
-0.15673143 0.14693114 0.94325006 2.764071e-39
-0.15673143 0.14943114 0.94075006 2.9484679e-39
-0.15673143 0.14943114 0.94325006 2.7637179e-39
-0.15423143 0.14693114 0.94325006 2.5814776e-39
-0.15423143 0.14943114 0.94075006 2.9484623e-39
-0.15423143 0.14943114 0.94325006 2.947033e-39
-0.15673143 0.14693114 0.94575006 2.7630018e-39
-0.15673143 0.14943114 0.94575006 2.8562667e-39
-0.15423143 0.14693114 0.94575006 1.9357579e-39
-0.15423143 0.15193114 0.93825006 4.0504938e-39
-0.15423143 0.15443113 0.93575007 3.5913136e-39
-0.15423143 0.15443113 0.93825006 4.1426769e-39
-0.16173142 0.15193114 0.94325006 3.5923701e-39
-0.15923142 0.15193114 0.94075006 3.2250478e-39
-0.15923142 0.15193114 0.94325006 3.9611527e-39
-0.15673143 0.15193114 0.94075006 4.6036662e-39
-0.15673143 0.15193114 0.94325006 3.959743e-39
-0.15423143 0.15193114 0.94075006 3.408737e-39
-0.15173142 0.14443113 0.93825006 1.1981929e-39
-0.14923142 0.14443113 0.93825006 6.4501908e-40
-0.15173142 0.14943114 0.93325007 2.9484623e-39
-0.14923142 0.14943114 0.93325007 2.7630018e-39
-0.15173142 0.14693114 0.93825006 1.9357579e-39
-0.15173142 0.14943114 0.93575007 2.8555632e-39
-0.15173142 0.14943114 0.93825006 2.6708048e-39
-0.14923142 0.14693114 0.93575007 1.4747798e-39
-0.14923142 0.14693114 0.93825006 1.4747798e-39
-0.14923142 0.14943114 0.93575007 2.7630018e-39
-0.14923142 0.14943114 0.93825006 2.3963773e-39
-0.14673142 0.14443113 0.93825006 8.4077908e-45
-0.14423142 0.14193113 0.93825006 1.2053073e-38
-0.14423142 0.14443113 0.93575007 0
-0.14423142 0.14443113 0.93825006 2.9387359e-39
-0.14673142 0.14943114 0.93325007 2.5786092e-39
-0.14423142 0.14693114 0.93325007 1.1063476e-39
-0.14423142 0.14943114 0.93325007 1.9361082e-39
-0.14673142 0.14693114 0.93575007 7.3722733e-40
-0.14673142 0.14693114 0.93825006 1.6562941e-39
-0.14673142 0.14943114 0.93575007 2.3938592e-39
-0.14673142 0.14943114 0.93825006 2.3016636e-39
-0.14423142 0.14693114 0.93575007 1.8582339e-40
-0.14423142 0.14943114 0.93575007 3.7237825e-40
-0.15173142 0.14193113 0.94075006 0
-0.15173142 0.14193113 0.94325006 0
-0.15173142 0.14443113 0.94075006 1.1056385e-39
-0.15173142 0.14443113 0.94325006 1.1974866e-39
-0.14923142 0.14193113 0.94075006 0
-0.14923142 0.14193113 0.94325006 0
-0.14923142 0.14443113 0.94075006 3.6734198e-40
-0.15173142 0.14693114 0.94075006 2.2126951e-39
-0.15173142 0.14693114 0.94325006 1.7510079e-39
-0.15173142 0.14943114 0.94075006 2.4885786e-39
-0.14923142 0.14693114 0.94075006 6.4536941e-40
-0.14673142 0.14193113 0.94075006 1.6537578e-39
-0.14673142 0.14193113 0.94325006 1.8385078e-39
-0.14673142 0.14443113 0.94075006 1.836766e-40
-0.14423142 0.14193113 0.94075006 1.1501715e-38
-0.14423142 0.14193113 0.94325006 1.1776144e-38
-0.14423142 0.14443113 0.94075006 3.5815844e-39
-0.15173142 0.15193114 0.93075007 3.959743e-39
-0.15173142 0.15193114 0.93325007 3.8682508e-39
-0.15173142 0.15443113 0.93075007 3.8675473e-39
-0.15173142 0.15443113 0.93325007 4.5107517e-39
-0.14923142 0.15193114 0.93075007 3.5913136e-39
-0.14923142 0.15193114 0.93325007 3.4069223e-39
-0.14923142 0.15443113 0.93075007 3.5913136e-39
-0.14923142 0.15443113 0.93325007 4.1426895e-39
-0.15173142 0.15693113 0.93075007 2.4835269e-39
-0.15173142 0.15693113 0.93325007 2.5789567e-39
-0.14923142 0.15693113 0.93075007 2.6679055e-39
-0.14923142 0.15693113 0.93325007 3.3143553e-39
-0.14673142 0.15193114 0.93075007 2.9466798e-39
-0.14673142 0.15193114 0.93325007 2.9484623e-39
-0.14673142 0.15443113 0.93075007 3.0410167e-39
-0.14423142 0.15193114 0.93075007 2.9466798e-39
-0.14423142 0.15193114 0.93325007 2.764071e-39
-0.14423142 0.15443113 0.93075007 2.9484623e-39
-0.14423142 0.15193114 0.93575007 2.3963829e-39
-0.14673142 0.15693113 0.93075007 3.7760551e-39
-0.14423142 0.15693113 0.93075007 3.867197e-39
-0.16173142 0.14193113 0.95075005 2.7730015e-40
-0.12923142 0.15943113 0.90825009 3.4980389e-39
-0.12673143 0.15943113 0.90825009 2.9484679e-39
-0.12423142 0.15943113 0.90825009 2.947033e-39
-0.13423142 0.14443113 0.92825007 3.7652553e-39
-0.13673143 0.14943114 0.92825007 8.2941034e-40
-0.13423142 0.14693114 0.92825007 0
-0.13423142 0.14943114 0.92825007 1.8439126e-40
-0.14173143 0.15193114 0.92825007 2.2123448e-39
-0.14173143 0.15443113 0.92825007 3.4991179e-39
-0.13923143 0.15193114 0.92825007 2.2123448e-39
-0.13923143 0.15443113 0.92575008 2.947033e-39
-0.13923143 0.15443113 0.92825007 2.3963773e-39
-0.13923143 0.15693113 0.92325008 3.5016417e-39
-0.13923143 0.15943113 0.92325008 3.7753517e-39
-0.14173143 0.15693113 0.92575008 3.3143553e-39
-0.14173143 0.15693113 0.92825007 3.957578e-39
-0.14173143 0.15943113 0.92575008 2.026492e-39
-0.14173143 0.15943113 0.92825007 3.2221597e-39
-0.13923143 0.15693113 0.92575008 3.5909408e-39
-0.13923143 0.15943113 0.92575008 2.7640584e-39
-0.13423142 0.15443113 0.92325008 2.2123448e-39
-0.13673143 0.15193114 0.92575008 1.9357579e-39
-0.13673143 0.15193114 0.92825007 1.8435623e-39
-0.13673143 0.15443113 0.92575008 2.947033e-39
-0.13673143 0.15443113 0.92825007 2.3967332e-39
-0.13423142 0.15193114 0.92575008 1.3825841e-39
-0.13423142 0.15193114 0.92825007 1.7510079e-39
-0.13423142 0.15443113 0.92575008 2.7630018e-39
-0.13673143 0.15693113 0.92325008 3.3168917e-39
-0.13673143 0.15943113 0.92325008 4.0519386e-39
-0.13423142 0.15693113 0.92075008 2.8562667e-39
-0.13423142 0.15693113 0.92325008 2.9484623e-39
-0.13423142 0.15943113 0.92075008 3.4990955e-39
-0.13423142 0.15943113 0.92325008 3.8682508e-39
-0.13673143 0.15693113 0.92575008 2.764071e-39
-0.13423142 0.15693113 0.92575008 3.0392286e-39
-0.13173142 0.14443113 0.92575008 1.7206718e-38
-0.13173142 0.14443113 0.92825007 1.6838657e-38
-0.12923142 0.14693114 0.92325008 3.3060779e-39
-0.12923142 0.14943114 0.92325008 0
-0.13173142 0.14693114 0.92575008 4.7844463e-39
-0.13173142 0.14693114 0.92825007 4.8723232e-39
-0.13173142 0.14943114 0.92575008 0
-0.13173142 0.14943114 0.92825007 9.185091e-41
-0.12923142 0.14693114 0.92575008 1.3529656e-38
-0.12923142 0.14693114 0.92825007 1.3527852e-38
-0.12923142 0.14943114 0.92575008 0
-0.12673143 0.14693114 0.92325008 3.7652553e-39
-0.12673143 0.14943114 0.92325008 0
-0.12423142 0.14943114 0.92325008 2.1122164e-39
-0.12673143 0.14693114 0.92575008 1.933798e-38
-0.12673143 0.14943114 0.92575008 2.0203809e-39
-0.12423142 0.14943114 0.92575008 8.376113e-39
-0.12923142 0.15693113 0.91325009 3.222531e-39
-0.12923142 0.15943113 0.91075009 3.1314242e-39
-0.12923142 0.15943113 0.91325009 2.9481176e-39
-0.13173142 0.15693113 0.91575009 3.4069223e-39
-0.13173142 0.15693113 0.91825008 2.947033e-39
-0.13173142 0.15943113 0.91575009 3.3165414e-39
-0.13173142 0.15943113 0.91825008 3.0406635e-39
-0.12923142 0.15693113 0.91575009 2.9484679e-39
-0.12923142 0.15693113 0.91825008 2.7630018e-39
-0.12923142 0.15943113 0.91575009 3.3175951e-39
-0.12923142 0.15943113 0.91825008 2.764071e-39
-0.12673143 0.15693113 0.91325009 2.6704531e-39
-0.12673143 0.15943113 0.91075009 2.8562667e-39
-0.12673143 0.15943113 0.91325009 2.9473833e-39
-0.12423142 0.15943113 0.91075009 2.764071e-39
-0.12423142 0.15943113 0.91325009 2.2119931e-39
-0.12673143 0.15693113 0.91575009 2.7630018e-39
-0.12673143 0.15693113 0.91825008 2.1201492e-39
-0.12673143 0.15943113 0.91575009 2.9473833e-39
-0.12673143 0.15943113 0.91825008 2.7630018e-39
-0.12423142 0.15693113 0.91575009 2.1201492e-39
-0.12423142 0.15693113 0.91825008 1.9357579e-39
-0.12423142 0.15943113 0.91575009 2.7630018e-39
-0.12423142 0.15943113 0.91825008 2.1201492e-39
-0.13173142 0.15193114 0.92325008 1.7510079e-39
-0.13173142 0.15443113 0.92075008 2.4889289e-39
-0.13173142 0.15443113 0.92325008 1.8428532e-39
-0.12923142 0.15193114 0.92325008 9.219563e-40
-0.12923142 0.15443113 0.92075008 1.9357579e-39
-0.12923142 0.15443113 0.92325008 1.3825841e-39
-0.13173142 0.15193114 0.92575008 1.472263e-39
-0.13173142 0.15193114 0.92825007 2.0254368e-39
-0.13173142 0.15443113 0.92575008 1.3825841e-39
-0.12923142 0.15193114 0.92575008 6.4501908e-40
-0.12923142 0.15443113 0.92575008 8.2941034e-40
-0.13173142 0.15693113 0.92075008 2.947033e-39
-0.13173142 0.15693113 0.92325008 2.3963773e-39
-0.12923142 0.15693113 0.92075008 2.3963773e-39
-0.12923142 0.15693113 0.92325008 2.1194457e-39
-0.12673143 0.15193114 0.92325008 7.3756504e-40
-0.12673143 0.15443113 0.92075008 1.9357579e-39
-0.12673143 0.15443113 0.92325008 1.1056385e-39
-0.12423142 0.15193114 0.92075008 0
-0.12423142 0.15193114 0.92325008 2.7658689e-40
-0.12423142 0.15443113 0.92075008 1.5669768e-39
-0.12423142 0.15443113 0.92325008 1.5673257e-39
-0.12673143 0.15193114 0.92575008 1.4012985e-45
-0.12673143 0.15443113 0.92575008 5.5282345e-40
-0.12673143 0.15693113 0.92075008 2.1201492e-39
-0.12673143 0.15693113 0.92325008 1.7510079e-39
-0.12673143 0.15943113 0.92075008 2.7630018e-39
-0.12423142 0.15693113 0.92075008 1.9357579e-39
-0.12423142 0.15693113 0.92325008 1.8439126e-39
-0.12423142 0.15943113 0.92075008 2.2123448e-39
-0.12923142 0.16193114 0.90825009 3.0363419e-39
-0.12923142 0.16443114 0.90825009 2.4835269e-39
-0.12673143 0.16193114 0.90825009 3.3143553e-39
-0.12673143 0.16443114 0.90825009 2.3020139e-39
-0.12423142 0.16193114 0.9057501 2.947033e-39
-0.12423142 0.16193114 0.90825009 3.4090873e-39
-0.12423142 0.16443114 0.9057501 3.037767e-39
-0.12423142 0.16443114 0.90825009 3.3150644e-39
-0.12423142 0.16693114 0.90825009 1.838505e-39
-0.13423142 0.16193114 0.91825008 2.8519507e-39
-0.13423142 0.16443114 0.91825008 1.1031204e-39
-0.13923143 0.16193114 0.92325008 2.8533758e-39
-0.13673143 0.16193114 0.92325008 3.4987452e-39
-0.13423142 0.16193114 0.92075008 2.667558e-39
-0.13423142 0.16193114 0.92325008 3.4990955e-39
-0.12923142 0.16193114 0.91075009 2.7633522e-39
-0.12923142 0.16193114 0.91325009 2.1179828e-39
-0.12923142 0.16443114 0.91075009 2.118689e-39
-0.12923142 0.16443114 0.91325009 1.7495464e-39
-0.13173142 0.16193114 0.91575009 1.6562941e-39
-0.13173142 0.16193114 0.91825008 3.4973201e-39
-0.13173142 0.16443114 0.91575009 1.6562941e-39
-0.13173142 0.16443114 0.91825008 1.3811226e-39
-0.12923142 0.16693114 0.91325009 1.0119841e-39
-0.12673143 0.16193114 0.91075009 3.3143553e-39
-0.12673143 0.16193114 0.91325009 3.2221597e-39
-0.12673143 0.16443114 0.91075009 2.7572369e-39
-0.12673143 0.16443114 0.91325009 2.3945654e-39
-0.12423142 0.16193114 0.91075009 3.5909408e-39
-0.12423142 0.16443114 0.91075009 3.218215e-39
-0.12673143 0.16693114 0.91075009 2.2065813e-39
-0.12673143 0.16693114 0.91325009 1.1031204e-39
-0.12423142 0.16693114 0.91075009 1.8381575e-39
-0.11423142 0.14943114 0.90325004 1.611437e-38
-0.11673142 0.14943114 0.9057501 3.1224069e-39
-0.11423142 0.14943114 0.9057501 1.5930352e-38
-0.12173142 0.15943113 0.9057501 2.9466798e-39
-0.12173142 0.15943113 0.90825009 2.7630018e-39
-0.11923143 0.15943113 0.9057501 1.7510079e-39
-0.11923143 0.15943113 0.90825009 2.3963773e-39
-0.11423142 0.15193114 0.90325004 5.1427878e-39
-0.11673142 0.15193114 0.9057501 1.5612034e-39
-0.11673142 0.15193114 0.90825009 1.3775324e-39
-0.11673142 0.15443113 0.90825009 8.2724394e-40
-0.11423142 0.15193114 0.9057501 4.8672813e-39
-0.11423142 0.15443113 0.9057501 0
-0.11423142 0.15443113 0.90825009 1.8582339e-40
-0.11423142 0.15943113 0.90325004 2.3939012e-39
-0.11673142 0.15693113 0.90825009 1.109244e-39
-0.11673142 0.15943113 0.9057501 1.1949685e-39
-0.11673142 0.15943113 0.90825009 1.5666265e-39
-0.11423142 0.15693113 0.9057501 1.1063476e-39
-0.11423142 0.15693113 0.90825009 6.4536941e-40
-0.11423142 0.15943113 0.9057501 2.2991903e-39
-0.11423142 0.15943113 0.90825009 6.4501908e-40
-0.11173142 0.15443113 0.90325004 0
-0.10923143 0.15443113 0.90325004 2.2040519e-39
-0.11173142 0.15193114 0.9057501 7.533026e-39
-0.11173142 0.15443113 0.9057501 0
-0.11173142 0.15443113 0.90825009 0
-0.10923143 0.15443113 0.9057501 2.1122164e-39
-0.11173142 0.15693113 0.90325004 2.7658689e-40
-0.11173142 0.15943113 0.90325004 1.1031624e-39
-0.10923143 0.15693113 0.90075004 0
-0.10923143 0.15693113 0.90325004 0
-0.10923143 0.15943113 0.90075004 6.1657132e-44
-0.10923143 0.15943113 0.90325004 0
-0.11173142 0.15693113 0.9057501 5.5282345e-40
-0.11173142 0.15693113 0.90825009 3.2369995e-42
-0.11173142 0.15943113 0.9057501 1.1939189e-39
-0.11173142 0.15943113 0.90825009 0
-0.10923143 0.15693113 0.9057501 0
-0.10923143 0.15943113 0.9057501 0
-0.10923143 0.15943113 0.90825009 0
-0.10673142 0.15443113 0.90325004 2.7550649e-39
-0.10673142 0.15443113 0.9057501 7.6342292e-39
-0.10673142 0.15693113 0.90075004 5.5288091e-40
-0.10673142 0.15693113 0.90325004 0
-0.10673142 0.15943113 0.90075004 6.9938652e-39
-0.10673142 0.15943113 0.90325004 3.957578e-39
-0.10673142 0.15693113 0.9057501 1.5125555e-38
-0.10673142 0.15693113 0.90825009 4.3349897e-39
-0.10673142 0.15943113 0.9057501 1.8064248e-38
-0.10673142 0.15943113 0.90825009 1.8247901e-38
-0.10423142 0.15693113 0.9057501 1.8895432e-38
-0.10423142 0.15693113 0.90825009 1.2434889e-38
-0.10423142 0.15943113 0.9057501 1.9446088e-38
-0.10423142 0.15943113 0.90825009 1.9262773e-38
-0.12173142 0.15193114 0.91325009 1.011631e-39
-0.11923143 0.15193114 0.91075009 0
-0.11923143 0.15193114 0.91325009 0
-0.11923143 0.15443113 0.91325009 1.6573507e-39
-0.12173142 0.15193114 0.91575009 0
-0.12173142 0.15443113 0.91575009 6.4536941e-40
-0.12173142 0.15443113 0.91825008 1.7495464e-39
-0.11923143 0.15443113 0.91575009 1.3804163e-39
-0.12173142 0.15693113 0.91325009 2.1201492e-39
-0.12173142 0.15943113 0.91075009 2.3963773e-39
-0.12173142 0.15943113 0.91325009 2.2119931e-39
-0.11923143 0.15693113 0.91075009 1.9357579e-39
-0.11923143 0.15693113 0.91325009 1.9357579e-39
-0.11923143 0.15943113 0.91075009 2.0276032e-39
-0.12173142 0.15693113 0.91575009 2.1201492e-39
-0.12173142 0.15693113 0.91825008 1.9361082e-39
-0.11923143 0.15693113 0.91575009 1.751717e-39
-0.11673142 0.15193114 0.91075009 1.3775324e-39
-0.11673142 0.15443113 0.91075009 1.4747798e-39
-0.11423142 0.15443113 0.91075009 0
-0.11673142 0.15693113 0.91075009 1.7510079e-39
-0.11673142 0.15693113 0.91325009 1.1985432e-39
-0.12173142 0.15193114 0.92075008 0
-0.12173142 0.15193114 0.92325008 0
-0.12173142 0.15443113 0.92075008 1.1038294e-39
-0.12173142 0.15443113 0.92325008 7.361189e-40
-0.11923143 0.15443113 0.92075008 0
-0.11173142 0.15443113 0.91075009 0
-0.10673142 0.15943113 0.91075009 1.8247901e-38
-0.10423142 0.15693113 0.91325009 2.1930668e-38
-0.10423142 0.15943113 0.91075009 1.9630116e-38
-0.10423142 0.15943113 0.91325009 2.064571e-38
-0.10423142 0.15693113 0.91575009 2.1562606e-38
-0.10423142 0.15943113 0.91575009 2.0463117e-38
-0.10423142 0.15943113 0.91825008 2.0461316e-38
-0.12173142 0.16193114 0.9057501 3.4991179e-39
-0.12173142 0.16193114 0.90825009 2.9484623e-39
-0.12173142 0.16443114 0.9057501 3.2221597e-39
-0.12173142 0.16443114 0.90825009 3.5912911e-39
-0.11923143 0.16193114 0.9057501 6.4536941e-40
-0.11923143 0.16443114 0.9057501 8.279628e-40
-0.11923143 0.16443114 0.90825009 2.6718614e-39
-0.12173142 0.16693114 0.90825009 8.279544e-40
-0.11923143 0.16693114 0.9057501 1.2611686e-44
-0.11923143 0.16693114 0.90825009 1.1027728e-39
-0.11923143 0.16943114 0.9057501 7.1746481e-43
-0.11673142 0.16193114 0.90325004 2.3916788e-39
-0.11673142 0.16443114 0.90325004 6.3478064e-39
-0.11423142 0.16193114 0.90325004 1.2541845e-38
-0.11423142 0.16443114 0.90325004 1.6218127e-38
-0.11673142 0.16193114 0.9057501 2.759755e-39
-0.11673142 0.16443114 0.9057501 6.3474532e-39
-0.11423142 0.16193114 0.9057501 1.2082667e-38
-0.11423142 0.16443114 0.9057501 1.6127366e-38
-0.11673142 0.16693114 0.9057501 6.5303647e-39
-0.11673142 0.16943114 0.9057501 3.3071541e-39
-0.11423142 0.16693114 0.9057501 1.1784442e-38
-0.11423142 0.16943114 0.9057501 6.6243526e-39
-0.11173142 0.16193114 0.90325004 9.4993897e-39
-0.11173142 0.16443114 0.90325004 1.4742997e-38
-0.10923143 0.16193114 0.90075004 1.2212316e-41
-0.10923143 0.16193114 0.90325004 1.6728197e-39
-0.10923143 0.16443114 0.90075004 1.5762897e-38
-0.10923143 0.16443114 0.90325004 1.3642041e-38
-0.11173142 0.16193114 0.9057501 9.2246007e-39
-0.11173142 0.16443114 0.9057501 1.4744432e-38
-0.10923143 0.16193114 0.9057501 1.0216853e-39
-0.10923143 0.16443114 0.9057501 1.5853293e-38
-0.11173142 0.16693114 0.9057501 1.2982985e-38
-0.11173142 0.16943114 0.9057501 1.2893992e-38
-0.10923143 0.16693114 0.9057501 1.5292215e-38
-0.10923143 0.16943114 0.9057501 1.1333227e-38
-0.10673142 0.16193114 0.90075004 1.2974757e-38
-0.10673142 0.16193114 0.90325004 1.3249193e-38
-0.10673142 0.16443114 0.90075004 1.5021751e-38
-0.10673142 0.16443114 0.90325004 1.5389095e-38
-0.10673142 0.16193114 0.9057501 1.2790373e-38
-0.10673142 0.16193114 0.90825009 1.999346e-38
-0.10673142 0.16443114 0.9057501 1.5205422e-38
-0.10673142 0.16443114 0.90825009 9.1205122e-39
-0.10423142 0.16193114 0.90825009 2.1285649e-38
-0.10673142 0.16693114 0.9057501 1.3271858e-38
-0.10673142 0.16693114 0.90825009 1.0321239e-38
-0.10673142 0.16943114 0.9057501 1.3078826e-38
-0.12173142 0.16693114 0.91075009 2.4838744e-39
-0.10673142 0.16193114 0.91075009 1.9900895e-38
-0.10673142 0.16443114 0.91075009 9.2137854e-39
-0.10673142 0.16443114 0.91325009 2.1821945e-38
-0.10423142 0.16193114 0.91075009 2.1377845e-38
-0.10423142 0.16193114 0.91325009 2.0827222e-38
-0.10423142 0.16443114 0.91075009 2.192811e-38
-0.10423142 0.16443114 0.91325009 2.2021021e-38
-0.10423142 0.16193114 0.91575009 2.1193454e-38
-0.10423142 0.16193114 0.91825008 2.036912e-38
-0.10423142 0.16443114 0.91575009 2.2204697e-38
-0.10423142 0.16443114 0.91825008 2.1654073e-38
-0.10673142 0.16693114 0.91075009 2.7676892e-39
-0.10423142 0.16693114 0.91325009 1.4462059e-38
-0.14173143 0.14443113 0.93325007 0
-0.13923143 0.14443113 0.93075007 1.8367099e-40
-0.13923143 0.14443113 0.93325007 3.7681322e-39
-0.14173143 0.14193113 0.93825006 1.8783712e-38
-0.14173143 0.14443113 0.93575007 3.2142424e-39
-0.14173143 0.14443113 0.93825006 3.7652553e-39
-0.13923143 0.14443113 0.93575007 7.1631687e-39
-0.14173143 0.14693114 0.93325007 3.2369995e-42
-0.14173143 0.14943114 0.93325007 1.5673257e-39
-0.13923143 0.14693114 0.93075007 4.6026909e-40
-0.13923143 0.14693114 0.93325007 1.5414283e-44
-0.13923143 0.14943114 0.93075007 1.4747798e-39
-0.13923143 0.14943114 0.93325007 1.2903885e-39
-0.13673143 0.14443113 0.93075007 3.2196416e-39
-0.13673143 0.14693114 0.93075007 0
-0.13673143 0.14693114 0.93325007 0
-0.13673143 0.14943114 0.93075007 6.4286249e-40
-0.13423142 0.14693114 0.93075007 0
-0.13423142 0.14943114 0.93075007 3.6735179e-40
-0.14173143 0.14193113 0.94075006 1.8600778e-38
-0.14173143 0.14443113 0.94075006 3.8570908e-39
-0.14173143 0.15193114 0.93075007 2.7630018e-39
-0.14173143 0.15193114 0.93325007 2.1201492e-39
-0.14173143 0.15443113 0.93075007 2.7633522e-39
-0.13923143 0.15193114 0.93075007 1.8435623e-39
-0.13923143 0.15193114 0.93325007 1.20179e-39
-0.14173143 0.15693113 0.93075007 3.0410167e-39
-0.13673143 0.15193114 0.93075007 1.6566445e-39
-0.13423142 0.15193114 0.93075007 1.6566445e-39
-0.13173142 0.14693114 0.93075007 1.8367099e-39
-0.13173142 0.14943114 0.93075007 1.3775479e-39
