# .PCD v0.7 - Point Cloud Data file format
VERSION 0.7
FIELDS x y z rgb
SIZE 4 4 4 4
TYPE F F F F
COUNT 1 1 1 1
WIDTH 697
HEIGHT 1
VIEWPOINT 0 0 0 1 0 0 0
POINTS 697
DATA ascii
-0.14809841 0.18594706 0.84075004 2.3315768e-38
-0.14559841 0.18594706 0.84075004 2.3501956e-38
-0.13559841 0.18594706 0.83825004 1.0882722e-38
-0.13309841 0.18594706 0.83825004 6.91831e-39
-0.1380984 0.18594706 0.84575003 1.7327425e-38
-0.13559841 0.18094707 0.84075004 0
-0.13309841 0.18094707 0.84075004 0
-0.13559841 0.18344706 0.84075004 6.1753696e-39
-0.13559841 0.18344706 0.84325004 5.9030959e-39
-0.13559841 0.18594706 0.84075004 1.060758e-38
-0.13559841 0.18594706 0.84325004 1.2997476e-38
-0.13309841 0.18344706 0.84075004 6.5318795e-39
-0.13309841 0.18344706 0.84325004 5.615684e-39
-0.13309841 0.18594706 0.84075004 9.7782607e-42
-0.13309841 0.18594706 0.84325004 5.1562038e-39
-0.13559841 0.18344706 0.84575003 5.8094583e-39
-0.13559841 0.18594706 0.84575003 1.3272984e-38
-0.13309841 0.18344706 0.84575003 5.615684e-39
-0.13059841 0.18594706 0.83825004 9.7754581e-42
-0.1280984 0.18344706 0.83825004 4.9591168e-39
-0.1280984 0.18594706 0.83825004 0
-0.1255984 0.18344706 0.83825004 1.3775324e-39
-0.1255984 0.18594706 0.83825004 0
-0.13059841 0.18094707 0.84075004 1.751717e-39
-0.1280984 0.18094707 0.84075004 1.3809602e-38
-0.13059841 0.18344706 0.84075004 7.4541946e-39
-0.13059841 0.18344706 0.84325004 6.6269506e-39
-0.13059841 0.18594706 0.84075004 4.1478435e-43
-0.13059841 0.18594706 0.84325004 2.3914041e-39
-0.1280984 0.18344706 0.84075004 2.0536971e-38
-0.1280984 0.18344706 0.84325004 2.0537687e-38
-0.1280984 0.18594706 0.84075004 0
-0.1255984 0.18344706 0.84075004 1.6862442e-38
-0.1255984 0.18344706 0.84325004 1.36338e-38
-0.1255984 0.18594706 0.84075004 0
-0.1255984 0.18594706 0.84325004 0
-0.1230984 0.18344706 0.84075004 3.79012e-39
-0.1230984 0.18594706 0.84075004 0
-0.1230984 0.18594706 0.84325004 0
-0.12059841 0.18594706 0.84075004 2.7623797e-40
-0.12059841 0.18594706 0.84325004 7.1746481e-43
-0.11809841 0.18594706 0.84325004 1.6566445e-39
-0.12059841 0.18344706 0.84575003 2.7550649e-40
-0.12059841 0.18594706 0.84575003 1.4419361e-42
-0.11809841 0.18344706 0.84575003 0
-0.11809841 0.18344706 0.84825003 0
-0.11809841 0.18594706 0.84575003 1.2903885e-39
-0.1155984 0.18094707 0.84575003 1.1712442e-38
-0.11309841 0.18094707 0.84575003 3.643376e-44
-0.1155984 0.18344706 0.84575003 0
-0.1155984 0.18344706 0.84825003 1.14373e-38
-0.1155984 0.18594706 0.84575003 2.026492e-39
-0.1155984 0.18594706 0.84825003 1.8424496e-39
-0.11309841 0.18344706 0.84575003 0
-0.11309841 0.18344706 0.84825003 0
-0.11309841 0.18594706 0.84575003 2.3027201e-39
-0.11309841 0.18594706 0.84825003 2.7647773e-39
-0.11059841 0.18094707 0.84575003 2.6624671e-44
-0.1080984 0.18094707 0.84575003 0
-0.11059841 0.18344706 0.84575003 0
-0.11059841 0.18344706 0.84825003 1.4349296e-42
-0.11059841 0.18594706 0.84825003 2.7633522e-39
-0.1080984 0.18594706 0.84825003 2.9473833e-39
-0.10559841 0.18594706 0.84825003 2.6708048e-39
-0.10309841 0.18594706 0.84825003 3.0338238e-39
-0.098098405 0.18594706 0.83825004 0
-0.095598407 0.18594706 0.83825004 2.9387359e-39
-0.1005984 0.18594706 0.84075004 0
-0.1005984 0.18594706 0.84325004 0
-0.098098405 0.18594706 0.84075004 0
-0.098098405 0.18594706 0.84325004 0
-0.098098405 0.18594706 0.84825003 8.9998786e-39
-0.095598407 0.18594706 0.84075004 2.9387359e-39
-0.095598407 0.18594706 0.84325004 2.9387359e-39
-0.11059841 0.18344706 0.85075003 0
-0.11059841 0.18344706 0.85325003 0
-0.1080984 0.18344706 0.85075003 5.5676811e-40
-0.1080984 0.18344706 0.85325003 0
-0.1080984 0.18594706 0.85075003 2.0283039e-39
-0.10559841 0.18344706 0.85075003 5.5282345e-40
-0.10559841 0.18344706 0.85325003 0
-0.10559841 0.18594706 0.85075003 1.2907388e-39
-0.10309841 0.18344706 0.85075003 9.1835496e-40
-0.10309841 0.18344706 0.85325003 0
-0.10309841 0.18594706 0.85075003 6.6233171e-39
-0.10309841 0.18594706 0.85325003 3.5880569e-39
-0.10309841 0.18344706 0.85575002 0
-0.10309841 0.18344706 0.85825002 0
-0.1005984 0.18594706 0.85075003 1.3070527e-38
-0.1005984 0.18594706 0.85325003 1.3715175e-38
-0.098098405 0.18344706 0.85075003 2.3504081e-38
-0.098098405 0.18594706 0.85075003 2.1099045e-38
-0.098098405 0.18594706 0.85325003 2.3502997e-38
-0.18309841 0.19594707 0.81575006 0
-0.1855984 0.19844706 0.81825006 0
-0.18309841 0.19844706 0.81825006 0
-0.18309841 0.20094706 0.81825006 0
-0.1855984 0.20344706 0.81825006 9.8595178e-39
-0.1855984 0.20594706 0.81825006 1.1520073e-38
-0.18309841 0.20344706 0.81825006 2.7676892e-39
-0.18309841 0.20594706 0.81825006 7.8330959e-39
-0.1880984 0.20594706 0.82325006 1.8525501e-38
-0.1855984 0.19844706 0.82075006 0
-0.1855984 0.20094706 0.82075006 0
-0.1855984 0.20094706 0.82325006 0
-0.18309841 0.19844706 0.82075006 0
-0.18309841 0.20094706 0.82075006 1.6602444e-39
-0.18309841 0.20094706 0.82325006 0
-0.1855984 0.20094706 0.82575005 0
-0.1855984 0.20344706 0.82075006 1.1978243e-39
-0.1855984 0.20344706 0.82325006 1.3811366e-39
-0.1855984 0.20594706 0.82075006 1.151795e-38
-0.1855984 0.20594706 0.82325006 1.1519371e-38
-0.18309841 0.20344706 0.82075006 2.0304591e-39
-0.18309841 0.20344706 0.82325006 0
-0.18309841 0.20594706 0.82075006 7.9267194e-39
-0.1855984 0.20344706 0.82575005 1.106342e-39
-0.17809841 0.19094706 0.81325006 2.1380381e-38
-0.17809841 0.19094706 0.81575006 2.257889e-38
-0.18059841 0.19344707 0.81325006 6.2592261e-39
-0.17809841 0.19344707 0.81325006 4.6837574e-39
-0.18059841 0.19344707 0.81575006 1.3817886e-38
-0.18059841 0.19594707 0.81575006 0
-0.17809841 0.19344707 0.81575006 0
-0.17809841 0.19594707 0.81575006 6.4396251e-40
-0.1755984 0.19094706 0.81575006 1.8153532e-38
-0.1755984 0.19094706 0.81825006 1.8521971e-38
-0.1730984 0.19094706 0.81575006 1.852304e-38
-0.1730984 0.19094706 0.81825006 1.6677698e-38
-0.1755984 0.19344707 0.81575006 0
-0.1755984 0.19344707 0.81825006 0
-0.1755984 0.19594707 0.81575006 0
-0.1755984 0.19594707 0.81825006 0
-0.1730984 0.19344707 0.81575006 0
-0.1730984 0.19344707 0.81825006 0
-0.1730984 0.19594707 0.81825006 0
-0.1730984 0.19344707 0.82075006 4.5240725e-39
-0.1730984 0.19594707 0.82075006 0
-0.1730984 0.19594707 0.82325006 0
-0.1730984 0.19594707 0.82575005 0
-0.18059841 0.19844706 0.81825006 2.1143856e-39
-0.18059841 0.20094706 0.81575006 4.2348851e-39
-0.18059841 0.20094706 0.81825006 5.2440008e-39
-0.17809841 0.19844706 0.81825006 2.0221886e-39
-0.17809841 0.20094706 0.81575006 4.3277898e-39
-0.17809841 0.20094706 0.81825006 4.1430398e-39
-0.18059841 0.20344706 0.81575006 1.472263e-39
-0.18059841 0.20344706 0.81825006 1.4615543e-42
-0.18059841 0.20594706 0.81575006 3.6734198e-40
-0.18059841 0.20594706 0.81825006 3.2243836e-39
-0.17809841 0.20344706 0.81575006 2.7633522e-39
-0.17809841 0.20594706 0.81575006 2.0257829e-39
-0.1755984 0.19844706 0.81825006 2.4835269e-39
-0.1755984 0.20094706 0.81575006 4.1426895e-39
-0.1755984 0.20094706 0.81825006 3.0410167e-39
-0.1730984 0.19844706 0.81825006 1.7484898e-39
-0.1755984 0.20344706 0.81325006 2.1176324e-39
-0.1755984 0.20594706 0.81325006 2.2065813e-39
-0.1730984 0.20344706 0.81325006 7.3722733e-40
-0.1730984 0.20594706 0.81325006 1.3800674e-39
-0.1755984 0.20344706 0.81575006 2.7633522e-39
-0.1755984 0.20594706 0.81575006 2.026492e-39
-0.1730984 0.20344706 0.81575006 2.6711551e-39
-0.1730984 0.20344706 0.81825006 2.5821839e-39
-0.1730984 0.20594706 0.81575006 9.2160738e-40
-0.18059841 0.20094706 0.82075006 3.7767516e-39
-0.17809841 0.20094706 0.82075006 3.8693074e-39
-0.1755984 0.19844706 0.82075006 2.4817416e-39
-0.1755984 0.20094706 0.82075006 4.0519386e-39
-0.1755984 0.20094706 0.82325006 2.4835269e-39
-0.1730984 0.19844706 0.82075006 2.1190365e-39
-0.1730984 0.19844706 0.82325006 1.7495464e-39
-0.1730984 0.20094706 0.82325006 3.2218122e-39
-0.1730984 0.19844706 0.82575005 2.8519507e-39
-0.1730984 0.20094706 0.82575005 4.5989817e-39
-0.1730984 0.20344706 0.82075006 2.7647773e-39
-0.1855984 0.20844707 0.81825006 1.2348434e-38
-0.18309841 0.20844707 0.81825006 1.1431122e-38
-0.1855984 0.20844707 0.82075006 1.1889255e-38
-0.18309841 0.20844707 0.82075006 1.1983637e-38
-0.18059841 0.20844707 0.81575006 0
-0.18059841 0.20844707 0.81825006 3.1338863e-39
-0.18059841 0.21094707 0.81575006 0
-0.17809841 0.20844707 0.81575006 1.7495464e-39
-0.17809841 0.21094707 0.81575006 2.0290101e-39
-0.1755984 0.20844707 0.81575006 2.4871114e-39
-0.1755984 0.21094707 0.81575006 2.3974339e-39
-0.1730984 0.20844707 0.81575006 2.1201492e-39
-0.1730984 0.21094707 0.81575006 2.7633522e-39
-0.1705984 0.19344707 0.81825006 0
-0.1705984 0.19344707 0.82075006 4.2038954e-45
-0.1705984 0.19594707 0.82075006 2.7550649e-40
-0.1705984 0.19594707 0.82575005 0
-0.16809841 0.19344707 0.82575005 0
-0.16809841 0.19594707 0.82575005 0
-0.16559841 0.19344707 0.82575005 0
-0.16559841 0.19594707 0.82575005 1.1985432e-39
-0.16309841 0.19344707 0.82575005 0
-0.16309841 0.19344707 0.82825005 0
-0.16309841 0.19594707 0.82575005 2.1179828e-39
-0.1705984 0.20344706 0.81325006 1.8404094e-40
-0.1705984 0.20594706 0.81325006 1.5619209e-39
-0.16809841 0.20344706 0.81325006 1.1963726e-39
-0.16809841 0.20594706 0.81325006 1.8410441e-39
-0.1705984 0.20344706 0.81575006 2.4871114e-39
-0.1705984 0.20344706 0.81825006 2.7647773e-39
-0.1705984 0.20594706 0.81575006 7.3899016e-40
-0.16809841 0.20344706 0.81575006 2.3020139e-39
-0.16809841 0.20344706 0.81825006 2.0257857e-39
-0.16809841 0.20594706 0.81575006 2.5786092e-39
-0.16559841 0.20094706 0.81825006 2.3945682e-39
-0.16309841 0.20094706 0.81575006 2.4867639e-39
-0.16309841 0.20094706 0.81825006 2.5814776e-39
-0.16559841 0.20344706 0.81325006 1.9357579e-39
-0.16559841 0.20594706 0.81325006 2.6711551e-39
-0.16309841 0.20344706 0.81325006 1.8435623e-39
-0.16309841 0.20594706 0.81075007 2.2126951e-39
-0.16309841 0.20594706 0.81325006 2.6711551e-39
-0.16559841 0.20344706 0.81575006 1.1981929e-39
-0.16559841 0.20344706 0.81825006 1.6562941e-39
-0.16559841 0.20594706 0.81575006 2.3938592e-39
-0.16309841 0.20344706 0.81575006 1.1031204e-39
-0.16309841 0.20344706 0.81825006 1.1038294e-39
-0.16309841 0.20594706 0.81575006 2.5786092e-39
-0.16309841 0.20594706 0.81825006 2.8587736e-39
-0.1705984 0.20094706 0.82325006 3.3140078e-39
-0.1705984 0.19844706 0.82575005 3.7767516e-39
-0.1705984 0.20094706 0.82575005 3.1296151e-39
-0.16809841 0.19844706 0.82575005 3.5001745e-39
-0.16809841 0.20094706 0.82575005 3.2218122e-39
-0.1705984 0.20344706 0.82075006 2.7633522e-39
-0.1705984 0.20344706 0.82325006 2.5789595e-39
-0.16809841 0.20344706 0.82075006 2.3020139e-39
-0.16809841 0.20344706 0.82325006 2.4867639e-39
-0.16559841 0.20094706 0.82325006 3.3140078e-39
-0.16309841 0.20094706 0.82075006 2.5814776e-39
-0.16309841 0.20094706 0.82325006 2.8569729e-39
-0.16559841 0.19844706 0.82575005 3.7764013e-39
-0.16559841 0.20094706 0.82575005 3.9586471e-39
-0.16309841 0.19844706 0.82575005 2.7647773e-39
-0.16309841 0.20094706 0.82575005 2.3020139e-39
-0.16559841 0.20344706 0.82075006 1.6562941e-39
-0.16559841 0.20344706 0.82325006 2.4867639e-39
-0.1605984 0.19094706 0.82575005 1.6815582e-44
-0.1605984 0.19094706 0.82825005 6.4343968e-39
-0.1580984 0.19094706 0.82575005 0
-0.1580984 0.19094706 0.82825005 1.3775324e-39
-0.1605984 0.19344707 0.82575005 0
-0.1605984 0.19344707 0.82825005 2.6624671e-44
-0.1605984 0.19594707 0.82575005 3.1299627e-39
-0.1580984 0.19344707 0.82575005 1.6815582e-44
-0.1580984 0.19344707 0.82825005 9.4734783e-41
-0.1580984 0.19594707 0.82575005 3.7764013e-39
-0.1555984 0.19094706 0.82575005 0
-0.1555984 0.19094706 0.82825005 0
-0.1530984 0.18844706 0.82825005 2.8810696e-42
-0.1530984 0.19094706 0.82825005 0
-0.1555984 0.19344707 0.82575005 1.3793611e-39
-0.1555984 0.19344707 0.82825005 1.6559466e-39
-0.1555984 0.19594707 0.82575005 3.3150742e-39
-0.1555984 0.19594707 0.82825005 2.667558e-39
-0.1530984 0.19594707 0.82575005 2.5786092e-39
-0.1530984 0.19594707 0.82825005 2.7647773e-39
-0.1605984 0.20094706 0.81575006 3.2246947e-39
-0.1605984 0.20094706 0.81825006 3.593487e-39
-0.1580984 0.19844706 0.81825006 2.7630018e-39
-0.1580984 0.20094706 0.81575006 1.7510079e-39
-0.1580984 0.20094706 0.81825006 2.1179828e-39
-0.1605984 0.20594706 0.81325006 3.2243289e-39
-0.1605984 0.20344706 0.81575006 1.3800674e-39
-0.1605984 0.20344706 0.81825006 2.7590544e-39
-0.1605984 0.20594706 0.81575006 2.6708048e-39
-0.1605984 0.20594706 0.81825006 3.6813764e-39
-0.1580984 0.20344706 0.81575006 2.1179828e-39
-0.1580984 0.20344706 0.81825006 2.1179828e-39
-0.1580984 0.20594706 0.81825006 2.9491685e-39
-0.1555984 0.19844706 0.81825006 2.7630018e-39
-0.1555984 0.20094706 0.81825006 2.1179828e-39
-0.1555984 0.20344706 0.81825006 2.6711551e-39
-0.1555984 0.20594706 0.81825006 2.7630145e-39
-0.1605984 0.19844706 0.82325006 3.3140078e-39
-0.1605984 0.20094706 0.82075006 3.4101411e-39
-0.1605984 0.20094706 0.82325006 2.6708048e-39
-0.1580984 0.19844706 0.82075006 2.3938592e-39
-0.1580984 0.19844706 0.82325006 3.3140078e-39
-0.1580984 0.20094706 0.82075006 3.4090873e-39
-0.1580984 0.20094706 0.82325006 2.5789595e-39
-0.1605984 0.19844706 0.82575005 3.3136575e-39
-0.1605984 0.20094706 0.82575005 2.6711551e-39
-0.1580984 0.19844706 0.82575005 3.9586471e-39
-0.1580984 0.20594706 0.82075006 2.8562667e-39
-0.1555984 0.19844706 0.82075006 2.5786092e-39
-0.1555984 0.19844706 0.82325006 3.3140078e-39
-0.1555984 0.20094706 0.82075006 1.3825841e-39
-0.1555984 0.20094706 0.82325006 2.2123448e-39
-0.1530984 0.19844706 0.82325006 2.8569729e-39
-0.1530984 0.20094706 0.82075006 1.472263e-39
-0.1530984 0.20094706 0.82325006 2.6704531e-39
-0.1555984 0.19844706 0.82575005 2.8562667e-39
-0.1530984 0.19844706 0.82575005 3.0417523e-39
-0.1555984 0.20344706 0.82075006 2.2123448e-39
-0.1555984 0.20594706 0.82075006 2.6718754e-39
-0.1555984 0.20594706 0.82325006 2.947033e-39
-0.1530984 0.20344706 0.82075006 2.9473833e-39
-0.1530984 0.20594706 0.82075006 2.7647773e-39
-0.1530984 0.20594706 0.82325006 2.1190365e-39
-0.1705984 0.20844707 0.81325006 3.9607967e-39
-0.16809841 0.20844707 0.81325006 3.0406635e-39
-0.1705984 0.20844707 0.81575006 3.4097964e-39
-0.1705984 0.21094707 0.81575006 2.7640584e-39
-0.16809841 0.20844707 0.81575006 3.2246947e-39
-0.16809841 0.21094707 0.81575006 2.0257829e-39
-0.16559841 0.20844707 0.81325006 3.4998242e-39
-0.16309841 0.20844707 0.81325006 2.9466504e-39
-0.16309841 0.21094707 0.81325006 2.759755e-39
-0.16559841 0.20844707 0.81575006 3.4090873e-39
-0.16559841 0.21094707 0.81575006 1.6577025e-39
-0.16309841 0.20844707 0.81575006 2.3938592e-39
-0.16309841 0.21094707 0.81575006 1.6577025e-39
-0.1605984 0.20844707 0.81325006 2.4867639e-39
-0.1605984 0.20844707 0.81575006 2.3938592e-39
-0.1605984 0.20844707 0.81825006 2.3945654e-39
-0.1605984 0.21094707 0.81575006 1.8410441e-39
-0.1580984 0.20844707 0.81825006 2.7633522e-39
-0.1580984 0.20844707 0.82075006 2.9448652e-39
-0.1555984 0.20844707 0.82075006 3.2196416e-39
-0.1530984 0.20844707 0.82075006 2.3016636e-39
-0.1580984 0.19094706 0.83075005 9.1835496e-40
-0.1580984 0.19094706 0.83325005 0
-0.1605984 0.19344707 0.83075005 0
-0.1605984 0.19344707 0.83325005 0
-0.1580984 0.19344707 0.83075005 0
-0.1555984 0.19094706 0.83075005 0
-0.1555984 0.19094706 0.83325005 0
-0.1530984 0.19094706 0.83075005 0
-0.1530984 0.19094706 0.83325005 0
-0.1555984 0.19344707 0.83075005 0
-0.1530984 0.19344707 0.83075005 2.395622e-39
-0.1530984 0.19344707 0.83325005 1.8367099e-40
-0.15059841 0.18844706 0.82825005 0
-0.15059841 0.19094706 0.82825005 0
-0.14809841 0.18844706 0.82825005 0
-0.14809841 0.19094706 0.82825005 5.6051939e-45
-0.15059841 0.19594707 0.82575005 2.5789595e-39
-0.14809841 0.19594707 0.82575005 3.3143553e-39
-0.14809841 0.19594707 0.82825005 3.5920226e-39
-0.14559841 0.19594707 0.82575005 3.2221597e-39
-0.14559841 0.19594707 0.82825005 2.7630018e-39
-0.1430984 0.19594707 0.82575005 3.0392286e-39
-0.1430984 0.19594707 0.82825005 2.6708048e-39
-0.15059841 0.19844706 0.82325006 3.0392286e-39
-0.15059841 0.20094706 0.82325006 2.0250865e-39
-0.14809841 0.19844706 0.82325006 2.5786092e-39
-0.14809841 0.20094706 0.82325006 2.9448652e-39
-0.15059841 0.19844706 0.82575005 2.489282e-39
-0.15059841 0.20094706 0.82575005 1.8439126e-39
-0.14809841 0.19844706 0.82575005 2.2126951e-39
-0.14809841 0.20094706 0.82575005 2.0250865e-39
-0.15059841 0.20344706 0.82075006 3.4097908e-39
-0.15059841 0.20344706 0.82325006 3.3165414e-39
-0.15059841 0.20594706 0.82325006 2.395622e-39
-0.15059841 0.20344706 0.82575005 2.9484679e-39
-0.15059841 0.20594706 0.82575005 3.0406635e-39
-0.14809841 0.20344706 0.82575005 2.9481176e-39
-0.14809841 0.20594706 0.82575005 2.7647773e-39
-0.14559841 0.19844706 0.82575005 1.6566445e-39
-0.14559841 0.20094706 0.82575005 2.6708048e-39
-0.1430984 0.19844706 0.82575005 1.841742e-39
-0.1430984 0.20094706 0.82575005 1.1988907e-39
-0.14559841 0.20344706 0.82575005 2.6711551e-39
-0.14559841 0.20344706 0.82825005 3.2218122e-39
-0.14559841 0.20594706 0.82575005 2.3037991e-39
-0.1430984 0.20344706 0.82575005 4.0501239e-39
-0.1430984 0.20344706 0.82825005 3.7749846e-39
-0.1430984 0.20594706 0.82575005 2.8526695e-39
-0.1405984 0.19594707 0.82575005 3.2218122e-39
-0.1405984 0.19594707 0.82825005 3.0370608e-39
-0.1380984 0.19594707 0.82825005 2.1176324e-39
-0.13559841 0.19594707 0.82825005 1.3825841e-39
-0.13309841 0.19594707 0.82825005 1.3825841e-39
-0.1405984 0.19844706 0.82575005 2.0257857e-39
-0.1405984 0.19844706 0.82825005 2.4867639e-39
-0.1405984 0.20094706 0.82575005 1.751717e-39
-0.1405984 0.20094706 0.82825005 1.8439126e-39
-0.1380984 0.19844706 0.82825005 2.3938592e-39
-0.1380984 0.20094706 0.82825005 2.3016636e-39
-0.1405984 0.20344706 0.82575005 2.9484623e-39
-0.1405984 0.20344706 0.82825005 3.4980389e-39
-0.1380984 0.20344706 0.82825005 2.8562667e-39
-0.13559841 0.19844706 0.82825005 1.5669768e-39
-0.13559841 0.20094706 0.82825005 2.3970864e-39
-0.13059841 0.19594707 0.82825005 1.7510079e-39
-0.1280984 0.19594707 0.82825005 2.5814776e-39
-0.15059841 0.19094706 0.83075005 0
-0.15059841 0.19094706 0.83325005 0
-0.14809841 0.18844706 0.83325005 0
-0.14809841 0.19094706 0.83075005 4.5921532e-40
-0.14809841 0.19094706 0.83325005 0
-0.15059841 0.19094706 0.83575004 0
-0.14809841 0.18844706 0.83575004 0
-0.14809841 0.18844706 0.83825004 1.7878392e-38
-0.14809841 0.19094706 0.83575004 0
-0.15059841 0.19344707 0.83075005 3.4079789e-39
-0.15059841 0.19344707 0.83325005 2.7658689e-40
-0.14809841 0.19344707 0.83075005 3.3150742e-39
-0.14809841 0.19344707 0.83325005 1.1031204e-39
-0.14809841 0.19594707 0.83325005 3.0417145e-39
-0.14809841 0.19344707 0.83575004 2.0257857e-39
-0.14559841 0.18844706 0.83325005 0
-0.14559841 0.19094706 0.83075005 6.4431283e-40
-0.14559841 0.19094706 0.83325005 7.3899016e-40
-0.1430984 0.19094706 0.83325005 1.7495464e-39
-0.14559841 0.18844706 0.83575004 0
-0.14559841 0.18844706 0.83825004 1.0690727e-38
-0.14559841 0.19094706 0.83575004 0
-0.14559841 0.19094706 0.83825004 0
-0.1430984 0.18844706 0.83575004 0
-0.1430984 0.18844706 0.83825004 2.3822074e-44
-0.1430984 0.19094706 0.83575004 0
-0.1430984 0.19094706 0.83825004 0
-0.14559841 0.19344707 0.83075005 3.3150742e-39
-0.14559841 0.19344707 0.83325005 2.118689e-39
-0.14559841 0.19594707 0.83075005 3.315077e-39
-0.14559841 0.19594707 0.83325005 2.7633522e-39
-0.1430984 0.19344707 0.83075005 2.5800259e-39
-0.1430984 0.19344707 0.83325005 2.4871114e-39
-0.1430984 0.19594707 0.83075005 2.1179828e-39
-0.1430984 0.19594707 0.83325005 2.8526695e-39
-0.14559841 0.19344707 0.83575004 2.2987769e-39
-0.1430984 0.19344707 0.83575004 3.5877164e-39
-0.15059841 0.18844706 0.84075004 1.9169479e-38
-0.15059841 0.18844706 0.84325004 2.2579625e-38
-0.15059841 0.19094706 0.84075004 0
-0.15059841 0.19094706 0.84325004 1.880035e-38
-0.14809841 0.18844706 0.84075004 2.0182539e-38
-0.14809841 0.18844706 0.84325004 1.8152813e-38
-0.14809841 0.19094706 0.84075004 0
-0.14559841 0.18844706 0.84075004 9.2231531e-39
-0.14559841 0.18844706 0.84325004 1.5573506e-38
-0.14559841 0.19094706 0.84075004 0
-0.1430984 0.18844706 0.84075004 1.5414283e-44
-0.1430984 0.18844706 0.84325004 7.9127513e-39
-0.1405984 0.18844706 0.83575004 1.5414283e-44
-0.1405984 0.18844706 0.83825004 0
-0.1405984 0.19094706 0.83575004 6.4536941e-40
-0.1405984 0.19094706 0.83825004 1.2885682e-39
-0.1380984 0.18844706 0.83825004 0
-0.1380984 0.19094706 0.83575004 1.751717e-39
-0.1380984 0.19094706 0.83825004 1.011631e-39
-0.1405984 0.19594707 0.83075005 2.1179828e-39
-0.1405984 0.19594707 0.83325005 2.3938592e-39
-0.1380984 0.19594707 0.83075005 2.4867639e-39
-0.1380984 0.19594707 0.83325005 2.3938592e-39
-0.1405984 0.19344707 0.83575004 4.3270807e-39
-0.1380984 0.19344707 0.83575004 2.3970864e-39
-0.1380984 0.19594707 0.83575004 3.3143553e-39
-0.13559841 0.18844706 0.83825004 0
-0.13559841 0.19094706 0.83825004 2.8519507e-39
-0.13309841 0.18844706 0.83825004 0
-0.13309841 0.19094706 0.83825004 2.9441463e-39
-0.13559841 0.19594707 0.83325005 2.3938592e-39
-0.13309841 0.19344707 0.83075005 2.2119931e-39
-0.13309841 0.19594707 0.83075005 3.2214619e-39
-0.13309841 0.19594707 0.83325005 2.7630018e-39
-0.13559841 0.19344707 0.83575004 2.2126951e-39
-0.13309841 0.19344707 0.83575004 1.2900382e-39
-0.1405984 0.18844706 0.84075004 0
-0.1405984 0.18844706 0.84325004 1.1938615e-39
-0.1380984 0.18844706 0.84075004 0
-0.1380984 0.18844706 0.84325004 0
-0.13559841 0.18844706 0.84075004 0
-0.13559841 0.19094706 0.84075004 1.841742e-39
-0.13309841 0.18844706 0.84075004 1.8404094e-40
-0.13309841 0.19094706 0.84075004 2.7640584e-39
-0.1405984 0.19844706 0.83075005 2.5789595e-39
-0.1380984 0.19844706 0.83075005 1.9332398e-39
-0.1380984 0.20094706 0.83075005 2.6708048e-39
-0.1405984 0.20344706 0.83075005 3.4069223e-39
-0.1380984 0.20344706 0.83075005 2.5789763e-39
-0.13559841 0.19844706 0.83075005 2.1179828e-39
-0.13559841 0.19844706 0.83325005 1.2903885e-39
-0.13559841 0.20094706 0.83075005 2.7633522e-39
-0.13559841 0.20094706 0.83325005 2.6711551e-39
-0.13309841 0.19844706 0.83075005 2.3906222e-39
-0.13309841 0.19844706 0.83325005 1.6566445e-39
-0.13309841 0.20094706 0.83075005 3.3172448e-39
-0.13309841 0.20094706 0.83325005 2.9516895e-39
-0.13559841 0.20344706 0.83075005 2.3938592e-39
-0.13559841 0.20344706 0.83325005 2.6711551e-39
-0.13309841 0.20344706 0.83325005 2.5814776e-39
-0.13059841 0.18844706 0.83825004 0
-0.13059841 0.19094706 0.83825004 4.0497736e-39
-0.1280984 0.18844706 0.83825004 1.1981929e-39
-0.1280984 0.19094706 0.83825004 3.6806323e-39
-0.13059841 0.19344707 0.83075005 2.6708048e-39
-0.13059841 0.19594707 0.83075005 2.7633522e-39
-0.13059841 0.19594707 0.83325005 2.6708048e-39
-0.1280984 0.19344707 0.83075005 2.3013132e-39
-0.1280984 0.19344707 0.83325005 2.6708048e-39
-0.1280984 0.19594707 0.83075005 2.1176324e-39
-0.1280984 0.19594707 0.83325005 2.3938592e-39
-0.13059841 0.19344707 0.83575004 2.1201492e-39
-0.13059841 0.19344707 0.83825004 2.5789595e-39
-0.1280984 0.19344707 0.83575004 2.3938592e-39
-0.1280984 0.19344707 0.83825004 3.1296151e-39
-0.1280984 0.19594707 0.83575004 1.8435623e-39
-0.1255984 0.19094706 0.83825004 2.6708048e-39
-0.1230984 0.19094706 0.83825004 1.9357579e-39
-0.1255984 0.19344707 0.83325005 2.8519507e-39
-0.1255984 0.19594707 0.83325005 2.1172821e-39
-0.1255984 0.19344707 0.83575004 2.85125e-39
-0.1255984 0.19344707 0.83825004 3.0392342e-39
-0.1255984 0.19594707 0.83575004 2.4824675e-39
-0.1230984 0.19344707 0.83575004 2.8526695e-39
-0.1230984 0.19344707 0.83825004 2.6704531e-39
-0.1230984 0.19594707 0.83575004 2.6718614e-39
-0.1230984 0.19594707 0.83825004 2.0254368e-39
-0.13059841 0.18844706 0.84075004 6.4501908e-40
-0.13059841 0.19094706 0.84075004 2.7640584e-39
-0.1280984 0.18844706 0.84075004 1.8413945e-39
-0.1280984 0.19094706 0.84075004 3.2221597e-39
-0.1280984 0.19094706 0.84325004 1.8413945e-39
-0.1255984 0.18844706 0.84075004 1.3800674e-39
-0.1255984 0.18844706 0.84325004 1.7481423e-39
-0.1255984 0.19094706 0.84075004 2.6708048e-39
-0.1255984 0.19094706 0.84325004 2.1176324e-39
-0.1230984 0.18844706 0.84075004 2.7640584e-39
-0.1230984 0.18844706 0.84325004 1.5687382e-39
-0.1230984 0.19094706 0.84075004 2.5789595e-39
-0.1230984 0.19094706 0.84325004 3.1299627e-39
-0.1255984 0.19344707 0.84075004 3.1296151e-39
-0.13059841 0.19844706 0.83075005 2.3949158e-39
-0.13059841 0.19844706 0.83325005 2.0250865e-39
-0.13059841 0.20094706 0.83075005 3.3165414e-39
-0.13059841 0.20094706 0.83325005 3.5931339e-39
-0.1280984 0.19844706 0.83075005 2.1201492e-39
-0.1280984 0.19844706 0.83325005 2.9473833e-39
-0.1280984 0.20094706 0.83325005 3.2239926e-39
-0.13059841 0.20094706 0.83575004 3.4984145e-39
-0.1280984 0.19844706 0.83575004 1.3825841e-39
-0.1280984 0.20094706 0.83575004 3.2218122e-39
-0.13059841 0.20344706 0.83325005 3.0403132e-39
-0.1280984 0.20344706 0.83325005 2.9481176e-39
-0.1255984 0.19844706 0.83325005 4.0515883e-39
-0.1255984 0.20094706 0.83325005 2.5793252e-39
-0.1255984 0.19844706 0.83575004 2.9484623e-39
-0.1255984 0.19844706 0.83825004 1.2903885e-39
-0.1255984 0.20094706 0.83575004 2.9445148e-39
-0.1230984 0.19844706 0.83575004 3.7760551e-39
-0.1230984 0.20094706 0.83575004 2.4828206e-39
-0.12059841 0.19094706 0.83825004 2.1201492e-39
-0.11809841 0.19094706 0.83575004 2.3963773e-39
-0.11809841 0.19094706 0.83825004 2.4889317e-39
-0.12059841 0.19344707 0.83575004 2.6708048e-39
-0.12059841 0.19344707 0.83825004 2.6708048e-39
-0.12059841 0.19594707 0.83575004 2.6708048e-39
-0.12059841 0.19594707 0.83825004 2.6708048e-39
-0.11809841 0.19344707 0.83575004 2.6708048e-39
-0.11809841 0.19344707 0.83825004 2.6708048e-39
-0.11809841 0.19594707 0.83575004 2.6708048e-39
-0.11809841 0.19594707 0.83825004 2.9484623e-39
-0.1155984 0.19094706 0.83575004 2.947033e-39
-0.1155984 0.19094706 0.83825004 2.9473833e-39
-0.11309841 0.18844706 0.83825004 1.751717e-39
-0.11309841 0.19094706 0.83575004 3.6824302e-39
-0.11309841 0.19094706 0.83825004 3.4976886e-39
-0.1155984 0.19344707 0.83575004 2.6708048e-39
-0.1155984 0.19344707 0.83825004 2.1176324e-39
-0.1155984 0.19594707 0.83575004 3.0392286e-39
-0.1155984 0.19594707 0.83825004 3.2250478e-39
-0.11309841 0.19344707 0.83575004 2.7640584e-39
-0.11309841 0.19344707 0.83825004 2.6718614e-39
-0.11309841 0.19594707 0.83575004 3.7757048e-39
-0.11309841 0.19594707 0.83825004 3.2243457e-39
-0.12059841 0.18844706 0.84075004 2.7640584e-39
-0.12059841 0.18844706 0.84325004 3.9589849e-39
-0.12059841 0.19094706 0.84075004 2.7633522e-39
-0.12059841 0.19094706 0.84325004 4.0522917e-39
-0.11809841 0.18844706 0.84075004 3.3140078e-39
-0.11809841 0.18844706 0.84325004 3.773537e-39
-0.11809841 0.19094706 0.84075004 3.3140078e-39
-0.11809841 0.19094706 0.84325004 3.8679005e-39
-0.12059841 0.18844706 0.84575003 2.7647773e-39
-0.11809841 0.18844706 0.84575003 3.3143553e-39
-0.12059841 0.19344707 0.84075004 2.5789595e-39
-0.11809841 0.19344707 0.84075004 2.7630018e-39
-0.1155984 0.18844706 0.84075004 3.2218122e-39
-0.1155984 0.18844706 0.84325004 2.7633522e-39
-0.1155984 0.19094706 0.84075004 3.5902346e-39
-0.1155984 0.19094706 0.84325004 3.0406635e-39
-0.11309841 0.18844706 0.84075004 1.7510079e-39
-0.11309841 0.18844706 0.84325004 2.3945682e-39
-0.11309841 0.19094706 0.84075004 2.8555632e-39
-0.11309841 0.19094706 0.84325004 2.8562723e-39
-0.1155984 0.18844706 0.84575003 2.6711551e-39
-0.1155984 0.18844706 0.84825003 2.6711551e-39
-0.11309841 0.18844706 0.84575003 2.3938592e-39
-0.11309841 0.18844706 0.84825003 2.7633522e-39
-0.11309841 0.19094706 0.84575003 2.7637179e-39
-0.1155984 0.19344707 0.84075004 2.7630018e-39
-0.11309841 0.19344707 0.84075004 3.6824302e-39
-0.11309841 0.19344707 0.84325004 4.2327355e-39
-0.11309841 0.19344707 0.84575003 2.9484623e-39
-0.12059841 0.19844706 0.83575004 3.2246947e-39
-0.12059841 0.19844706 0.83825004 2.6708048e-39
-0.12059841 0.20094706 0.83575004 2.7630018e-39
-0.11809841 0.19844706 0.83575004 2.5793252e-39
-0.11809841 0.19844706 0.83825004 2.7590544e-39
-0.1155984 0.19844706 0.83575004 2.3938592e-39
-0.1155984 0.19844706 0.83825004 2.3938592e-39
-0.11309841 0.19844706 0.83825004 2.3020139e-39
-0.1155984 0.19844706 0.84075004 3.6824302e-39
-0.11309841 0.19844706 0.84075004 3.3143735e-39
-0.11059841 0.18844706 0.83825004 1.5702124e-39
-0.11059841 0.19094706 0.83825004 3.3140078e-39
-0.1080984 0.19094706 0.83825004 2.6708048e-39
-0.11059841 0.19344707 0.83825004 2.6708048e-39
-0.11059841 0.19594707 0.83825004 3.408737e-39
-0.1080984 0.19344707 0.83825004 2.8562667e-39
-0.1080984 0.19594707 0.83825004 2.8562667e-39
-0.11059841 0.18844706 0.84075004 2.2123448e-39
-0.11059841 0.18844706 0.84325004 2.5789595e-39
-0.11059841 0.19094706 0.84075004 2.947033e-39
-0.11059841 0.19094706 0.84325004 2.764071e-39
-0.1080984 0.18844706 0.84075004 2.7630018e-39
-0.1080984 0.18844706 0.84325004 2.947033e-39
-0.1080984 0.19094706 0.84075004 2.6708048e-39
-0.1080984 0.19094706 0.84325004 2.6708048e-39
-0.11059841 0.18844706 0.84575003 2.5786092e-39
-0.11059841 0.18844706 0.84825003 3.4980389e-39
-0.1080984 0.18844706 0.84575003 3.2218122e-39
-0.1080984 0.18844706 0.84825003 3.7760551e-39
-0.11059841 0.19344707 0.84075004 2.7630018e-39
-0.11059841 0.19594707 0.84075004 2.7633676e-39
-0.1080984 0.19344707 0.84075004 2.6733201e-39
-0.1080984 0.19344707 0.84325004 2.3938592e-39
-0.1080984 0.19594707 0.84075004 2.7633522e-39
-0.10559841 0.18844706 0.84075004 2.5814776e-39
-0.10559841 0.18844706 0.84325004 2.8562667e-39
-0.10559841 0.19094706 0.84075004 1.9361082e-39
-0.10559841 0.19094706 0.84325004 2.2123448e-39
-0.10309841 0.18844706 0.84075004 2.6736733e-39
-0.10309841 0.18844706 0.84325004 3.0410167e-39
-0.10309841 0.19094706 0.84075004 1.8439126e-39
-0.10309841 0.19094706 0.84325004 2.6711551e-39
-0.10559841 0.18844706 0.84575003 3.2214619e-39
-0.10559841 0.18844706 0.84825003 2.5811245e-39
-0.10309841 0.18844706 0.84575003 2.6711551e-39
-0.10559841 0.19344707 0.84075004 3.5948911e-39
-0.10559841 0.19344707 0.84325004 3.133948e-39
-0.10559841 0.19594707 0.84075004 2.5789595e-39
-0.10559841 0.19594707 0.84325004 3.0417523e-39
-0.10309841 0.19344707 0.84075004 3.226847e-39
-0.10309841 0.19344707 0.84325004 3.9600961e-39
-0.10309841 0.19594707 0.84075004 3.5938317e-39
-0.10309841 0.19594707 0.84325004 3.5016361e-39
-0.11059841 0.19844706 0.84075004 2.9445148e-39
-0.1080984 0.19844706 0.84075004 2.1179828e-39
-0.10559841 0.19844706 0.84325004 2.3016636e-39
-0.10309841 0.19844706 0.84325004 2.3027201e-39
-0.098098405 0.18844706 0.83825004 0
-0.098098405 0.19094706 0.83825004 2.0221886e-39
-0.095598407 0.18844706 0.83825004 1.5488866e-38
-0.095598407 0.19094706 0.83825004 2.0996965e-38
-0.1005984 0.18844706 0.84075004 1.8428532e-39
-0.1005984 0.18844706 0.84325004 2.947033e-39
-0.1005984 0.19094706 0.84075004 2.3895432e-39
-0.1005984 0.19094706 0.84325004 2.1143856e-39
-0.098098405 0.18844706 0.84075004 0
-0.098098405 0.18844706 0.84325004 0
-0.098098405 0.19094706 0.84075004 2.2065813e-39
-0.1005984 0.18844706 0.84575003 0
-0.1005984 0.19344707 0.84075004 3.0424558e-39
-0.1005984 0.19344707 0.84325004 3.0338238e-39
-0.1005984 0.19594707 0.84325004 2.9416282e-39
-0.098098405 0.19344707 0.84075004 3.4955082e-39
-0.098098405 0.19344707 0.84325004 2.2040631e-39
-0.098098405 0.19594707 0.84325004 8.2651947e-40
-0.1005984 0.19594707 0.84575003 2.6686118e-39
-0.098098405 0.19594707 0.84575003 7.9968628e-39
-0.095598407 0.18844706 0.84075004 0
-0.095598407 0.18844706 0.84325004 1.8367099e-40
-0.095598407 0.19094706 0.84075004 6.2449623e-39
-0.095598407 0.19094706 0.84325004 2.1364307e-38
-0.095598407 0.19344707 0.84075004 1.3906772e-38
-0.095598407 0.19344707 0.84325004 9.0139869e-39
-0.093098402 0.19344707 0.84325004 2.1839895e-38
-0.095598407 0.19344707 0.84575003 2.1374975e-38
-0.095598407 0.19344707 0.84825003 2.1932112e-38
-0.095598407 0.19594707 0.84575003 2.1921016e-38
-0.093098402 0.19344707 0.84575003 2.1840271e-38
-0.093098402 0.19594707 0.84575003 2.1931735e-38
-0.1005984 0.19844706 0.84325004 2.3949158e-39
-0.098098405 0.19844706 0.84325004 0
-0.10309841 0.18844706 0.85075003 1.3775324e-39
-0.1005984 0.18844706 0.85075003 4.3162683e-39
-0.098098405 0.18844706 0.85075003 8.9998786e-39
