# .PCD v0.7 - Point Cloud Data file format
VERSION 0.7
FIELDS x y z rgb
SIZE 4 4 4 4
TYPE F F F F
COUNT 1 1 1 1
WIDTH 565
HEIGHT 1
VIEWPOINT 0 0 0 1 0 0 0
POINTS 565
DATA ascii
0.11115965 0.079616167 1.08325 9.3899343e-39
0.12115965 0.077116169 1.0732501 1.2797085e-38
0.12115965 0.079616167 1.0732501 3.9489263e-39
0.11365965 0.079616167 1.0807501 1.2856997e-39
0.11365965 0.079616167 1.08325 2.6632406e-39
0.11615966 0.079616167 1.0807501 1.2856997e-39
0.11615966 0.079616167 1.08325 1.8367099e-40
0.11865965 0.077116169 1.0757501 4.5020987e-39
0.11865965 0.079616167 1.0757501 0
0.12115965 0.077116169 1.0757501 1.2705612e-38
0.12115965 0.079616167 1.0757501 4.7754458e-39
0.11865965 0.079616167 1.0807501 0
0.11865965 0.079616167 1.08325 0
0.12115965 0.079616167 1.0807501 1.2982167e-38
0.12615965 0.079616167 1.0657501 2.0082045e-38
0.12365965 0.077116169 1.0732501 1.9158944e-38
0.12365965 0.079616167 1.0707501 1.8422174e-38
0.12365965 0.079616167 1.0732501 1.4360179e-38
0.12615965 0.077116169 1.0732501 1.9806579e-38
0.12615965 0.079616167 1.0707501 2.0266087e-38
0.12615965 0.079616167 1.0732501 1.8145215e-38
0.12865965 0.079616167 1.0657501 1.9164797e-38
0.12365965 0.077116169 1.0757501 1.9065689e-38
0.12365965 0.079616167 1.0757501 1.4818283e-38
0.12615965 0.079616167 1.0757501 1.8238489e-38
0.13615966 0.089616165 1.0432501 1.1968389e-38
0.13865966 0.089616165 1.04075 1.8145488e-38
0.13615966 0.09211617 1.0432501 3.3060779e-39
0.13615966 0.094616167 1.0432501 1.6530389e-39
0.13365965 0.09961617 1.0432501 1.3800674e-39
0.13615966 0.09961617 1.04075 5.51034e-40
0.13615966 0.09961617 1.0432501 9.2125985e-40
0.13865966 0.09211617 1.04075 1.6761186e-38
0.13865966 0.09211617 1.0432501 1.2426959e-38
0.13865966 0.094616167 1.04075 8.3710207e-39
0.13865966 0.094616167 1.0432501 3.6734198e-40
0.14115965 0.09211617 1.04075 1.9434859e-38
0.14115965 0.09211617 1.0432501 1.9252985e-38
0.14115965 0.094616167 1.04075 1.4732134e-38
0.14115965 0.094616167 1.0432501 1.4734641e-38
0.13865966 0.097116165 1.0432501 7.0064923e-45
0.13865966 0.09961617 1.04075 7.0064923e-45
0.13865966 0.09961617 1.0432501 5.521172e-40
0.14115965 0.097116165 1.0432501 0
0.14115965 0.09961617 1.04075 0
0.14115965 0.09961617 1.0432501 0
0.14115965 0.10961617 1.02075 1.3825841e-39
0.14115965 0.11211617 1.0182501 1.2907388e-39
0.14115965 0.11461617 1.0182501 6.4285968e-40
0.14115965 0.11211617 1.02075 1.2907388e-39
0.13115965 0.10711617 1.0332501 1.3804163e-39
0.13115965 0.10961617 1.0332501 1.011631e-39
0.13115965 0.10211617 1.04075 1.4747798e-39
0.13115965 0.10461617 1.04075 2.0257829e-39
0.13115965 0.10711617 1.0382501 1.6573507e-39
0.13115965 0.10711617 1.04075 1.8413945e-39
0.13365965 0.10211617 1.0282501 2.6711551e-39
0.13365965 0.10461617 1.0282501 2.1179828e-39
0.13615966 0.10211617 1.0282501 2.0257857e-39
0.13615966 0.10461617 1.0282501 2.3020139e-39
0.13365965 0.10211617 1.03075 1.5669768e-39
0.13365965 0.10461617 1.03075 2.1176324e-39
0.13615966 0.10211617 1.03075 1.1981929e-39
0.13615966 0.10211617 1.0332501 1.8403351e-39
0.13615966 0.10461617 1.03075 2.3016664e-39
0.13615966 0.10461617 1.0332501 2.3935089e-39
0.13365965 0.10711617 1.0282501 1.7491988e-39
0.13365965 0.10961617 1.0282501 1.1960251e-39
0.13615966 0.10711617 1.0282501 1.9335901e-39
0.13615966 0.10961617 1.0282501 1.3804163e-39
0.13365965 0.10711617 1.03075 1.3800674e-39
0.13365965 0.10711617 1.0332501 1.0155785e-39
0.13365965 0.10961617 1.03075 1.2882179e-39
0.13365965 0.10961617 1.0332501 9.219563e-40
0.13615966 0.10711617 1.03075 1.6562941e-39
0.13615966 0.10711617 1.0332501 2.0250809e-39
0.13615966 0.10961617 1.03075 1.6570004e-39
0.13615966 0.10961617 1.0332501 1.1063476e-39
0.13865966 0.10461617 1.0282501 1.2900382e-39
0.14115965 0.10461617 1.0282501 8.2941034e-40
0.13865966 0.10211617 1.03075 4.6422496e-40
0.13865966 0.10211617 1.0332501 1.8693041e-40
0.13865966 0.10461617 1.03075 2.0257829e-39
0.13865966 0.10461617 1.0332501 1.2903885e-39
0.14115965 0.10211617 1.03075 5.6051939e-45
0.14115965 0.10211617 1.0332501 0
0.14115965 0.10461617 1.03075 3.7202933e-40
0.14115965 0.10461617 1.0332501 8.2941034e-40
0.13865966 0.10711617 1.0282501 1.8413945e-39
0.13865966 0.10961617 1.02575 1.6566445e-39
0.13865966 0.10961617 1.0282501 1.4726133e-39
0.14115965 0.10711617 1.0282501 1.2903885e-39
0.14115965 0.10961617 1.02575 1.2903885e-39
0.14115965 0.10961617 1.0282501 1.3825841e-39
0.13865966 0.10711617 1.03075 1.8413945e-39
0.13865966 0.10711617 1.0332501 1.3825841e-39
0.14115965 0.10711617 1.03075 1.1981929e-39
0.14115965 0.10711617 1.0332501 1.105291e-39
0.13365965 0.10211617 1.0382501 1.5673257e-39
0.13365965 0.10461617 1.0382501 2.1179828e-39
0.13615966 0.10211617 1.0382501 1.2900382e-39
0.13615966 0.10461617 1.0382501 2.4857045e-39
0.13365965 0.10211617 1.04075 2.5789595e-39
0.13365965 0.10211617 1.0432501 1.2903885e-39
0.13365965 0.10461617 1.04075 1.4751301e-39
0.13365965 0.10461617 1.0432501 1.3829344e-39
0.13615966 0.10211617 1.04075 1.105291e-39
0.13615966 0.10211617 1.0432501 1.105291e-39
0.13615966 0.10461617 1.0432501 2.1176324e-39
0.13365965 0.10711617 1.0382501 1.6573507e-39
0.13615966 0.10711617 1.0382501 2.1179828e-39
0.13365965 0.10711617 1.04075 1.3829344e-39
0.13865966 0.10211617 1.0382501 7.3722733e-40
0.13865966 0.10461617 1.0382501 1.1056385e-39
0.14115965 0.10211617 1.0382501 6.4501908e-40
0.14115965 0.10461617 1.0382501 8.2941034e-40
0.13865966 0.10211617 1.04075 1.1056385e-39
0.13865966 0.10211617 1.0432501 6.4431283e-40
0.13865966 0.10461617 1.0432501 1.8410441e-39
0.14115965 0.10211617 1.04075 1.821688e-44
0.14115965 0.10211617 1.0432501 1.5414283e-44
0.14115965 0.10461617 1.0432501 3.7132307e-40
0.13615966 0.11211617 1.0282501 1.1031204e-39
0.13365965 0.11211617 1.03075 1.1038294e-39
0.13615966 0.11211617 1.03075 1.2882179e-39
0.13865966 0.11211617 1.02575 1.1985432e-39
0.13865966 0.11211617 1.0282501 1.1985432e-39
0.14115965 0.11211617 1.02575 1.6566445e-39
0.14115965 0.11461617 1.02575 1.3804163e-39
0.11865965 0.089616165 1.0632501 3.3129274e-39
0.12115965 0.087116167 1.0632501 7.3469798e-40
0.12115965 0.089616165 1.0607501 1.2900382e-39
0.12115965 0.089616165 1.0632501 1.5669768e-39
0.11865965 0.09211617 1.0632501 2.759755e-39
0.11865965 0.094616167 1.0607501 2.6679055e-39
0.11865965 0.094616167 1.0632501 2.0257857e-39
0.12115965 0.09211617 1.0607501 2.1176324e-39
0.12115965 0.09211617 1.0632501 2.4867639e-39
0.12115965 0.094616167 1.0607501 2.8526569e-39
0.12115965 0.094616167 1.0632501 3.1288963e-39
0.11865965 0.097116165 1.0607501 1.6566445e-39
0.11865965 0.097116165 1.0632501 1.6570004e-39
0.12115965 0.097116165 1.0607501 1.8413945e-39
0.12115965 0.097116165 1.0632501 2.759755e-39
0.10615965 0.084616169 1.08325 0
0.10615965 0.087116167 1.0807501 4.3356174e-42
0.10615965 0.087116167 1.08325 9.18397e-41
0.10615965 0.089616165 1.0807501 1.0102101e-39
0.10865965 0.082116164 1.08325 2.9412778e-39
0.10865965 0.084616169 1.0807501 1.1974838e-39
0.10865965 0.084616169 1.08325 1.1981929e-39
0.11115965 0.082116164 1.08325 4.1340351e-39
0.11115965 0.084616169 1.0807501 2.1179828e-39
0.11115965 0.084616169 1.08325 1.8413945e-39
0.10865965 0.087116167 1.0757501 4.667557e-40
0.10865965 0.089616165 1.0757501 1.8410441e-39
0.11115965 0.087116167 1.0757501 2.3016636e-39
0.11115965 0.089616165 1.0757501 2.0257829e-39
0.10865965 0.087116167 1.0807501 5.5893872e-40
0.10865965 0.087116167 1.08325 2.0254368e-39
0.10865965 0.089616165 1.0807501 2.3906222e-39
0.11115965 0.087116167 1.0807501 2.5789595e-39
0.11115965 0.087116167 1.08325 3.1296151e-39
0.11115965 0.089616165 1.0807501 2.0257829e-39
0.11615966 0.084616169 1.0707501 1.9357579e-39
0.11615966 0.089616165 1.0657501 2.3020139e-39
0.11615966 0.089616165 1.0707501 2.3020139e-39
0.11615966 0.089616165 1.0732501 2.3016636e-39
0.11865965 0.084616169 1.0657501 6.4466876e-40
0.12115965 0.084616169 1.0657501 1.8104776e-42
0.11865965 0.084616169 1.0707501 1.1031204e-39
0.11865965 0.084616169 1.0732501 1.5414283e-44
0.12115965 0.082116164 1.0732501 5.5101298e-40
0.12115965 0.084616169 1.0707501 1.9618179e-44
0.12115965 0.084616169 1.0732501 0
0.11865965 0.087116167 1.0657501 1.5669768e-39
0.11865965 0.089616165 1.0657501 2.0250809e-39
0.12115965 0.087116167 1.0657501 1.3800674e-39
0.12115965 0.089616165 1.0657501 1.7510079e-39
0.11865965 0.087116167 1.0707501 2.2984294e-39
0.11865965 0.089616165 1.0732501 2.7590488e-39
0.12115965 0.087116167 1.0707501 1.1985432e-39
0.11365965 0.082116164 1.0807501 2.1176324e-39
0.11365965 0.082116164 1.08325 4.6872088e-39
0.11365965 0.084616169 1.0807501 2.3963829e-39
0.11365965 0.084616169 1.08325 2.7633522e-39
0.11615966 0.082116164 1.0807501 1.6562969e-39
0.11615966 0.082116164 1.08325 1.6562941e-39
0.11615966 0.084616169 1.0807501 1.7510135e-39
0.11615966 0.084616169 1.08325 1.8435623e-39
0.11365965 0.089616165 1.0757501 2.1176324e-39
0.11615966 0.087116167 1.0757501 3.3136575e-39
0.11615966 0.089616165 1.0757501 2.9441463e-39
0.11365965 0.087116167 1.0807501 3.1289061e-39
0.11365965 0.087116167 1.08325 3.0370608e-39
0.11365965 0.089616165 1.0807501 2.759755e-39
0.11615966 0.087116167 1.0807501 2.7630018e-39
0.11615966 0.087116167 1.08325 3.1296151e-39
0.11615966 0.089616165 1.0807501 2.3938592e-39
0.11865965 0.082116164 1.0757501 0
0.11865965 0.084616169 1.0757501 4.2038954e-45
0.12115965 0.082116164 1.0757501 0
0.12115965 0.084616169 1.0757501 0
0.11865965 0.082116164 1.0807501 2.7589044e-40
0.11865965 0.082116164 1.08325 8.2941034e-40
0.11865965 0.084616169 1.0807501 3.7202933e-40
0.11865965 0.084616169 1.08325 4.6422496e-40
0.12115965 0.082116164 1.0807501 0
0.12115965 0.084616169 1.0807501 5.6051939e-45
0.11865965 0.087116167 1.0757501 2.8516031e-39
0.11865965 0.089616165 1.0757501 2.4867639e-39
0.12115965 0.087116167 1.0757501 7.1746481e-43
0.11865965 0.087116167 1.0807501 2.3016636e-39
0.11865965 0.087116167 1.08325 1.5669768e-39
0.11865965 0.089616165 1.0807501 2.4867639e-39
0.12115965 0.087116167 1.0807501 1.9332398e-39
0.12115965 0.087116167 1.08325 6.4501908e-40
0.11615966 0.09211617 1.0657501 2.1179828e-39
0.11615966 0.094616167 1.0657501 1.7491988e-39
0.11365965 0.09211617 1.0732501 1.4726133e-39
0.11615966 0.09211617 1.0707501 2.3027201e-39
0.11615966 0.09211617 1.0732501 1.8413945e-39
0.11865965 0.09211617 1.0657501 2.0250865e-39
0.11865965 0.094616167 1.0657501 2.0254368e-39
0.12115965 0.09211617 1.0657501 2.3020139e-39
0.12115965 0.094616167 1.0657501 2.759755e-39
0.11865965 0.09211617 1.0732501 2.1172821e-39
0.13115965 0.084616169 1.0507501 1.8326324e-38
0.13115965 0.084616169 1.0532501 2.0174245e-38
0.13115965 0.087116167 1.0507501 8.2774308e-39
0.13115965 0.087116167 1.0532501 8.5554428e-39
0.13115965 0.089616165 1.0507501 0
0.13115965 0.089616165 1.0532501 0
0.12615965 0.082116164 1.0632501 8.2896809e-39
0.12615965 0.084616169 1.0607501 6.342389e-39
0.12615965 0.084616169 1.0632501 0
0.12615965 0.089616165 1.0557501 0
0.12365965 0.087116167 1.0632501 0
0.12365965 0.089616165 1.0607501 1.472263e-39
0.12365965 0.089616165 1.0632501 4.6422496e-40
0.12615965 0.087116167 1.0607501 0
0.12615965 0.087116167 1.0632501 0
0.12615965 0.089616165 1.0607501 1.4012985e-45
0.12615965 0.089616165 1.0632501 2.8866748e-42
0.12865965 0.084616169 1.0557501 1.233472e-38
0.13115965 0.084616169 1.0557501 1.648677e-38
0.12865965 0.082116164 1.0607501 1.9620341e-38
0.12865965 0.082116164 1.0632501 1.9803287e-38
0.12865965 0.084616169 1.0607501 1.2518748e-38
0.12865965 0.084616169 1.0632501 6.6182542e-39
0.13115965 0.082116164 1.0607501 1.9808001e-38
0.13115965 0.082116164 1.0632501 1.9808717e-38
0.13115965 0.084616169 1.0607501 1.6209126e-38
0.13115965 0.084616169 1.0632501 1.6394592e-38
0.12865965 0.087116167 1.0557501 0
0.12865965 0.089616165 1.0557501 0
0.13115965 0.087116167 1.0557501 4.4999393e-39
0.13115965 0.089616165 1.0557501 0
0.12865965 0.087116167 1.0607501 0
0.12865965 0.087116167 1.0632501 0
0.12865965 0.089616165 1.0607501 0
0.12865965 0.089616165 1.0632501 1.836766e-40
0.13115965 0.087116167 1.0607501 1.2055942e-38
0.12365965 0.09961617 1.0532501 1.6566445e-39
0.12615965 0.09961617 1.0532501 2.4835269e-39
0.13115965 0.09211617 1.0507501 1.2611686e-44
0.13115965 0.09211617 1.0532501 1.0101905e-39
0.13115965 0.094616167 1.0507501 4.6026909e-40
0.13115965 0.094616167 1.0532501 8.2724394e-40
0.12865965 0.09961617 1.0532501 2.8519507e-39
0.13115965 0.097116165 1.0507501 1.472263e-39
0.13115965 0.097116165 1.0532501 1.1981929e-39
0.13115965 0.09961617 1.0507501 1.4744294e-39
0.13115965 0.09961617 1.0532501 2.0257829e-39
0.12365965 0.094616167 1.0557501 2.1179828e-39
0.12615965 0.09211617 1.0557501 1.1056385e-39
0.12615965 0.094616167 1.0557501 2.4857045e-39
0.12365965 0.09211617 1.0607501 2.3020139e-39
0.12365965 0.09211617 1.0632501 1.4747798e-39
0.12365965 0.094616167 1.0607501 2.0254368e-39
0.12365965 0.094616167 1.0632501 1.8428532e-39
0.12615965 0.09211617 1.0607501 6.4431283e-40
0.12615965 0.09211617 1.0632501 1.6555907e-39
0.12615965 0.094616167 1.0607501 1.6566445e-39
0.12365965 0.09961617 1.0557501 1.6562941e-39
0.12615965 0.097116165 1.0557501 2.3016636e-39
0.12615965 0.09961617 1.0557501 1.8410441e-39
0.12365965 0.097116165 1.0607501 1.8413945e-39
0.12365965 0.097116165 1.0632501 2.3016636e-39
0.12615965 0.097116165 1.0607501 2.667558e-39
0.12865965 0.09211617 1.0557501 6.4501908e-40
0.12865965 0.094616167 1.0557501 2.3013132e-39
0.13115965 0.09211617 1.0557501 0
0.13115965 0.094616167 1.0557501 1.6562941e-39
0.12865965 0.09211617 1.0607501 2.7589044e-40
0.12865965 0.09211617 1.0632501 7.3650846e-40
0.12865965 0.094616167 1.0607501 1.1031204e-39
0.13115965 0.09211617 1.0607501 0
0.12865965 0.097116165 1.0557501 2.1176324e-39
0.12865965 0.09961617 1.0557501 2.0254368e-39
0.13115965 0.097116165 1.0557501 1.3825841e-39
0.13115965 0.09961617 1.0557501 1.8410441e-39
0.13365965 0.084616169 1.0507501 1.9530686e-38
0.13365965 0.087116167 1.0507501 1.3997468e-38
0.13365965 0.087116167 1.0532501 1.445879e-38
0.13365965 0.089616165 1.0507501 7.2675598e-39
0.13365965 0.089616165 1.0532501 7.997939e-39
0.13615966 0.087116167 1.0507501 1.9160423e-38
0.13615966 0.087116167 1.0532501 1.9252954e-38
0.13615966 0.089616165 1.0507501 1.5104162e-38
0.13615966 0.089616165 1.0532501 1.6018932e-38
0.13865966 0.089616165 1.0532501 1.8881351e-38
0.13365965 0.087116167 1.0557501 1.9529244e-38
0.13365965 0.087116167 1.0607501 1.8049394e-38
0.13365965 0.09211617 1.0457501 0
0.13365965 0.094616167 1.0457501 0
0.13615966 0.09211617 1.0457501 3.3060779e-39
0.13615966 0.094616167 1.0457501 0
0.13365965 0.09211617 1.0507501 0
0.13365965 0.09211617 1.0532501 1.5612034e-39
0.13365965 0.094616167 1.0507501 4.591971e-40
0.13365965 0.094616167 1.0532501 1.8367099e-40
0.13615966 0.09211617 1.0507501 2.9387359e-39
0.13615966 0.09211617 1.0532501 3.2142424e-39
0.13615966 0.094616167 1.0507501 1.1938615e-39
0.13615966 0.094616167 1.0532501 0
0.13365965 0.097116165 1.0457501 1.1056385e-39
0.13365965 0.09961617 1.0457501 1.2903885e-39
0.13615966 0.097116165 1.0457501 2.7589044e-40
0.13615966 0.09961617 1.0457501 1.3825841e-39
0.13365965 0.097116165 1.0507501 1.1949685e-39
0.13365965 0.097116165 1.0532501 1.1031204e-39
0.13365965 0.09961617 1.0507501 1.5669768e-39
0.13365965 0.09961617 1.0532501 1.7481423e-39
0.13615966 0.097116165 1.0507501 6.4287089e-40
0.13615966 0.097116165 1.0532501 8.2689361e-40
0.13615966 0.09961617 1.0507501 4.6026909e-40
0.13615966 0.09961617 1.0532501 1.1027728e-39
0.13865966 0.09211617 1.0457501 1.2243288e-38
0.13865966 0.094616167 1.0457501 7.3468397e-40
0.14115965 0.09211617 1.0457501 1.6763703e-38
0.14115965 0.094616167 1.0457501 8.7415913e-39
0.13865966 0.09211617 1.0507501 1.1783033e-38
0.13865966 0.09211617 1.0532501 1.1599254e-38
0.13865966 0.094616167 1.0507501 1.2856969e-39
0.14115965 0.09211617 1.0507501 1.6946652e-38
0.14115965 0.094616167 1.0507501 8.1862735e-39
0.13865966 0.097116165 1.0457501 1.5414283e-44
0.13865966 0.09961617 1.0457501 1.4012985e-45
0.14115965 0.097116165 1.0457501 0
0.14115965 0.09961617 1.0457501 0
0.13865966 0.097116165 1.0507501 0
0.13865966 0.097116165 1.0532501 0
0.13865966 0.09961617 1.0507501 8.4077908e-45
0.13865966 0.09961617 1.0532501 1.821688e-44
0.14115965 0.097116165 1.0507501 1.8367099e-40
0.14115965 0.09961617 1.0507501 3.6734198e-40
0.13365965 0.09211617 1.0557501 2.7550649e-39
0.13365965 0.09961617 1.0557501 2.3924397e-39
0.12365965 0.082116164 1.0657501 8.2651947e-40
0.12365965 0.084616169 1.0657501 5.5101298e-40
0.12615965 0.082116164 1.0657501 8.5644658e-39
0.12615965 0.084616169 1.0657501 4.5917748e-40
0.12365965 0.082116164 1.0707501 9.5702632e-39
0.12365965 0.082116164 1.0732501 1.102026e-39
0.12365965 0.084616169 1.0707501 7.0064923e-45
0.12365965 0.084616169 1.0732501 0
0.12615965 0.082116164 1.0707501 1.6578901e-38
0.12615965 0.082116164 1.0732501 1.0308534e-38
0.12365965 0.087116167 1.0657501 0
0.12615965 0.087116167 1.0657501 0
0.12865965 0.082116164 1.0657501 1.5564446e-38
0.13115965 0.082116164 1.0657501 1.9532853e-38
0.13115965 0.084616169 1.0657501 1.6393517e-38
0.12365965 0.082116164 1.0757501 1.6530389e-39
0.12865965 0.10211617 1.0507501 1.6562941e-39
0.13115965 0.10211617 1.0507501 1.8410441e-39
0.13365965 0.10211617 1.0457501 1.8410441e-39
0.13365965 0.10461617 1.0457501 1.5673257e-39
0.13615966 0.10211617 1.0457501 1.6562941e-39
0.13615966 0.10461617 1.0457501 1.9361082e-39
0.13365965 0.10211617 1.0507501 1.8413945e-39
0.13615966 0.10211617 1.0507501 1.2903885e-39
0.13865966 0.10211617 1.0457501 2.7623797e-40
0.10865965 0.082116164 1.0857501 2.9412778e-39
0.10865965 0.084616169 1.0857501 0
0.11115965 0.082116164 1.0857501 3.5833878e-39
0.11115965 0.084616169 1.0857501 2.0257829e-39
0.10865965 0.082116164 1.0907501 1.3775394e-39
0.10865965 0.084616169 1.0907501 0
0.11115965 0.082116164 1.0907501 3.7681294e-39
0.11115965 0.084616169 1.0907501 1.7491988e-39
0.10865965 0.087116167 1.0857501 0
0.11115965 0.087116167 1.0857501 3.1289061e-39
0.11365965 0.082116164 1.0857501 4.2283985e-39
0.11365965 0.084616169 1.0857501 2.6711523e-39
0.11615966 0.082116164 1.0857501 1.8410441e-39
0.11615966 0.084616169 1.0857501 2.1179828e-39
0.11615966 0.087116167 1.0857501 2.7626487e-39
0.11865965 0.082116164 1.0857501 5.521172e-40
0.11865965 0.084616169 1.0857501 8.2941034e-40
0.12115965 0.084616169 1.0857501 3.7835059e-43
0.11865965 0.087116167 1.0857501 1.4747798e-39
0.12115965 0.087116167 1.0857501 2.7947356e-40
0.14365965 0.09211617 1.04075 1.8887487e-38
0.14365965 0.09211617 1.0432501 1.8704175e-38
0.14365965 0.094616167 1.04075 1.741089e-38
0.14365965 0.094616167 1.0432501 1.7595637e-38
0.14615965 0.094616167 1.0432501 1.9898393e-38
0.14365965 0.097116165 1.0432501 4.6836103e-39
0.14365965 0.09961617 1.04075 0
0.14365965 0.09961617 1.0432501 0
0.14615965 0.097116165 1.04075 1.5104907e-38
0.14615965 0.097116165 1.0432501 1.5290005e-38
0.14615965 0.09961617 1.04075 1.03071e-38
0.14615965 0.09961617 1.0432501 1.0307458e-38
0.14365965 0.10961617 1.0182501 1.1981929e-39
0.14615965 0.10961617 1.0182501 0
0.14365965 0.10961617 1.02075 1.6562941e-39
0.14615965 0.10961617 1.02075 8.2689361e-40
0.14865965 0.10961617 1.0182501 0
0.15115964 0.10961617 1.0182501 2.8025969e-45
0.14865965 0.10961617 1.02075 0
0.15115964 0.10961617 1.02075 0
0.14365965 0.11211617 1.0182501 9.219563e-40
0.14365965 0.11461617 1.0182501 2.5731932e-39
0.14615965 0.11211617 1.0157501 1.1886094e-38
0.14615965 0.11211617 1.0182501 2.1173522e-39
0.14615965 0.11461617 1.0157501 1.4002249e-38
0.14615965 0.11461617 1.0182501 1.4555423e-38
0.14365965 0.11211617 1.02075 6.4536941e-40
0.14365965 0.11461617 1.02075 5.4208082e-39
0.14615965 0.11211617 1.02075 1.751717e-39
0.14615965 0.11461617 1.02075 1.4548176e-38
0.14365965 0.11711617 1.0182501 3.6734198e-39
0.14365965 0.11961617 1.0157501 3.1224069e-39
0.14615965 0.11711617 1.0157501 1.2435607e-38
0.14615965 0.11711617 1.0182501 1.234521e-38
0.14615965 0.11961617 1.0157501 8.0073081e-39
0.14865965 0.11211617 1.0157501 1.0041455e-38
0.14865965 0.11211617 1.0182501 7.3477645e-40
0.14865965 0.11461617 1.0157501 1.188175e-38
0.14865965 0.11461617 1.0182501 1.2250891e-38
0.15115964 0.11211617 1.0157501 9.2485699e-44
0.15115964 0.11211617 1.0182501 2.3822074e-44
0.15115964 0.11461617 1.0157501 5.5533879e-40
0.15115964 0.11461617 1.0182501 3.0485851e-39
0.14865965 0.11711617 1.0157501 1.1882434e-38
0.14865965 0.11711617 1.0182501 1.1515449e-38
0.14865965 0.11961617 1.0157501 1.2340503e-38
0.15115964 0.11711617 1.0157501 1.1149525e-38
0.15115964 0.11711617 1.0182501 1.1150963e-38
0.15365966 0.10961617 1.0182501 0
0.15615965 0.10961617 1.0182501 5.8994511e-39
0.15365966 0.10961617 1.02075 0
0.15615965 0.10961617 1.02075 0
0.15865965 0.10961617 1.0182501 1.0776443e-38
0.15365966 0.11211617 1.0157501 0
0.15365966 0.11211617 1.0182501 0
0.15365966 0.11461617 1.0157501 2.8594939e-39
0.15365966 0.11461617 1.0182501 1.2979107e-39
0.15615965 0.11211617 1.0157501 1.1247867e-38
0.15615965 0.11211617 1.0182501 9.4046773e-39
0.15615965 0.11461617 1.0157501 1.0974853e-38
0.15615965 0.11461617 1.0182501 1.115674e-38
0.15615965 0.11211617 1.02075 9.9553302e-39
0.15615965 0.11461617 1.02075 9.7799072e-39
0.15365966 0.11711617 1.0157501 9.8631205e-39
0.15365966 0.11711617 1.0182501 9.8631177e-39
0.15615965 0.11711617 1.0182501 1.1244973e-38
0.15865965 0.11211617 1.0157501 1.5481673e-38
0.15865965 0.11211617 1.0182501 1.4288508e-38
0.15865965 0.11461617 1.0157501 1.5388391e-38
0.15865965 0.11461617 1.0182501 1.5941565e-38
0.16115965 0.11211617 1.0157501 1.6492218e-38
0.16115965 0.11461617 1.0157501 1.6676964e-38
0.15865965 0.11211617 1.02075 1.2072936e-38
0.15865965 0.11461617 1.02075 1.3729596e-38
0.16115965 0.11461617 1.02075 1.5665704e-38
0.15865965 0.11711617 1.0182501 1.5205795e-38
0.14365965 0.10461617 1.0282501 3.6734899e-40
0.14615965 0.10461617 1.0282501 3.6734198e-40
0.14365965 0.10211617 1.0332501 0
0.14365965 0.10461617 1.03075 1.44614e-42
0.14365965 0.10461617 1.0332501 1.8404094e-40
0.14615965 0.10211617 1.0332501 0
0.14615965 0.10461617 1.03075 4.5918589e-40
0.14615965 0.10461617 1.0332501 5.6051939e-45
0.14365965 0.10711617 1.02575 8.2941034e-40
0.14365965 0.10711617 1.0282501 1.1056385e-39
0.14365965 0.10961617 1.02575 1.4747798e-39
0.14365965 0.10961617 1.0282501 1.1056385e-39
0.14615965 0.10711617 1.02575 6.4501908e-40
0.14615965 0.10711617 1.0282501 8.2654609e-40
0.14615965 0.10961617 1.02575 1.2878704e-39
0.14615965 0.10961617 1.0282501 7.3721471e-40
0.14365965 0.10711617 1.03075 1.1056385e-39
0.14365965 0.10711617 1.0332501 6.4501908e-40
0.14615965 0.10711617 1.03075 1.8404094e-40
0.14615965 0.10711617 1.0332501 7.3469798e-40
0.14865965 0.10461617 1.0282501 0
0.15115964 0.10461617 1.0282501 2.1122164e-39
0.14865965 0.10211617 1.0332501 0
0.14865965 0.10461617 1.03075 0
0.14865965 0.10461617 1.0332501 0
0.15115964 0.10461617 1.03075 0
0.14865965 0.10711617 1.0282501 1.821688e-44
0.14865965 0.10961617 1.02575 4.6026909e-40
0.14865965 0.10961617 1.0282501 1.011631e-39
0.15115964 0.10711617 1.02575 0
0.15115964 0.10711617 1.0282501 0
0.15115964 0.10961617 1.02575 0
0.15115964 0.10961617 1.0282501 0
0.14865965 0.10711617 1.03075 5.6051939e-45
0.14865965 0.10711617 1.0332501 4.5918589e-40
0.14865965 0.10961617 1.03075 1.1041783e-39
0.15115964 0.10711617 1.03075 0
0.15115964 0.10711617 1.0332501 0
0.15115964 0.10961617 1.03075 7.3576017e-40
0.14365965 0.10211617 1.0382501 0
0.14365965 0.10461617 1.0382501 2.7623797e-40
0.14615965 0.10211617 1.0382501 0
0.14615965 0.10461617 1.0382501 4.2038954e-45
0.14365965 0.10211617 1.04075 0
0.14365965 0.10211617 1.0432501 1.4012985e-45
0.14615965 0.10211617 1.04075 3.3979134e-39
0.14615965 0.10211617 1.0432501 3.2142424e-39
0.14865965 0.10211617 1.0382501 0
0.14865965 0.10461617 1.0382501 0
0.15115964 0.10461617 1.0382501 3.6734198e-40
0.14865965 0.10211617 1.04075 0
0.15115964 0.10711617 1.0382501 0
0.14365965 0.11211617 1.02575 1.2882207e-39
0.14365965 0.11461617 1.02575 0
0.15365966 0.10461617 1.03075 1.9285454e-39
0.15365966 0.10711617 1.02575 0
0.15365966 0.10711617 1.0282501 0
0.15365966 0.10961617 1.02575 0
0.15365966 0.10961617 1.0282501 0
0.15615965 0.10711617 1.02575 5.2371344e-39
0.15615965 0.10711617 1.0282501 5.5119234e-39
0.15615965 0.10961617 1.02575 6.2678735e-39
0.15615965 0.10961617 1.0282501 0
0.15365966 0.10711617 1.03075 0
0.15365966 0.10711617 1.0332501 0
0.15365966 0.10961617 1.03075 0
0.15615965 0.10711617 1.03075 4.8679988e-39
0.15615965 0.10711617 1.0332501 6.1547719e-39
0.15615965 0.10961617 1.0332501 0
0.15865965 0.10711617 1.0282501 1.3716234e-38
0.15865965 0.10961617 1.0282501 4.334268e-39
0.15365966 0.10711617 1.0382501 0
0.15615965 0.10711617 1.0382501 0
0.15865965 0.11211617 1.02575 1.2715775e-38
0.16115965 0.11211617 1.02575 1.5665676e-38
0.14365965 0.09211617 1.0457501 1.8611623e-38
0.14365965 0.094616167 1.0457501 1.7318344e-38
0.14615965 0.094616167 1.0457501 1.9623236e-38
0.14365965 0.09211617 1.0507501 1.934483e-38
0.14365965 0.094616167 1.0507501 1.7225076e-38
0.14365965 0.097116165 1.0457501 4.5917748e-39
0.14365965 0.09961617 1.0457501 0
0.14615965 0.097116165 1.0457501 1.8327067e-38
0.14365965 0.097116165 1.0507501 1.3442143e-38
0.14615965 0.097116165 1.0507501 1.814412e-38
